458006.56250000 4298224.00000000 954.84698486 192 170 152
458006.56250000 4298224.50000000 955.04101563 180 157 139
458006.56250000 4298225.00000000 955.14697266 168 145 127
458006.56250000 4298225.50000000 955.12799072 166 145 130
458006.56250000 4298226.00000000 955.05297852 162 144 133
458006.56250000 4298226.50000000 954.94201660 171 153 139
458006.56250000 4298227.00000000 954.82098389 174 155 141
458007.06250000 4298224.50000000 955.68902588 199 173 154
458007.06250000 4298225.00000000 955.71099854 179 153 136
458007.06250000 4298225.50000000 955.66400146 164 141 127
458007.06250000 4298226.00000000 955.54699707 150 132 121
458007.06250000 4298226.50000000 955.37402344 144 125 114
458007.06250000 4298227.00000000 955.21502686 144 125 111
458007.06250000 4298227.50000000 955.10302734 143 124 110
458007.06250000 4298228.00000000 955.05999756 139 120 105
458007.06250000 4298228.50000000 955.07202148 141 122 106
458007.06250000 4298229.00000000 955.06701660 148 129 112
458007.06250000 4298229.50000000 955.04901123 156 137 120
458007.06250000 4298230.00000000 955.02099609 166 146 131
458007.56250000 4298225.50000000 955.96002197 191 169 154
458007.56250000 4298226.00000000 955.84002686 163 143 133
458007.56250000 4298226.50000000 955.69500732 142 124 114
458007.56250000 4298227.00000000 955.55200195 142 122 112
458007.56250000 4298227.50000000 955.42602539 149 127 113
458007.56250000 4298228.00000000 955.38897705 150 129 110
458007.56250000 4298228.50000000 955.42498779 151 129 109
458007.56250000 4298229.00000000 955.44500732 149 127 108
458007.56250000 4298229.50000000 955.40600586 146 125 107
458007.56250000 4298230.00000000 955.30999756 146 123 109
458008.06250000 4298226.00000000 956.03399658 153 135 121
458008.06250000 4298226.50000000 955.90997314 135 117 106
458008.06250000 4298227.00000000 955.76000977 143 120 106
458008.06250000 4298227.50000000 955.64599609 168 139 116
458008.06250000 4298228.00000000 955.63098145 177 145 114
458008.06250000 4298228.50000000 955.65802002 192 160 127
458008.06250000 4298229.00000000 955.67498779 199 168 138
458008.06250000 4298229.50000000 955.65197754 194 164 138
458008.06250000 4298230.00000000 955.57098389 184 158 133
458008.56250000 4298226.00000000 956.10101318 147 128 114
458008.56250000 4298226.50000000 955.97698975 134 112 94
458008.56250000 4298227.00000000 955.84100342 166 138 114
458008.56250000 4298227.50000000 955.73999023 204 171 137
458008.56250000 4298228.00000000 955.72302246 210 175 134
458008.56250000 4298228.50000000 955.74597168 207 169 125
458008.56250000 4298229.00000000 955.76599121 206 169 124
458008.56250000 4298229.50000000 955.76898193 213 175 135
458008.56250000 4298230.00000000 955.73199463 217 181 144
458009.06250000 4298226.00000000 955.99798584 156 137 122
458009.06250000 4298226.50000000 955.90802002 143 121 102
458009.06250000 4298227.00000000 955.80999756 170 143 117
458009.06250000 4298227.50000000 955.74499512 192 161 128
458009.06250000 4298228.00000000 955.72998047 202 168 127
458009.06250000 4298228.50000000 955.75598145 207 171 125
458009.06250000 4298229.00000000 955.78698730 204 168 121
458009.06250000 4298229.50000000 955.80102539 212 174 128
458009.06250000 4298230.00000000 955.78601074 222 180 135
458009.56250000 4298226.00000000 955.74597168 180 160 144
458009.56250000 4298226.50000000 955.74298096 161 141 124
458009.56250000 4298227.00000000 955.71301270 157 135 114
458009.56250000 4298227.50000000 955.68701172 167 140 116
458009.56250000 4298228.00000000 955.67498779 174 144 116
458009.56250000 4298228.50000000 955.69799805 183 150 118
458009.56250000 4298229.00000000 955.73101807 189 156 122
458009.56250000 4298229.50000000 955.75402832 198 163 128
458009.56250000 4298230.00000000 955.75598145 212 171 129
458010.06250000 4298226.50000000 955.51599121 174 153 136
458010.06250000 4298227.00000000 955.54998779 168 147 130
458010.06250000 4298227.50000000 955.56500244 164 141 125
458010.06250000 4298228.00000000 955.58697510 164 139 121
458010.06250000 4298228.50000000 955.61999512 159 134 113
458010.06250000 4298229.00000000 955.64599609 161 133 112
458010.06250000 4298229.50000000 955.66900635 166 136 114
458010.06250000 4298230.00000000 955.68200684 171 139 113
458010.56250000 4298226.50000000 955.28497314 192 170 152
458010.56250000 4298227.00000000 955.32299805 193 170 152
458010.56250000 4298227.50000000 955.34899902 190 168 149
458010.56250000 4298228.00000000 955.38702393 188 166 150
458010.56250000 4298228.50000000 955.43597412 186 161 147
458010.56250000 4298229.00000000 955.49401855 179 154 139
458010.56250000 4298229.50000000 955.54602051 170 144 129
458010.56250000 4298230.00000000 955.58398438 168 141 126
458011.06250000 4298228.50000000 955.21197510 197 176 158
458011.06250000 4298229.00000000 955.28302002 199 177 158
458011.06250000 4298229.50000000 955.34197998 195 174 155
458011.06250000 4298230.00000000 955.39398193 191 170 151
458007.56250000 4298230.50000000 955.20001221 144 125 109
458007.56250000 4298231.00000000 955.09399414 150 131 117
458007.56250000 4298232.00000000 954.91400146 168 149 138
458007.56250000 4298232.50000000 954.83898926 177 159 145
458008.06250000 4298230.50000000 955.45300293 173 147 123
458008.06250000 4298231.00000000 955.33197021 156 134 116
458008.06250000 4298231.50000000 955.21502686 144 124 114
458008.06250000 4298232.00000000 955.11499023 140 122 114
458008.06250000 4298232.50000000 955.05200195 140 124 113
458008.06250000 4298233.00000000 955.06402588 150 132 118
458008.56250000 4298230.50000000 955.64599609 202 171 136
458008.56250000 4298231.00000000 955.53100586 177 150 124
458008.56250000 4298231.50000000 955.39801025 157 133 119
458008.56250000 4298232.00000000 955.28198242 137 119 111
458008.56250000 4298232.50000000 955.23699951 130 116 108
458008.56250000 4298233.00000000 955.31201172 147 129 117
458009.06250000 4298230.50000000 955.71301270 210 173 129
458009.06250000 4298231.00000000 955.61798096 184 153 120
458009.06250000 4298231.50000000 955.52197266 161 134 117
458009.06250000 4298232.00000000 955.42297363 138 119 110
458009.06250000 4298232.50000000 955.39501953 131 117 109
458009.06250000 4298233.00000000 955.48901367 162 144 133
458009.56250000 4298230.50000000 955.70397949 200 164 124
458009.56250000 4298231.00000000 955.63397217 180 150 117
458009.56250000 4298231.50000000 955.56298828 155 129 111
458009.56250000 4298232.00000000 955.49401855 141 119 109
458009.56250000 4298232.50000000 955.50799561 138 120 112
458009.56250000 4298233.00000000 955.64898682 179 159 147
458010.06250000 4298230.50000000 955.66198730 173 144 113
458010.06250000 4298231.00000000 955.61700439 168 141 114
458010.06250000 4298231.50000000 955.55499268 156 132 114
458010.06250000 4298232.00000000 955.51501465 151 130 117
458010.06250000 4298232.50000000 955.57702637 155 135 122
458010.56250000 4298230.50000000 955.59100342 163 139 117
458010.56250000 4298231.00000000 955.55401611 163 141 118
458010.56250000 4298231.50000000 955.49902344 169 148 130
458010.56250000 4298232.00000000 955.49200439 172 151 136
458011.06250000 4298230.50000000 955.42498779 186 166 146
458011.06250000 4298231.00000000 955.42199707 186 166 146
458011.06250000 4298232.00000000 955.39898682 191 170 151
