457993.56250000 4298157.00000000 945.06201172 195 187 179
457994.06250000 4298156.50000000 944.85400391 188 179 171
457994.56250000 4298156.50000000 944.89697266 201 193 182
457995.06250000 4298156.50000000 944.93798828 194 184 173
457995.56250000 4298156.50000000 944.92999268 196 186 176
457991.06250000 4298160.50000000 946.29797363 214 204 192
457991.06250000 4298161.00000000 946.31896973 216 204 192
457991.56250000 4298159.00000000 946.20898438 209 201 190
457991.56250000 4298159.50000000 946.50402832 208 198 189
457991.56250000 4298160.00000000 946.63500977 205 195 186
457991.56250000 4298160.50000000 946.65899658 201 191 182
457991.56250000 4298161.00000000 946.60900879 197 187 177
457991.56250000 4298161.50000000 946.50598145 201 189 178
457991.56250000 4298162.00000000 946.40399170 208 194 183
457991.56250000 4298162.50000000 946.34997559 215 199 186
457992.06250000 4298158.50000000 946.17199707 202 195 186
457992.06250000 4298159.00000000 946.53002930 201 194 185
457992.06250000 4298159.50000000 946.78497314 200 193 186
457992.06250000 4298160.00000000 946.93499756 195 187 182
457992.06250000 4298160.50000000 946.93103027 190 184 177
457992.06250000 4298161.00000000 946.82000732 181 173 166
457992.06250000 4298161.50000000 946.70501709 172 162 153
457992.06250000 4298162.00000000 946.52197266 179 168 157
457992.06250000 4298162.50000000 946.36401367 196 181 171
457992.56250000 4298158.00000000 945.83502197 203 196 188
457992.56250000 4298158.50000000 946.38098145 219 214 208
457992.56250000 4298159.00000000 946.74102783 218 213 208
457992.56250000 4298159.50000000 946.94000244 240 235 232
457992.56250000 4298160.00000000 947.08197021 248 244 241
457992.56250000 4298160.50000000 947.10400391 244 239 236
457992.56250000 4298161.00000000 946.98400879 228 222 218
457992.56250000 4298161.50000000 946.83898926 172 164 157
457992.56250000 4298162.00000000 946.64898682 145 135 126
457992.56250000 4298162.50000000 946.41699219 167 153 142
457993.06250000 4298158.00000000 945.94000244 216 210 205
457993.06250000 4298158.50000000 946.41497803 226 222 218
457993.06250000 4298159.00000000 946.74401855 237 233 230
457993.06250000 4298159.50000000 946.97198486 247 246 244
457993.06250000 4298160.00000000 947.12500000 247 246 245
457993.06250000 4298160.50000000 947.17297363 246 245 243
457993.06250000 4298161.00000000 947.10498047 240 237 235
457993.06250000 4298161.50000000 946.95898438 177 171 167
457993.06250000 4298162.00000000 946.73297119 134 126 119
457993.06250000 4298162.50000000 946.47601318 164 151 142
457993.56250000 4298157.50000000 945.47198486 185 180 174
457993.56250000 4298158.00000000 945.98602295 209 206 201
457993.56250000 4298158.50000000 946.46099854 224 220 219
457993.56250000 4298159.00000000 946.79400635 238 238 236
457993.56250000 4298159.50000000 946.99798584 245 245 245
457993.56250000 4298160.00000000 947.15002441 246 247 249
457993.56250000 4298160.50000000 947.19299316 245 245 246
457993.56250000 4298161.00000000 947.15600586 240 238 239
457993.56250000 4298161.50000000 947.02001953 176 171 170
457993.56250000 4298162.00000000 946.78997803 132 124 120
457993.56250000 4298162.50000000 946.54302979 162 150 142
457993.56250000 4298163.00000000 946.30902100 203 189 178
457994.06250000 4298157.00000000 945.19299316 191 184 176
457994.06250000 4298157.50000000 945.53698730 201 196 190
457994.06250000 4298158.00000000 946.01898193 214 212 207
457994.06250000 4298158.50000000 946.50799561 224 224 221
457994.06250000 4298159.00000000 946.82397461 240 240 238
457994.06250000 4298159.50000000 947.00097656 244 245 247
457994.06250000 4298160.00000000 947.14300537 246 247 249
457994.06250000 4298160.50000000 947.18902588 245 245 247
457994.06250000 4298161.00000000 947.15698242 240 238 239
457994.06250000 4298161.50000000 947.03002930 172 168 167
457994.06250000 4298162.00000000 946.82098389 131 123 121
457994.06250000 4298162.50000000 946.57098389 161 150 142
457994.56250000 4298157.00000000 945.29101563 205 198 189
457994.56250000 4298157.50000000 945.69396973 203 198 191
457994.56250000 4298158.00000000 946.16900635 213 210 205
457994.56250000 4298158.50000000 946.56097412 221 221 219
457994.56250000 4298159.00000000 946.83398438 243 244 241
457994.56250000 4298159.50000000 946.99902344 244 245 247
457994.56250000 4298160.00000000 947.13000488 246 247 249
457994.56250000 4298160.50000000 947.17102051 245 245 247
457994.56250000 4298161.00000000 947.11401367 238 236 237
457994.56250000 4298161.50000000 946.97802734 167 160 160
457994.56250000 4298162.00000000 946.80902100 130 122 120
457994.56250000 4298162.50000000 946.56298828 161 149 141
457994.56250000 4298163.00000000 946.29302979 198 185 176
457995.06250000 4298157.00000000 945.40899658 204 195 186
457995.06250000 4298157.50000000 945.87402344 213 206 199
457995.06250000 4298158.00000000 946.26202393 207 202 198
457995.06250000 4298158.50000000 946.56597900 230 227 225
457995.06250000 4298159.00000000 946.82000732 245 244 243
457995.06250000 4298159.50000000 946.97100830 248 246 251
457995.06250000 4298160.00000000 947.09698486 246 246 251
457995.06250000 4298160.50000000 947.14501953 244 245 248
457995.06250000 4298161.00000000 947.08599854 235 237 236
457995.06250000 4298161.50000000 946.96697998 156 154 153
457995.06250000 4298162.00000000 946.76098633 127 120 118
457995.06250000 4298162.50000000 946.47998047 158 148 141
457995.06250000 4298163.00000000 946.27001953 195 184 171
457995.56250000 4298157.00000000 945.42498779 196 187 178
457995.56250000 4298157.50000000 945.91101074 218 211 204
457995.56250000 4298158.00000000 946.26202393 201 196 191
457995.56250000 4298158.50000000 946.56799316 233 230 226
457995.56250000 4298159.00000000 946.84497070 247 246 244
457995.56250000 4298159.50000000 946.99798584 246 246 248
457995.56250000 4298160.00000000 947.11401367 246 247 248
457995.56250000 4298160.50000000 947.14697266 246 247 249
457995.56250000 4298161.00000000 947.08001709 238 238 238
457995.56250000 4298161.50000000 946.95501709 155 154 152
457995.56250000 4298162.00000000 946.78997803 126 121 118
457995.56250000 4298162.50000000 946.53497314 158 148 140
457995.56250000 4298163.00000000 946.28198242 195 184 171
457996.06250000 4298157.00000000 945.43902588 195 185 176
457996.06250000 4298157.50000000 945.97601318 216 207 200
457996.06250000 4298158.00000000 946.36297607 198 191 186
457996.06250000 4298158.50000000 946.67102051 232 226 223
457996.06250000 4298159.00000000 946.88702393 248 246 244
457996.06250000 4298159.50000000 947.02899170 246 246 246
457996.06250000 4298160.00000000 947.13702393 245 246 246
457996.06250000 4298160.50000000 947.16101074 244 245 247
457996.06250000 4298161.00000000 947.09100342 237 237 238
457996.06250000 4298161.50000000 946.94702148 155 151 150
457996.06250000 4298162.00000000 946.74597168 126 118 116
457996.06250000 4298162.50000000 946.50897217 160 149 141
457996.06250000 4298163.00000000 946.31701660 198 186 174
457996.56250000 4298157.00000000 945.40600586 199 189 179
457996.56250000 4298157.50000000 946.09197998 195 186 179
457996.56250000 4298158.00000000 946.52197266 201 194 189
457996.56250000 4298158.50000000 946.75402832 225 220 217
457996.56250000 4298159.00000000 946.94299316 244 241 238
457996.56250000 4298159.50000000 947.08300781 244 246 245
457996.56250000 4298160.00000000 947.15100098 241 244 246
457996.56250000 4298160.50000000 947.14001465 240 243 245
457996.56250000 4298161.00000000 947.02801514 233 232 235
457996.56250000 4298161.50000000 946.87701416 154 149 151
457996.56250000 4298162.00000000 946.71801758 125 118 116
457996.56250000 4298162.50000000 946.50000000 166 153 145
457996.56250000 4298163.00000000 946.32897949 203 191 179
457997.06250000 4298157.00000000 945.46398926 190 180 171
457997.06250000 4298157.50000000 946.15997314 186 177 168
457997.06250000 4298158.00000000 946.54797363 201 195 188
457997.06250000 4298158.50000000 946.73602295 218 213 210
457997.06250000 4298159.00000000 946.95001221 236 233 230
457997.06250000 4298159.50000000 947.11102295 236 237 241
457997.06250000 4298160.00000000 947.17797852 225 227 233
457997.06250000 4298160.50000000 947.16802979 218 221 228
457997.06250000 4298161.00000000 947.07598877 221 221 227
457997.06250000 4298161.50000000 946.91802979 145 140 140
457997.06250000 4298162.00000000 946.71398926 129 121 117
457997.06250000 4298162.50000000 946.48602295 169 156 149
457997.06250000 4298163.00000000 946.29797363 208 196 184
457997.56250000 4298157.00000000 945.33599854 194 183 171
457997.56250000 4298157.50000000 945.93103027 192 183 173
457997.56250000 4298158.00000000 946.38397217 199 191 184
457997.56250000 4298158.50000000 946.70098877 212 206 202
457997.56250000 4298159.00000000 946.96697998 233 230 227
457997.56250000 4298159.50000000 947.11798096 232 232 240
457997.56250000 4298160.00000000 947.16699219 204 206 218
457997.56250000 4298160.50000000 947.16802979 199 201 213
457997.56250000 4298161.00000000 947.10498047 219 218 227
457997.56250000 4298161.50000000 946.94799805 142 137 140
457997.56250000 4298162.00000000 946.68402100 131 122 116
457997.56250000 4298162.50000000 946.42498779 173 160 151
457997.56250000 4298163.00000000 946.25000000 209 197 185
457998.06250000 4298157.00000000 945.35101318 196 185 175
457998.06250000 4298157.50000000 945.86401367 195 185 175
457998.06250000 4298158.00000000 946.30700684 203 194 187
457998.06250000 4298158.50000000 946.68701172 217 212 207
457998.06250000 4298159.00000000 946.97698975 233 230 228
457998.06250000 4298159.50000000 947.13299561 217 219 228
457998.06250000 4298160.00000000 947.18798828 183 187 201
457998.06250000 4298160.50000000 947.17999268 181 186 202
457998.06250000 4298161.00000000 947.09497070 213 213 223
457998.06250000 4298161.50000000 946.94396973 141 136 135
457998.06250000 4298162.00000000 946.67999268 132 123 118
457998.06250000 4298162.50000000 946.37200928 174 162 153
457998.06250000 4298163.00000000 946.20098877 209 196 184
457998.56250000 4298157.00000000 945.36901855 194 184 174
457998.56250000 4298157.50000000 945.87500000 198 189 179
457998.56250000 4298158.00000000 946.33599854 204 196 189
457998.56250000 4298158.50000000 946.73602295 222 216 213
457998.56250000 4298159.00000000 946.99902344 235 233 231
457998.56250000 4298159.50000000 947.15502930 221 224 232
457998.56250000 4298160.00000000 947.20501709 193 200 216
457998.56250000 4298160.50000000 947.16802979 189 196 215
457998.56250000 4298161.00000000 947.06097412 208 209 219
457998.56250000 4298161.50000000 946.93701172 142 138 136
457998.56250000 4298162.00000000 946.68499756 133 124 120
457998.56250000 4298162.50000000 946.36602783 175 163 154
457998.56250000 4298163.00000000 946.19000244 210 196 183
457999.06250000 4298157.00000000 945.36199951 193 184 171
457999.06250000 4298157.50000000 945.88201904 197 189 178
457999.06250000 4298158.00000000 946.30902100 206 199 191
457999.06250000 4298158.50000000 946.66101074 225 221 216
457999.06250000 4298159.00000000 946.96997070 238 236 235
457999.06250000 4298159.50000000 947.16101074 230 233 240
457999.06250000 4298160.00000000 947.21398926 197 204 221
457999.06250000 4298160.50000000 947.16497803 195 202 220
457999.06250000 4298161.00000000 947.05102539 211 213 222
457999.06250000 4298161.50000000 946.93298340 145 140 138
457999.06250000 4298162.00000000 946.70599365 133 124 120
457999.06250000 4298162.50000000 946.43103027 177 164 155
457999.06250000 4298163.00000000 946.22399902 211 197 184
457999.56250000 4298157.00000000 945.36102295 181 171 158
457999.56250000 4298157.50000000 945.87701416 194 186 173
457999.56250000 4298158.00000000 946.33801270 208 202 192
457999.56250000 4298158.50000000 946.71301270 224 222 217
457999.56250000 4298159.00000000 947.00000000 237 237 235
457999.56250000 4298159.50000000 947.16302490 227 232 239
457999.56250000 4298160.00000000 947.21099854 189 196 213
457999.56250000 4298160.50000000 947.16302490 193 200 218
457999.56250000 4298161.00000000 947.05499268 209 210 219
457999.56250000 4298161.50000000 946.91497803 143 138 135
457999.56250000 4298162.00000000 946.68798828 132 123 119
457999.56250000 4298162.50000000 946.45599365 179 167 155
457999.56250000 4298163.00000000 946.24499512 214 200 185
458000.06250000 4298157.00000000 945.38598633 190 179 164
458000.06250000 4298157.50000000 945.89801025 195 185 173
458000.06250000 4298158.00000000 946.37902832 211 205 195
458000.06250000 4298158.50000000 946.75299072 227 223 219
458000.06250000 4298159.00000000 946.99798584 234 233 234
458000.06250000 4298159.50000000 947.14501953 208 212 220
458000.06250000 4298160.00000000 947.20501709 173 183 198
458000.06250000 4298160.50000000 947.15997314 179 188 205
458000.06250000 4298161.00000000 947.02801514 199 200 210
458000.06250000 4298161.50000000 946.87500000 140 133 131
458000.06250000 4298162.00000000 946.67401123 132 122 118
458000.06250000 4298162.50000000 946.44799805 179 166 155
458000.06250000 4298163.00000000 946.25598145 216 200 185
458000.56250000 4298157.00000000 945.41998291 201 187 174
458000.56250000 4298157.50000000 945.91998291 204 192 179
458000.56250000 4298158.00000000 946.39898682 208 199 190
458000.56250000 4298158.50000000 946.78302002 226 222 218
458000.56250000 4298159.00000000 947.00500488 234 233 234
458000.56250000 4298159.50000000 947.13897705 216 220 228
458000.56250000 4298160.00000000 947.20300293 184 192 208
458000.56250000 4298160.50000000 947.15802002 184 191 209
458000.56250000 4298161.00000000 947.03302002 198 199 209
458000.56250000 4298161.50000000 946.88897705 138 130 129
458000.56250000 4298162.00000000 946.67700195 132 120 117
458000.56250000 4298162.50000000 946.44897461 179 166 155
458000.56250000 4298163.00000000 946.26898193 215 199 184
458001.06250000 4298157.00000000 945.45300293 193 177 162
458001.06250000 4298157.50000000 945.94897461 199 186 174
458001.06250000 4298158.00000000 946.43103027 199 189 181
458001.06250000 4298158.50000000 946.80999756 227 221 217
458001.06250000 4298159.00000000 947.00097656 237 234 234
458001.06250000 4298159.50000000 947.13000488 227 232 238
458001.06250000 4298160.00000000 947.20001221 206 214 227
458001.06250000 4298160.50000000 947.17901611 202 208 224
458001.06250000 4298161.00000000 947.07702637 202 202 211
458001.06250000 4298161.50000000 946.92199707 135 127 126
458001.06250000 4298162.00000000 946.70800781 131 119 116
458001.06250000 4298162.50000000 946.46899414 179 166 155
458001.06250000 4298163.00000000 946.27600098 214 198 182
458001.56250000 4298157.00000000 945.50097656 181 168 153
458001.56250000 4298157.50000000 945.98498535 193 181 171
458001.56250000 4298158.00000000 946.46398926 189 181 172
458001.56250000 4298158.50000000 946.84301758 224 220 215
458001.56250000 4298159.00000000 947.01202393 238 237 235
458001.56250000 4298159.50000000 947.11798096 236 237 238
458001.56250000 4298160.00000000 947.18298340 234 235 239
458001.56250000 4298160.50000000 947.18200684 228 230 233
458001.56250000 4298161.00000000 947.09899902 205 204 206
458001.56250000 4298161.50000000 946.94702148 129 123 121
458001.56250000 4298162.00000000 946.74401855 132 122 117
458001.56250000 4298162.50000000 946.49798584 177 163 154
458001.56250000 4298163.00000000 946.28497314 209 195 182
458002.06250000 4298157.00000000 945.59399414 194 181 172
458002.06250000 4298157.50000000 946.05798340 191 180 171
458002.06250000 4298158.00000000 946.50500488 179 170 164
458002.06250000 4298158.50000000 946.86700439 215 211 208
458002.06250000 4298159.00000000 947.01898193 239 239 237
458002.06250000 4298159.50000000 947.11297607 237 237 238
458002.06250000 4298160.00000000 947.16601563 236 237 240
458002.06250000 4298160.50000000 947.16802979 233 233 238
458002.06250000 4298161.00000000 947.09802246 212 210 213
458002.06250000 4298161.50000000 946.95098877 128 121 121
458002.06250000 4298162.00000000 946.77001953 129 119 114
458002.06250000 4298162.50000000 946.53002930 173 160 149
458002.06250000 4298163.00000000 946.31597900 209 193 179
458002.56250000 4298157.00000000 945.63500977 206 195 189
458002.56250000 4298157.50000000 946.09399414 184 175 171
458002.56250000 4298158.00000000 946.53399658 169 162 157
458002.56250000 4298158.50000000 946.87200928 208 204 202
458002.56250000 4298159.00000000 947.02197266 238 238 236
458002.56250000 4298159.50000000 947.11901855 239 237 238
458002.56250000 4298160.00000000 947.17102051 238 238 240
458002.56250000 4298160.50000000 947.17297363 236 236 238
458002.56250000 4298161.00000000 947.09497070 220 218 221
458002.56250000 4298161.50000000 946.96502686 132 124 125
458002.56250000 4298162.00000000 946.80499268 130 119 117
458002.56250000 4298162.50000000 946.54602051 168 153 143
458002.56250000 4298163.00000000 946.35198975 203 187 172
458003.06250000 4298157.50000000 946.09002686 174 166 160
458003.06250000 4298158.00000000 946.53497314 174 168 162
458003.06250000 4298158.50000000 946.87402344 205 200 197
458003.06250000 4298159.00000000 947.03997803 236 235 233
458003.06250000 4298159.50000000 947.14300537 239 237 236
458003.06250000 4298160.00000000 947.18200684 240 238 239
458003.06250000 4298160.50000000 947.17901611 233 233 235
458003.06250000 4298161.00000000 947.10101318 219 217 218
458003.06250000 4298161.50000000 946.98699951 145 139 138
458003.06250000 4298162.00000000 946.83801270 129 119 116
458003.06250000 4298162.50000000 946.57299805 156 142 134
458003.06250000 4298163.00000000 946.38098145 194 179 165
458003.56250000 4298157.50000000 946.05999756 184 173 166
458003.56250000 4298158.00000000 946.50897217 196 188 180
458003.56250000 4298158.50000000 946.86901855 198 192 188
458003.56250000 4298159.00000000 947.06298828 217 216 212
458003.56250000 4298159.50000000 947.15997314 235 232 230
458003.56250000 4298160.00000000 947.19201660 237 236 235
458003.56250000 4298160.50000000 947.18701172 209 207 209
458003.56250000 4298161.00000000 947.12500000 197 195 196
458003.56250000 4298161.50000000 947.02502441 163 157 155
458003.56250000 4298162.00000000 946.86602783 123 113 110
458003.56250000 4298162.50000000 946.63702393 147 132 126
458003.56250000 4298163.00000000 946.46099854 184 167 158
458003.56250000 4298163.50000000 946.30999756 207 189 177
458004.06250000 4298158.00000000 946.46502686 193 184 175
458004.06250000 4298158.50000000 946.84100342 194 187 181
458004.06250000 4298159.00000000 947.06896973 202 198 193
458004.06250000 4298159.50000000 947.17102051 226 221 218
458004.06250000 4298160.00000000 947.20397949 237 234 233
458004.06250000 4298160.50000000 947.19702148 205 203 205
458004.06250000 4298161.00000000 947.15197754 193 189 190
458004.06250000 4298161.50000000 947.05603027 161 153 153
458004.06250000 4298162.00000000 946.88897705 123 113 110
458004.06250000 4298162.50000000 946.71997070 139 125 121
458004.06250000 4298163.00000000 946.58197021 171 154 147
458004.06250000 4298163.50000000 946.38598633 200 183 172
458004.56250000 4298158.00000000 946.44702148 191 179 171
458004.56250000 4298158.50000000 946.81896973 173 164 159
458004.56250000 4298159.00000000 947.05102539 173 167 160
458004.56250000 4298159.50000000 947.16497803 212 204 202
458004.56250000 4298160.00000000 947.21398926 228 222 219
458004.56250000 4298160.50000000 947.22100830 210 204 205
458004.56250000 4298161.00000000 947.19000244 199 192 192
458004.56250000 4298161.50000000 947.09197998 168 159 160
458004.56250000 4298162.00000000 946.92199707 129 121 119
458004.56250000 4298162.50000000 946.78601074 130 119 117
458004.56250000 4298163.00000000 946.66601563 160 147 141
458004.56250000 4298163.50000000 946.46197510 189 175 167
458004.56250000 4298164.00000000 946.29199219 206 192 181
458005.06250000 4298158.50000000 946.83502197 177 168 162
458005.06250000 4298159.00000000 947.03198242 153 146 140
458005.06250000 4298159.50000000 947.16302490 186 179 175
458005.06250000 4298160.00000000 947.23199463 201 193 190
458005.06250000 4298160.50000000 947.25799561 213 205 204
458005.06250000 4298161.00000000 947.22802734 216 208 206
458005.06250000 4298161.50000000 947.13897705 184 176 174
458005.06250000 4298162.00000000 946.97601318 167 158 156
458005.06250000 4298162.50000000 946.83300781 145 135 133
458005.06250000 4298163.00000000 946.71301270 150 139 135
458005.06250000 4298163.50000000 946.51202393 184 173 167
458005.06250000 4298164.00000000 946.34301758 209 198 189
458005.56250000 4298159.00000000 947.01599121 163 156 150
458005.56250000 4298159.50000000 947.16601563 179 173 167
458005.56250000 4298160.00000000 947.25402832 200 195 189
458005.56250000 4298160.50000000 947.28601074 206 201 197
458005.56250000 4298161.00000000 947.26599121 194 189 185
458005.56250000 4298161.50000000 947.19396973 200 195 191
458005.56250000 4298162.00000000 947.03900146 204 199 196
458005.56250000 4298162.50000000 946.87799072 166 157 155
458005.56250000 4298163.00000000 946.73602295 141 131 129
458005.56250000 4298163.50000000 946.53698730 174 166 161
458006.06250000 4298159.50000000 947.20300293 175 170 164
458006.06250000 4298160.00000000 947.28997803 212 207 201
458006.06250000 4298160.50000000 947.31298828 208 203 197
458006.06250000 4298161.00000000 947.29797363 204 199 195
458006.06250000 4298161.50000000 947.23797607 209 204 200
458006.06250000 4298162.00000000 947.10400391 212 207 204
458006.06250000 4298162.50000000 946.93103027 159 152 151
458006.06250000 4298163.00000000 946.75897217 134 128 126
458006.06250000 4298163.50000000 946.53698730 168 162 158
458006.56250000 4298159.50000000 947.25598145 202 197 191
458006.56250000 4298160.00000000 947.31799316 213 208 204
458006.56250000 4298160.50000000 947.33898926 202 197 193
458006.56250000 4298161.00000000 947.33599854 203 198 194
458006.56250000 4298161.50000000 947.27899170 205 200 196
458006.56250000 4298162.00000000 947.14202881 208 203 200
458006.56250000 4298162.50000000 946.96301270 147 141 140
458006.56250000 4298163.00000000 946.79400635 128 122 122
458006.56250000 4298163.50000000 946.57800293 158 153 149
458007.06250000 4298159.50000000 947.31298828 227 224 219
458007.06250000 4298160.00000000 947.34899902 215 212 207
458007.06250000 4298160.50000000 947.36602783 215 212 208
458007.06250000 4298161.00000000 947.36199951 217 213 210
458007.06250000 4298161.50000000 947.31402588 220 216 213
458007.06250000 4298162.00000000 947.18499756 220 216 213
458007.06250000 4298162.50000000 946.99902344 157 152 151
458007.06250000 4298163.00000000 946.82897949 128 123 121
458007.06250000 4298163.50000000 946.63000488 153 145 142
458007.56250000 4298159.50000000 947.36999512 250 245 242
458007.56250000 4298160.00000000 947.38702393 234 231 227
458007.56250000 4298160.50000000 947.38702393 213 209 206
458007.56250000 4298161.00000000 947.36999512 220 219 215
458007.56250000 4298161.50000000 947.34100342 226 222 221
458007.56250000 4298162.00000000 947.23297119 244 240 239
458007.56250000 4298162.50000000 947.03399658 215 209 209
458007.56250000 4298163.00000000 946.85900879 129 121 120
458007.56250000 4298163.50000000 946.66101074 148 140 137
458008.06250000 4298159.00000000 947.41601563 193 186 176
458008.06250000 4298159.50000000 947.41900635 252 244 241
458008.06250000 4298160.00000000 947.41699219 234 232 226
458008.06250000 4298160.50000000 947.40100098 234 234 232
458008.06250000 4298161.00000000 947.37200928 237 237 235
458008.06250000 4298161.50000000 947.34899902 241 240 238
458008.06250000 4298162.00000000 947.24798584 244 240 238
458008.06250000 4298162.50000000 947.03002930 211 206 205
458008.06250000 4298163.00000000 946.84497070 125 117 116
458008.06250000 4298163.50000000 946.66900635 143 132 132
458008.06250000 4298164.00000000 946.45697021 179 169 166
458008.56250000 4298159.00000000 947.48901367 174 168 158
458008.56250000 4298159.50000000 947.46801758 245 240 236
458008.56250000 4298160.00000000 947.44097900 244 241 238
458008.56250000 4298160.50000000 947.41497803 244 244 240
458008.56250000 4298161.00000000 947.38000488 244 244 241
458008.56250000 4298161.50000000 947.33099365 244 243 240
458008.56250000 4298162.00000000 947.21997070 246 239 238
458008.56250000 4298162.50000000 947.00201416 192 180 181
458008.56250000 4298163.00000000 946.79602051 137 118 122
458008.56250000 4298163.50000000 946.62402344 138 119 120
458008.56250000 4298164.00000000 946.42199707 150 136 135
458008.56250000 4298164.50000000 946.30902100 184 175 171
458009.06250000 4298159.00000000 947.58197021 153 146 138
458009.06250000 4298159.50000000 947.53802490 224 219 215
458009.06250000 4298160.00000000 947.48297119 232 228 225
458009.06250000 4298160.50000000 947.44201660 232 232 229
458009.06250000 4298161.00000000 947.40502930 235 235 235
458009.06250000 4298161.50000000 947.32598877 241 238 237
458009.06250000 4298162.00000000 947.20001221 244 236 236
458009.06250000 4298162.50000000 946.99102783 187 169 173
458009.06250000 4298163.00000000 946.76202393 167 140 146
458009.06250000 4298163.50000000 946.55902100 146 121 125
458009.06250000 4298164.00000000 946.37200928 137 120 120
458009.06250000 4298164.50000000 946.29498291 177 168 163
458009.56250000 4298159.00000000 947.68499756 159 152 145
458009.56250000 4298159.50000000 947.61297607 222 217 214
458009.56250000 4298160.00000000 947.53802490 235 233 229
458009.56250000 4298160.50000000 947.47998047 241 241 240
458009.56250000 4298161.00000000 947.44000244 243 243 242
458009.56250000 4298161.50000000 947.35998535 243 238 239
458009.56250000 4298162.00000000 947.21197510 244 236 237
458009.56250000 4298162.50000000 946.99200439 173 153 158
458009.56250000 4298163.00000000 946.76702881 168 140 148
458009.56250000 4298163.50000000 946.55401611 151 123 128
458009.56250000 4298164.00000000 946.36901855 138 119 119
458009.56250000 4298164.50000000 946.29901123 179 169 165
458010.06250000 4298159.00000000 947.77801514 183 175 171
458010.06250000 4298159.50000000 947.67901611 240 236 233
458010.06250000 4298160.00000000 947.57702637 238 238 235
458010.06250000 4298160.50000000 947.50701904 244 244 243
458010.06250000 4298161.00000000 947.45599365 246 245 245
458010.06250000 4298161.50000000 947.37298584 250 246 247
458010.06250000 4298162.00000000 947.21997070 244 235 238
458010.06250000 4298162.50000000 947.00402832 157 138 142
458010.06250000 4298163.00000000 946.78802490 156 132 138
458010.06250000 4298163.50000000 946.57702637 142 119 122
458010.06250000 4298164.00000000 946.39300537 142 125 125
458010.06250000 4298164.50000000 946.32000732 185 176 171
458010.56250000 4298159.00000000 947.83502197 225 218 213
458010.56250000 4298159.50000000 947.70300293 244 240 237
458010.56250000 4298160.00000000 947.58599854 236 235 234
458010.56250000 4298160.50000000 947.52301025 240 240 240
458010.56250000 4298161.00000000 947.46997070 244 241 245
458010.56250000 4298161.50000000 947.37902832 247 241 243
458010.56250000 4298162.00000000 947.22601318 233 223 225
458010.56250000 4298162.50000000 947.02697754 129 115 117
458010.56250000 4298163.00000000 946.83197021 138 119 122
458010.56250000 4298163.50000000 946.61602783 134 115 116
458010.56250000 4298164.00000000 946.41998291 148 132 132
458011.06250000 4298159.50000000 947.73498535 241 240 240
458011.06250000 4298160.00000000 947.60198975 226 226 227
458011.06250000 4298160.50000000 947.53802490 227 225 228
458011.06250000 4298161.00000000 947.48901367 237 233 236
458011.06250000 4298161.50000000 947.40301514 235 226 231
458011.06250000 4298162.00000000 947.25402832 207 196 199
458011.06250000 4298162.50000000 947.08300781 130 110 116
458011.06250000 4298163.00000000 946.93499756 148 123 131
458011.06250000 4298163.50000000 946.68200684 144 124 126
458011.56250000 4298159.50000000 947.76702881 157 157 157
458011.56250000 4298160.00000000 947.62402344 175 175 176
458009.56250000 4298165.00000000 946.28002930 208 201 193
