457992.06250000 4298201.00000000 952.11199951 173 151 133
457992.06250000 4298201.50000000 952.12701416 172 152 134
457992.06250000 4298202.00000000 952.09399414 169 148 129
457992.56250000 4298200.00000000 952.46099854 162 135 116
457992.56250000 4298200.50000000 952.42401123 167 140 123
457992.56250000 4298201.00000000 952.38702393 173 145 125
457992.56250000 4298201.50000000 952.35302734 184 155 133
457992.56250000 4298202.00000000 952.28997803 193 162 134
457993.06250000 4298199.00000000 952.75799561 147 128 110
457993.06250000 4298199.50000000 952.70697021 173 145 120
457993.06250000 4298200.00000000 952.66900635 200 167 135
457993.06250000 4298200.50000000 952.63500977 217 184 150
457993.06250000 4298201.00000000 952.58801270 215 179 138
457993.06250000 4298201.50000000 952.52801514 217 180 136
457993.06250000 4298202.00000000 952.46197510 221 180 131
457993.56250000 4298198.50000000 953.09197998 142 124 113
457993.56250000 4298199.00000000 953.00097656 142 120 102
457993.56250000 4298199.50000000 952.87402344 180 148 116
457993.56250000 4298200.00000000 952.79699707 218 179 133
457993.56250000 4298200.50000000 952.74499512 226 186 134
457993.56250000 4298201.00000000 952.69799805 224 184 122
457993.56250000 4298201.50000000 952.65301514 224 184 119
457993.56250000 4298202.00000000 952.58599854 228 183 120
457994.06250000 4298198.00000000 953.21997070 155 134 124
457994.06250000 4298198.50000000 953.18798828 143 124 116
457994.06250000 4298199.00000000 953.10498047 138 116 100
457994.06250000 4298199.50000000 952.96002197 167 136 105
457994.06250000 4298200.00000000 952.83898926 218 180 135
457994.06250000 4298200.50000000 952.77301025 223 184 130
457994.06250000 4298201.00000000 952.72698975 225 184 125
457994.06250000 4298201.50000000 952.68200684 222 184 125
457994.06250000 4298202.00000000 952.60797119 222 184 128
457994.56250000 4298198.00000000 953.25701904 155 136 122
457994.56250000 4298198.50000000 953.19799805 144 127 117
457994.56250000 4298199.00000000 953.10498047 136 118 104
457994.56250000 4298199.50000000 952.96801758 155 128 105
457994.56250000 4298200.00000000 952.84899902 208 174 139
457994.56250000 4298200.50000000 952.76800537 212 175 132
457994.56250000 4298201.00000000 952.71197510 212 173 132
457994.56250000 4298201.50000000 952.65197754 205 171 134
457994.56250000 4298202.00000000 952.54400635 202 171 137
457995.06250000 4298198.00000000 953.17199707 157 138 123
457995.06250000 4298198.50000000 953.08697510 151 131 120
457995.06250000 4298199.00000000 953.00299072 145 127 116
457995.06250000 4298199.50000000 952.86798096 146 127 116
457995.06250000 4298200.00000000 952.75897217 171 151 133
457995.06250000 4298200.50000000 952.68902588 169 146 123
457995.06250000 4298201.00000000 952.60198975 163 140 119
457995.06250000 4298201.50000000 952.49298096 161 138 118
457995.06250000 4298202.00000000 952.36499023 163 143 124
457995.56250000 4298199.00000000 952.81701660 153 136 129
457995.56250000 4298199.50000000 952.69201660 152 135 127
457995.56250000 4298200.00000000 952.53601074 161 143 131
457995.56250000 4298200.50000000 952.43200684 156 137 123
457995.56250000 4298201.00000000 952.35998535 162 143 130
457995.56250000 4298201.50000000 952.27099609 174 156 144
457992.06250000 4298202.50000000 952.00097656 172 147 125
457992.06250000 4298203.00000000 951.86499023 168 142 121
457992.06250000 4298203.50000000 951.70599365 161 139 122
457992.06250000 4298204.00000000 951.59698486 157 140 124
457992.06250000 4298204.50000000 951.52099609 161 144 127
457992.06250000 4298205.00000000 951.41802979 166 149 133
457992.06250000 4298205.50000000 951.33898926 171 155 139
457992.06250000 4298206.00000000 951.29797363 204 188 172
457992.56250000 4298202.50000000 952.22497559 200 167 133
457992.56250000 4298203.00000000 952.14801025 191 159 126
457992.56250000 4298203.50000000 951.98901367 173 148 123
457992.56250000 4298204.00000000 951.78399658 148 130 113
457992.56250000 4298204.50000000 951.65002441 142 126 113
457992.56250000 4298205.00000000 951.54901123 141 126 113
457992.56250000 4298205.50000000 951.42700195 152 138 125
457992.56250000 4298206.00000000 951.35101318 198 185 170
457993.06250000 4298202.50000000 952.38897705 225 180 129
457993.06250000 4298203.00000000 952.28997803 216 175 130
457993.06250000 4298203.50000000 952.16900635 187 155 124
457993.06250000 4298204.00000000 951.97100830 151 131 111
457993.06250000 4298204.50000000 951.75897217 139 124 116
457993.06250000 4298205.00000000 951.63000488 138 124 116
457993.06250000 4298205.50000000 951.50897217 144 132 120
457993.06250000 4298206.00000000 951.40301514 187 175 161
457993.56250000 4298202.50000000 952.50402832 233 184 124
457993.56250000 4298203.00000000 952.40698242 223 179 130
457993.56250000 4298203.50000000 952.27197266 196 162 128
457993.56250000 4298204.00000000 952.09002686 159 136 117
457993.56250000 4298204.50000000 951.87701416 137 123 114
457993.56250000 4298205.00000000 951.69897461 136 123 114
457993.56250000 4298205.50000000 951.57000732 140 127 118
457993.56250000 4298206.00000000 951.45800781 173 161 149
457994.06250000 4298202.50000000 952.50402832 220 180 130
457994.06250000 4298203.00000000 952.38098145 212 175 135
457994.06250000 4298203.50000000 952.26000977 188 160 133
457994.06250000 4298204.00000000 952.09802246 161 141 123
457994.06250000 4298204.50000000 951.86602783 142 126 116
457994.06250000 4298205.00000000 951.68902588 145 131 121
457994.06250000 4298205.50000000 951.59497070 150 137 127
457994.56250000 4298202.50000000 952.39801025 196 168 134
457994.56250000 4298203.00000000 952.28198242 181 156 127
457994.56250000 4298203.50000000 952.17199707 167 147 125
457994.56250000 4298204.00000000 951.99902344 160 143 128
457994.56250000 4298204.50000000 951.79998779 162 146 133
457995.06250000 4298202.50000000 952.21197510 169 150 130
457995.06250000 4298203.00000000 952.08697510 168 151 131
457995.06250000 4298203.50000000 951.99401855 169 154 134
