458008.56250000 4298234.50000000 955.50500488 196 173 159
458008.56250000 4298235.00000000 955.47100830 191 168 154
458008.56250000 4298235.50000000 955.39001465 184 162 149
458008.56250000 4298236.00000000 955.31896973 179 161 146
458008.56250000 4298236.50000000 955.26800537 175 159 143
458009.06250000 4298235.00000000 955.77197266 183 155 144
458009.06250000 4298235.50000000 955.73699951 168 144 134
458009.06250000 4298236.00000000 955.67901611 157 136 127
458009.06250000 4298236.50000000 955.60900879 148 132 122
458009.06250000 4298237.00000000 955.48797607 156 142 131
458009.06250000 4298237.50000000 955.34698486 168 154 142
458009.06250000 4298238.00000000 955.28900146 176 161 149
458009.06250000 4298238.50000000 955.26300049 180 164 150
458009.06250000 4298239.00000000 955.24102783 180 163 147
458009.56250000 4298235.00000000 956.03198242 196 169 157
458009.56250000 4298235.50000000 956.02899170 175 151 141
458009.56250000 4298236.00000000 955.99102783 167 144 140
458009.56250000 4298236.50000000 955.93597412 149 134 129
458009.56250000 4298237.00000000 955.84002686 143 128 123
458009.56250000 4298237.50000000 955.70898438 144 128 123
458009.56250000 4298238.00000000 955.62402344 141 124 117
458009.56250000 4298238.50000000 955.55102539 146 126 116
458009.56250000 4298239.00000000 955.49102783 145 123 110
458010.06250000 4298235.00000000 956.19396973 195 169 155
458010.06250000 4298235.50000000 956.18103027 174 153 143
458010.06250000 4298236.00000000 956.15600586 179 161 155
458010.06250000 4298236.50000000 956.12799072 170 153 151
458010.06250000 4298237.00000000 956.07702637 159 142 138
458010.06250000 4298237.50000000 955.97601318 146 127 123
458010.06250000 4298238.00000000 955.85699463 146 124 116
458010.06250000 4298238.50000000 955.75598145 154 126 114
458010.06250000 4298239.00000000 955.68902588 154 123 106
458010.56250000 4298235.00000000 956.19396973 200 175 160
458010.56250000 4298235.50000000 956.20098877 179 161 150
458010.56250000 4298236.00000000 956.20397949 181 167 158
458010.56250000 4298236.50000000 956.20501709 176 159 152
458010.56250000 4298237.00000000 956.17401123 162 145 138
458010.56250000 4298237.50000000 956.08502197 143 124 116
458010.56250000 4298238.00000000 955.98101807 149 123 110
458010.56250000 4298238.50000000 955.91302490 171 140 118
458010.56250000 4298239.00000000 955.88000488 179 140 116
458011.06250000 4298235.00000000 956.02697754 194 171 156
458011.06250000 4298235.50000000 956.07897949 175 156 146
458011.06250000 4298236.00000000 956.12597656 175 158 151
458011.06250000 4298236.50000000 956.15600586 168 151 147
458011.06250000 4298237.00000000 956.15197754 157 138 132
458011.06250000 4298237.50000000 956.09802246 147 124 113
458011.06250000 4298238.00000000 956.03399658 170 139 116
458011.06250000 4298238.50000000 956.00299072 202 162 123
458011.06250000 4298239.00000000 956.00000000 211 167 118
458011.56250000 4298235.50000000 955.84399414 174 156 146
458011.56250000 4298236.00000000 955.90698242 172 155 147
458011.56250000 4298236.50000000 955.98297119 166 149 141
458011.56250000 4298237.00000000 956.05401611 156 138 129
458011.56250000 4298237.50000000 956.05798340 153 132 119
458011.56250000 4298238.00000000 956.03601074 169 140 118
458011.56250000 4298238.50000000 956.02697754 197 160 126
458011.56250000 4298239.00000000 956.03002930 206 166 121
458012.06250000 4298235.50000000 955.62097168 201 184 171
458012.06250000 4298236.00000000 955.69396973 193 176 163
458012.06250000 4298236.50000000 955.76300049 184 166 152
458012.06250000 4298237.00000000 955.84997559 174 156 144
458012.06250000 4298237.50000000 955.89001465 167 146 133
458012.06250000 4298238.00000000 955.90698242 157 132 116
458012.06250000 4298238.50000000 955.94097900 164 135 110
458012.06250000 4298239.00000000 955.98699951 175 142 110
458012.56250000 4298236.50000000 955.49401855 204 187 171
458012.56250000 4298237.00000000 955.56402588 196 179 163
458012.56250000 4298237.50000000 955.61999512 188 169 154
458012.56250000 4298238.00000000 955.68902588 179 157 142
458012.56250000 4298238.50000000 955.77502441 167 144 124
458012.56250000 4298239.00000000 955.84197998 161 135 114
458013.06250000 4298238.00000000 955.50701904 200 181 166
458013.06250000 4298238.50000000 955.57897949 197 176 162
458013.06250000 4298239.00000000 955.61901855 190 169 152
458013.56250000 4298239.00000000 955.37701416 204 185 171
458009.06250000 4298241.50000000 955.06402588 210 191 171
458009.56250000 4298239.50000000 955.42401123 145 125 114
458009.56250000 4298240.00000000 955.36901855 151 133 121
458009.56250000 4298240.50000000 955.34301758 161 142 128
458009.56250000 4298241.00000000 955.30200195 173 155 141
458009.56250000 4298241.50000000 955.26397705 186 169 153
458009.56250000 4298242.00000000 955.18402100 197 180 164
458009.56250000 4298242.50000000 955.07501221 207 189 171
458009.56250000 4298243.00000000 954.96502686 210 189 168
458010.06250000 4298239.50000000 955.63702393 151 123 104
458010.06250000 4298240.00000000 955.62597656 150 124 105
458010.06250000 4298240.50000000 955.63201904 147 122 106
458010.06250000 4298241.00000000 955.60400391 146 122 105
458010.06250000 4298241.50000000 955.52502441 149 128 113
458010.06250000 4298242.00000000 955.39501953 156 135 121
458010.06250000 4298242.50000000 955.23602295 168 145 131
458010.06250000 4298243.00000000 955.08502197 184 161 145
458010.06250000 4298243.50000000 954.96899414 198 177 159
458010.06250000 4298244.00000000 954.88000488 205 186 168
458010.56250000 4298239.50000000 955.86401367 179 142 114
458010.56250000 4298240.00000000 955.85400391 179 143 117
458010.56250000 4298240.50000000 955.84100342 175 142 117
458010.56250000 4298241.00000000 955.81298828 169 139 117
458010.56250000 4298241.50000000 955.71697998 159 134 113
458010.56250000 4298242.00000000 955.57598877 152 126 109
458010.56250000 4298242.50000000 955.42297363 150 127 113
458010.56250000 4298243.00000000 955.24700928 151 129 116
458010.56250000 4298243.50000000 955.07897949 155 133 119
458010.56250000 4298244.00000000 954.95300293 166 146 131
458011.06250000 4298239.50000000 956.00500488 210 167 121
458011.06250000 4298240.00000000 955.99597168 211 166 119
458011.06250000 4298240.50000000 955.98199463 210 164 118
458011.06250000 4298241.00000000 955.95898438 204 162 117
458011.06250000 4298241.50000000 955.88000488 193 158 120
458011.06250000 4298242.00000000 955.73699951 172 143 119
458011.06250000 4298242.50000000 955.57397461 156 132 114
458011.06250000 4298243.00000000 955.38800049 152 131 114
458011.06250000 4298243.50000000 955.16802979 148 129 116
458011.06250000 4298244.00000000 955.03900146 148 130 118
458011.06250000 4298244.50000000 954.95800781 168 150 136
458011.56250000 4298239.50000000 956.03698730 209 166 117
458011.56250000 4298240.00000000 956.04797363 212 168 118
458011.56250000 4298240.50000000 956.06799316 213 167 117
458011.56250000 4298241.00000000 956.04998779 215 170 120
458011.56250000 4298241.50000000 955.98999023 204 164 121
458011.56250000 4298242.00000000 955.85699463 186 152 119
458011.56250000 4298242.50000000 955.66497803 162 135 113
458011.56250000 4298243.00000000 955.47497559 150 129 112
458011.56250000 4298243.50000000 955.25897217 147 128 113
458011.56250000 4298244.00000000 955.10498047 150 132 120
458011.56250000 4298244.50000000 954.99499512 176 158 144
458012.06250000 4298239.50000000 956.02001953 187 150 111
458012.06250000 4298240.00000000 956.04602051 196 157 116
458012.06250000 4298240.50000000 956.06597900 204 162 119
458012.06250000 4298241.00000000 956.05297852 208 166 118
458012.06250000 4298241.50000000 956.01800537 201 161 117
458012.06250000 4298242.00000000 955.91998291 186 150 114
458012.06250000 4298242.50000000 955.71502686 162 135 112
458012.06250000 4298243.00000000 955.51000977 149 128 111
458012.06250000 4298243.50000000 955.32800293 150 131 116
458012.06250000 4298244.00000000 955.15301514 156 138 124
458012.06250000 4298244.50000000 955.02197266 185 168 152
458012.56250000 4298239.50000000 955.87597656 160 133 109
458012.56250000 4298240.00000000 955.91998291 164 132 109
458012.56250000 4298240.50000000 955.96002197 170 136 109
458012.56250000 4298241.00000000 955.96697998 180 146 113
458012.56250000 4298241.50000000 955.93298340 186 152 119
458012.56250000 4298242.00000000 955.84802246 176 143 117
458012.56250000 4298242.50000000 955.67102051 160 135 117
458012.56250000 4298243.00000000 955.46899414 151 130 113
458012.56250000 4298243.50000000 955.31896973 154 135 119
458012.56250000 4298244.00000000 955.13897705 164 147 131
458012.56250000 4298244.50000000 955.03100586 196 179 162
458013.06250000 4298239.50000000 955.65100098 181 159 144
458013.06250000 4298240.00000000 955.70697021 174 148 136
458013.06250000 4298240.50000000 955.74597168 170 143 129
458013.06250000 4298241.00000000 955.78198242 164 138 117
458013.06250000 4298241.50000000 955.79302979 163 139 118
458013.06250000 4298242.00000000 955.73101807 169 144 126
458013.06250000 4298242.50000000 955.57897949 176 154 137
458013.06250000 4298243.00000000 955.40698242 173 152 135
458013.06250000 4298243.50000000 955.26800537 184 166 148
458013.06250000 4298244.00000000 955.09997559 196 179 161
458013.06250000 4298244.50000000 955.03100586 210 193 175
458013.56250000 4298239.50000000 955.44000244 206 184 168
458013.56250000 4298240.00000000 955.51202393 204 180 168
458013.56250000 4298240.50000000 955.55603027 199 176 162
458013.56250000 4298241.00000000 955.58697510 195 172 154
458013.56250000 4298241.50000000 955.63897705 190 169 148
458013.56250000 4298242.00000000 955.60601807 192 173 157
458013.56250000 4298242.50000000 955.46002197 202 181 164
458013.56250000 4298243.00000000 955.33502197 206 185 168
458013.56250000 4298243.50000000 955.20898438 216 197 180
