457993.56250000 4298173.50000000 949.65600586 197 183 175
457993.56250000 4298174.00000000 951.08197021 214 202 196
457994.06250000 4298172.00000000 946.86700439 196 180 172
457994.06250000 4298172.50000000 947.21002197 199 183 175
457994.06250000 4298173.00000000 948.00402832 203 185 178
457994.06250000 4298173.50000000 949.61700439 199 183 175
457994.06250000 4298174.00000000 951.11401367 217 203 198
457994.56250000 4298172.50000000 947.27301025 199 181 173
457994.56250000 4298173.00000000 948.06500244 199 180 173
457994.56250000 4298173.50000000 949.61700439 203 185 179
457994.56250000 4298174.00000000 951.12097168 219 205 200
457995.06250000 4298172.50000000 947.25097656 201 186 177
457995.06250000 4298173.00000000 948.10498047 205 186 179
457995.06250000 4298173.50000000 949.63897705 202 185 178
457995.06250000 4298174.00000000 951.13500977 217 206 200
457995.56250000 4298172.50000000 947.32800293 201 187 177
457995.56250000 4298173.00000000 948.15197754 205 185 179
457995.56250000 4298173.50000000 949.80401611 203 185 178
457995.56250000 4298174.00000000 951.31799316 213 203 197
457996.06250000 4298172.50000000 947.39202881 205 190 181
457996.06250000 4298173.00000000 948.33398438 199 180 174
457996.06250000 4298173.50000000 950.04101563 202 186 180
457996.06250000 4298174.00000000 951.53399658 208 200 193
457996.56250000 4298172.00000000 946.98699951 208 197 188
457996.56250000 4298172.50000000 947.55603027 206 190 182
457996.56250000 4298173.00000000 948.89202881 194 175 170
457996.56250000 4298173.50000000 950.50701904 204 189 184
457996.56250000 4298174.00000000 951.57501221 212 204 199
457997.06250000 4298172.00000000 947.03900146 202 189 181
457997.06250000 4298172.50000000 947.68200684 200 184 176
457997.06250000 4298173.00000000 949.23297119 188 171 164
457997.06250000 4298173.50000000 950.75201416 201 188 182
457997.06250000 4298174.00000000 951.52801514 205 200 194
457997.56250000 4298171.50000000 946.86199951 201 188 180
457997.56250000 4298172.00000000 947.20898438 196 184 175
457997.56250000 4298172.50000000 947.83001709 197 180 173
457997.56250000 4298173.00000000 949.29101563 185 168 163
457997.56250000 4298173.50000000 950.73199463 198 187 181
457997.56250000 4298174.00000000 951.49401855 203 198 193
457998.06250000 4298171.00000000 946.67700195 207 192 185
457998.06250000 4298171.50000000 947.01800537 201 186 179
457998.06250000 4298172.00000000 947.37200928 196 181 174
457998.06250000 4298172.50000000 948.08398438 195 177 172
457998.06250000 4298173.00000000 949.46502686 184 166 161
457998.06250000 4298173.50000000 950.77502441 202 189 185
457998.06250000 4298174.00000000 951.55798340 201 196 191
457998.56250000 4298170.00000000 946.43597412 202 187 180
457998.56250000 4298170.50000000 946.62799072 207 192 185
457998.56250000 4298171.00000000 946.91198730 204 189 182
457998.56250000 4298171.50000000 947.13702393 201 184 177
457998.56250000 4298172.00000000 947.44702148 196 180 173
457998.56250000 4298172.50000000 948.19097900 193 176 171
457998.56250000 4298173.00000000 949.57000732 185 168 163
457998.56250000 4298173.50000000 950.94396973 200 188 185
457998.56250000 4298174.00000000 951.72198486 203 197 191
457999.06250000 4298169.50000000 946.46899414 191 176 170
457999.06250000 4298170.00000000 946.63800049 199 184 177
457999.06250000 4298170.50000000 946.87701416 203 188 181
457999.06250000 4298171.00000000 947.09002686 202 185 178
457999.06250000 4298171.50000000 947.33898926 198 181 174
457999.06250000 4298172.00000000 947.66497803 194 177 171
457999.06250000 4298172.50000000 948.30603027 191 174 171
457999.06250000 4298173.00000000 949.59997559 188 170 166
457999.06250000 4298173.50000000 951.00598145 201 189 186
457999.06250000 4298174.00000000 951.80401611 203 198 192
457999.56250000 4298168.50000000 946.43798828 201 189 181
457999.56250000 4298169.00000000 946.54101563 192 179 171
457999.56250000 4298169.50000000 946.69000244 192 177 171
457999.56250000 4298170.00000000 946.87799072 196 181 174
457999.56250000 4298170.50000000 947.12500000 196 181 174
457999.56250000 4298171.00000000 947.40802002 199 183 175
457999.56250000 4298171.50000000 947.66497803 194 179 171
457999.56250000 4298172.00000000 947.93298340 192 177 171
457999.56250000 4298172.50000000 948.47900391 187 172 167
457999.56250000 4298173.00000000 949.63800049 189 172 167
457999.56250000 4298173.50000000 950.98797607 202 191 187
457999.56250000 4298174.00000000 951.82397461 205 200 194
458000.06250000 4298168.00000000 946.46697998 192 181 172
458000.06250000 4298168.50000000 946.57397461 193 183 175
458000.06250000 4298169.00000000 946.73602295 194 183 176
458000.06250000 4298169.50000000 946.91699219 193 181 175
458000.06250000 4298170.00000000 947.13702393 191 179 172
458000.06250000 4298170.50000000 947.37902832 193 180 174
458000.06250000 4298171.00000000 947.62402344 192 179 173
458000.06250000 4298171.50000000 947.87902832 190 176 171
458000.06250000 4298172.00000000 948.17999268 188 175 170
458000.06250000 4298172.50000000 948.81298828 184 168 163
458000.06250000 4298173.00000000 949.85198975 192 176 171
458000.06250000 4298173.50000000 951.00799561 202 190 186
458000.06250000 4298174.00000000 951.82702637 210 206 200
458000.56250000 4298167.00000000 946.29602051 190 176 167
458000.56250000 4298167.50000000 946.51800537 187 174 166
458000.56250000 4298168.00000000 946.68499756 185 176 167
458000.56250000 4298168.50000000 946.83801270 187 179 171
458000.56250000 4298169.00000000 947.05700684 186 177 171
458000.56250000 4298169.50000000 947.25299072 186 177 171
458000.56250000 4298170.00000000 947.46697998 184 175 168
458000.56250000 4298170.50000000 947.74700928 185 174 168
458000.56250000 4298171.00000000 947.98297119 185 174 168
458000.56250000 4298171.50000000 948.21600342 184 173 167
458000.56250000 4298172.00000000 948.48498535 183 171 165
458000.56250000 4298172.50000000 949.04498291 177 163 158
458000.56250000 4298173.00000000 949.99298096 189 174 170
458000.56250000 4298173.50000000 951.06799316 203 193 188
458000.56250000 4298174.00000000 951.84997559 211 206 201
458001.06250000 4298166.00000000 946.22601318 194 176 168
458001.06250000 4298166.50000000 946.29797363 194 179 171
458001.06250000 4298167.00000000 946.49401855 189 175 167
458001.06250000 4298167.50000000 946.73699951 186 174 167
458001.06250000 4298168.00000000 946.95800781 185 175 168
458001.06250000 4298168.50000000 947.17602539 183 173 166
458001.06250000 4298169.00000000 947.39099121 177 170 163
458001.06250000 4298169.50000000 947.60400391 176 169 163
458001.06250000 4298170.00000000 947.80999756 177 168 161
458001.06250000 4298170.50000000 948.09497070 173 164 157
458001.06250000 4298171.00000000 948.29797363 172 163 156
458001.06250000 4298171.50000000 948.46899414 172 161 155
458001.06250000 4298172.00000000 948.75598145 174 162 156
458001.06250000 4298172.50000000 949.30902100 173 159 154
458001.06250000 4298173.00000000 950.15997314 191 176 171
458001.06250000 4298173.50000000 951.16601563 202 192 187
458001.06250000 4298174.00000000 951.92999268 208 203 197
458001.56250000 4298165.50000000 946.18200684 174 153 147
458001.56250000 4298166.00000000 946.27398682 185 170 167
458001.56250000 4298166.50000000 946.45300293 192 180 176
458001.56250000 4298167.00000000 946.73101807 180 171 167
458001.56250000 4298167.50000000 946.92199707 183 172 171
458001.56250000 4298168.00000000 947.13800049 184 173 171
458001.56250000 4298168.50000000 947.39398193 168 157 155
458001.56250000 4298169.00000000 947.61499023 163 155 153
458001.56250000 4298169.50000000 947.84997559 162 154 152
458001.56250000 4298170.00000000 948.06298828 160 152 149
458001.56250000 4298170.50000000 948.29101563 159 149 147
458001.56250000 4298171.00000000 948.46697998 157 148 143
458001.56250000 4298171.50000000 948.65301514 158 149 144
458001.56250000 4298172.00000000 948.95098877 166 155 150
458001.56250000 4298172.50000000 949.54998779 169 156 150
458001.56250000 4298173.00000000 950.32800293 184 172 168
458001.56250000 4298173.50000000 951.16497803 200 191 186
458001.56250000 4298174.00000000 951.92602539 205 198 193
458002.06250000 4298165.50000000 946.22802734 173 151 148
458002.06250000 4298166.00000000 946.37097168 177 163 162
458002.06250000 4298166.50000000 946.60797119 184 173 171
458002.06250000 4298167.00000000 946.93200684 174 164 162
458002.06250000 4298167.50000000 947.16400146 186 179 176
458002.06250000 4298168.00000000 947.38598633 170 162 160
458002.06250000 4298168.50000000 947.65100098 166 157 155
458002.06250000 4298169.00000000 947.84698486 171 164 162
458002.06250000 4298169.50000000 948.05200195 169 161 158
458002.06250000 4298170.00000000 948.26501465 196 188 185
458002.06250000 4298170.50000000 948.44500732 187 179 176
458002.06250000 4298171.00000000 948.63800049 173 163 160
458002.06250000 4298171.50000000 948.81701660 172 162 159
458002.06250000 4298172.00000000 949.06097412 158 147 143
458002.06250000 4298172.50000000 949.60900879 166 152 149
458002.06250000 4298173.00000000 950.28399658 179 168 164
458002.06250000 4298173.50000000 951.00701904 203 193 190
458002.06250000 4298174.00000000 951.77099609 207 200 197
458002.56250000 4298165.50000000 946.31402588 168 149 144
458002.56250000 4298166.00000000 946.46197510 179 164 162
458002.56250000 4298166.50000000 946.68103027 187 176 174
458002.56250000 4298167.00000000 947.00598145 187 180 176
458002.56250000 4298167.50000000 947.31298828 197 192 189
458002.56250000 4298168.00000000 947.55902100 186 181 179
458002.56250000 4298168.50000000 947.78698730 192 186 186
458002.56250000 4298169.00000000 947.99200439 200 195 192
458002.56250000 4298169.50000000 948.16699219 194 189 185
458002.56250000 4298170.00000000 948.36700439 220 215 211
458002.56250000 4298170.50000000 948.58898926 226 218 215
458002.56250000 4298171.00000000 948.77697754 208 200 197
458002.56250000 4298171.50000000 948.89801025 189 181 178
458002.56250000 4298172.00000000 949.07897949 150 140 138
458002.56250000 4298172.50000000 949.45599365 162 151 149
458002.56250000 4298173.00000000 950.03100586 176 167 164
458002.56250000 4298173.50000000 950.79699707 207 198 196
458002.56250000 4298174.00000000 951.61297607 206 201 197
458003.06250000 4298165.50000000 946.39898682 177 159 151
458003.06250000 4298166.00000000 946.56701660 186 172 170
458003.06250000 4298166.50000000 946.76300049 197 188 183
458003.06250000 4298167.00000000 947.07202148 197 191 187
458003.06250000 4298167.50000000 947.41802979 206 203 199
458003.06250000 4298168.00000000 947.67297363 195 191 188
458003.06250000 4298168.50000000 947.86199951 202 198 197
458003.06250000 4298169.00000000 948.06597900 212 209 205
458003.06250000 4298169.50000000 948.23901367 212 207 204
458003.06250000 4298170.00000000 948.43597412 214 209 205
458003.06250000 4298170.50000000 948.65802002 209 204 201
458003.06250000 4298171.00000000 948.81597900 206 198 196
458003.06250000 4298171.50000000 948.95098877 188 180 178
458003.06250000 4298172.00000000 949.14697266 145 136 134
458003.06250000 4298172.50000000 949.41400146 154 144 142
458003.06250000 4298173.00000000 949.86798096 175 166 163
458003.06250000 4298173.50000000 950.55102539 207 199 196
458003.06250000 4298174.00000000 951.35601807 202 197 193
458003.56250000 4298165.50000000 946.45098877 211 193 183
458003.56250000 4298166.00000000 946.67602539 209 196 190
458003.56250000 4298166.50000000 946.90600586 205 195 188
458003.56250000 4298167.00000000 947.15002441 200 193 186
458003.56250000 4298167.50000000 947.46801758 209 205 200
458003.56250000 4298168.00000000 947.76397705 207 204 200
458003.56250000 4298168.50000000 947.96997070 215 211 208
458003.56250000 4298169.00000000 948.11499023 219 216 211
458003.56250000 4298169.50000000 948.26800537 215 212 207
458003.56250000 4298170.00000000 948.41400146 213 210 206
458003.56250000 4298170.50000000 948.58599854 206 202 199
458003.56250000 4298171.00000000 948.75097656 203 198 195
458003.56250000 4298171.50000000 948.91998291 184 179 176
458003.56250000 4298172.00000000 949.16198730 142 137 134
458003.56250000 4298172.50000000 949.43701172 150 140 139
458003.56250000 4298173.00000000 949.84997559 167 158 156
458003.56250000 4298173.50000000 950.50299072 203 196 193
458003.56250000 4298174.00000000 951.30401611 200 196 191
458004.06250000 4298165.50000000 946.45397949 213 197 184
458004.06250000 4298166.00000000 946.70898438 214 200 192
458004.06250000 4298166.50000000 946.99902344 211 201 192
458004.06250000 4298167.00000000 947.22998047 204 196 188
458004.06250000 4298167.50000000 947.45098877 210 205 199
458004.06250000 4298168.00000000 947.75701904 215 211 206
458004.06250000 4298168.50000000 947.98901367 219 216 212
458004.06250000 4298169.00000000 948.13897705 218 216 211
458004.06250000 4298169.50000000 948.27801514 217 215 210
458004.06250000 4298170.00000000 948.38000488 215 211 207
458004.06250000 4298170.50000000 948.51599121 204 200 197
458004.06250000 4298171.00000000 948.66900635 201 197 195
458004.06250000 4298171.50000000 948.87799072 186 180 180
458004.06250000 4298172.00000000 949.15899658 159 152 152
458004.06250000 4298172.50000000 949.45001221 153 144 144
458004.06250000 4298173.00000000 949.88201904 174 167 164
458004.06250000 4298173.50000000 950.54101563 208 203 200
458004.06250000 4298174.00000000 951.35797119 202 197 194
458004.56250000 4298165.50000000 946.40399170 208 194 183
458004.56250000 4298166.00000000 946.65600586 216 203 195
458004.56250000 4298166.50000000 946.92498779 216 206 197
458004.56250000 4298167.00000000 947.14599609 216 207 200
458004.56250000 4298167.50000000 947.35601807 215 208 202
458004.56250000 4298168.00000000 947.61297607 219 212 207
458004.56250000 4298168.50000000 947.85699463 221 216 212
458004.56250000 4298169.00000000 948.03399658 219 214 211
458004.56250000 4298169.50000000 948.17602539 218 213 210
458004.56250000 4298170.00000000 948.29797363 208 203 200
458004.56250000 4298170.50000000 948.43298340 194 189 186
458004.56250000 4298171.00000000 948.59600830 190 185 182
458004.56250000 4298171.50000000 948.84802246 189 184 181
458004.56250000 4298172.00000000 949.15899658 185 179 176
458004.56250000 4298172.50000000 949.49298096 188 180 178
458004.56250000 4298173.00000000 949.96197510 184 179 175
458004.56250000 4298173.50000000 950.64202881 203 198 194
458004.56250000 4298174.00000000 951.48297119 203 198 194
458005.06250000 4298166.00000000 946.53601074 210 200 191
458005.06250000 4298166.50000000 946.77502441 203 194 185
458005.06250000 4298167.00000000 946.95001221 198 189 182
458005.06250000 4298167.50000000 947.15002441 197 190 184
458005.06250000 4298168.00000000 947.35699463 194 188 183
458005.06250000 4298168.50000000 947.56097412 195 190 186
458005.06250000 4298169.00000000 947.73498535 194 189 185
458005.06250000 4298169.50000000 947.91998291 189 184 180
458005.06250000 4298170.00000000 948.12097168 172 168 163
458005.06250000 4298170.50000000 948.30902100 151 146 142
458005.06250000 4298171.00000000 948.51501465 153 148 144
458005.06250000 4298171.50000000 948.77301025 174 169 165
458005.06250000 4298172.00000000 949.09002686 185 179 175
458005.06250000 4298172.50000000 949.51501465 189 181 178
458005.06250000 4298173.00000000 950.03802490 184 179 175
458005.06250000 4298173.50000000 950.68902588 196 191 187
458005.06250000 4298174.00000000 951.51202393 202 197 193
458005.56250000 4298166.00000000 946.38098145 216 206 197
458005.56250000 4298166.50000000 946.59899902 198 189 180
458005.56250000 4298167.00000000 946.77301025 184 174 167
458005.56250000 4298167.50000000 946.91302490 181 174 166
458005.56250000 4298168.00000000 947.07202148 181 175 168
458005.56250000 4298168.50000000 947.27600098 184 177 171
458005.56250000 4298169.00000000 947.50897217 185 180 176
458005.56250000 4298169.50000000 947.72698975 184 179 175
458005.56250000 4298170.00000000 947.92102051 179 174 171
458005.56250000 4298170.50000000 948.14001465 179 173 171
458005.56250000 4298171.00000000 948.38299561 181 176 172
458005.56250000 4298171.50000000 948.64697266 183 177 173
458005.56250000 4298172.00000000 948.93902588 175 169 165
458005.56250000 4298172.50000000 949.43902588 173 167 160
458005.56250000 4298173.00000000 950.05902100 184 179 175
458005.56250000 4298173.50000000 950.73797607 198 193 189
458005.56250000 4298174.00000000 951.60302734 205 200 196
458006.06250000 4298167.00000000 946.59802246 204 195 188
458006.06250000 4298167.50000000 946.75701904 202 195 187
458006.06250000 4298168.00000000 946.87500000 203 196 188
458006.06250000 4298168.50000000 947.05200195 204 197 189
458006.06250000 4298169.00000000 947.32397461 206 199 194
458006.06250000 4298169.50000000 947.54998779 201 194 189
458006.06250000 4298170.00000000 947.73199463 197 190 185
458006.06250000 4298170.50000000 947.95501709 199 192 187
458006.06250000 4298171.00000000 948.20098877 202 194 189
458006.06250000 4298171.50000000 948.50701904 198 190 185
458006.06250000 4298172.00000000 948.85699463 190 184 177
458006.06250000 4298172.50000000 949.41699219 176 169 163
458006.06250000 4298173.00000000 950.13500977 189 184 178
458006.06250000 4298173.50000000 950.87597656 199 194 189
458006.06250000 4298174.00000000 951.70098877 205 200 196
458006.56250000 4298168.50000000 946.87799072 214 207 199
458006.56250000 4298169.00000000 947.07098389 214 207 199
458006.56250000 4298169.50000000 947.31402588 210 203 195
458006.56250000 4298170.00000000 947.53497314 208 201 193
458006.56250000 4298170.50000000 947.76000977 209 202 194
458006.56250000 4298171.00000000 948.00500488 211 204 196
458006.56250000 4298171.50000000 948.34600830 204 197 189
458006.56250000 4298172.00000000 948.79901123 196 189 181
458006.56250000 4298172.50000000 949.43798828 181 174 167
458006.56250000 4298173.00000000 950.25402832 194 189 183
458006.56250000 4298173.50000000 951.02600098 198 193 187
458006.56250000 4298174.00000000 951.73797607 207 202 198
458007.06250000 4298169.00000000 946.82299805 214 207 199
458007.06250000 4298169.50000000 947.05798340 212 205 197
458007.06250000 4298170.00000000 947.34197998 212 205 197
458007.06250000 4298170.50000000 947.57000732 214 207 199
458007.06250000 4298171.00000000 947.83001709 213 206 198
458007.06250000 4298171.50000000 948.19299316 201 194 186
458007.06250000 4298172.00000000 948.70001221 196 189 181
458007.06250000 4298172.50000000 949.41400146 184 177 170
458007.06250000 4298173.00000000 950.28601074 199 194 188
458007.06250000 4298173.50000000 951.07598877 195 190 184
458007.06250000 4298174.00000000 951.75000000 209 204 201
458007.56250000 4298170.50000000 947.39697266 216 209 201
458007.56250000 4298171.00000000 947.69799805 213 206 198
458007.56250000 4298171.50000000 948.06298828 200 192 184
458007.56250000 4298172.00000000 948.54901123 195 188 180
458007.56250000 4298172.50000000 949.25402832 188 181 173
458007.56250000 4298173.00000000 950.20697021 204 199 193
458007.56250000 4298173.50000000 951.15997314 196 191 185
458007.56250000 4298174.00000000 951.88800049 212 208 205
458008.06250000 4298170.50000000 947.23797607 217 208 201
458008.06250000 4298171.00000000 947.58398438 215 206 197
458008.06250000 4298171.50000000 947.93298340 203 194 185
458008.06250000 4298172.00000000 948.38598633 197 189 180
458008.06250000 4298172.50000000 949.02697754 190 186 176
458008.06250000 4298173.00000000 950.06896973 211 206 200
458008.06250000 4298173.50000000 951.28497314 198 195 190
458008.06250000 4298174.00000000 952.10900879 211 208 204
458008.56250000 4298170.50000000 947.17498779 217 208 201
458008.56250000 4298171.00000000 947.54400635 218 209 200
458008.56250000 4298171.50000000 947.87799072 209 200 191
458008.56250000 4298172.00000000 948.31097412 200 192 183
458008.56250000 4298172.50000000 949.00201416 191 187 178
458008.56250000 4298173.00000000 950.08801270 213 208 202
458008.56250000 4298173.50000000 951.32397461 203 200 195
458008.56250000 4298174.00000000 952.19799805 209 206 201
458009.06250000 4298170.50000000 947.13800049 217 208 201
458009.06250000 4298171.00000000 947.49597168 217 208 199
458009.06250000 4298171.50000000 947.83197021 211 202 193
458009.06250000 4298172.00000000 948.29699707 202 195 185
458009.06250000 4298172.50000000 949.14697266 196 192 182
458009.06250000 4298173.00000000 950.23699951 214 209 204
458009.06250000 4298173.50000000 951.33001709 200 197 192
458009.06250000 4298174.00000000 952.19598389 209 206 201
458009.56250000 4298170.50000000 947.04901123 216 207 200
458009.56250000 4298171.00000000 947.33502197 215 206 197
458009.56250000 4298171.50000000 947.78198242 210 201 192
458009.56250000 4298172.00000000 948.47998047 200 194 184
458009.56250000 4298172.50000000 949.40002441 199 195 185
458009.56250000 4298173.00000000 950.39898682 216 211 205
458009.56250000 4298173.50000000 951.40197754 201 198 193
458009.56250000 4298174.00000000 952.18200684 212 209 205
458010.06250000 4298170.50000000 946.98297119 215 206 199
458010.06250000 4298171.00000000 947.23901367 214 205 196
458010.06250000 4298171.50000000 947.85198975 210 201 192
458010.06250000 4298172.00000000 948.81799316 198 190 181
458010.06250000 4298172.50000000 949.78399658 201 197 187
458010.06250000 4298173.00000000 950.64697266 217 212 206
458010.06250000 4298173.50000000 951.49401855 205 202 197
458010.06250000 4298174.00000000 952.15997314 218 215 210
458010.56250000 4298170.50000000 946.97399902 213 204 197
458010.56250000 4298171.00000000 947.28802490 212 203 194
458010.56250000 4298171.50000000 947.97900391 209 200 191
458010.56250000 4298172.00000000 948.99298096 198 189 180
458010.56250000 4298172.50000000 950.03198242 202 198 188
458010.56250000 4298173.00000000 950.84399414 209 204 198
458010.56250000 4298173.50000000 951.53302002 211 208 204
458010.56250000 4298174.00000000 952.17102051 223 220 215
458011.06250000 4298170.50000000 946.99798584 212 203 194
458011.06250000 4298171.00000000 947.37799072 210 201 192
458011.06250000 4298171.50000000 948.05297852 209 202 192
458011.06250000 4298172.00000000 948.90301514 196 192 180
458011.06250000 4298172.50000000 949.86700439 202 200 188
458011.06250000 4298173.00000000 950.76599121 204 201 192
458011.06250000 4298173.50000000 951.54699707 211 208 201
458011.06250000 4298174.00000000 952.21600342 226 223 218
458011.56250000 4298170.50000000 947.01599121 208 199 190
458011.56250000 4298171.00000000 947.40802002 210 201 192
458011.56250000 4298171.50000000 948.05499268 208 201 191
458011.56250000 4298172.00000000 948.76300049 199 193 182
458011.56250000 4298172.50000000 949.60797119 206 204 192
458011.56250000 4298173.00000000 950.62097168 208 205 196
458011.56250000 4298173.50000000 951.58300781 211 208 201
458011.56250000 4298174.00000000 952.27801514 220 216 212
458012.06250000 4298170.50000000 947.05798340 202 193 186
458012.06250000 4298171.00000000 947.43103027 209 200 191
458012.06250000 4298171.50000000 947.94799805 208 202 190
458012.06250000 4298172.00000000 948.59301758 201 196 184
458012.06250000 4298172.50000000 949.51800537 203 199 188
458012.06250000 4298173.00000000 950.63201904 216 212 204
458012.06250000 4298173.50000000 951.61999512 211 206 200
458012.06250000 4298174.00000000 952.29302979 216 211 206
458012.56250000 4298170.50000000 947.10198975 193 184 178
458012.56250000 4298171.00000000 947.46502686 205 196 187
458012.56250000 4298171.50000000 947.89300537 208 202 190
458012.56250000 4298172.00000000 948.54998779 199 193 181
458012.56250000 4298172.50000000 949.63897705 201 197 188
458012.56250000 4298173.00000000 950.81500244 211 206 200
458012.56250000 4298173.50000000 951.64001465 211 206 200
458012.56250000 4298174.00000000 952.23297119 213 208 202
458013.06250000 4298170.50000000 947.13702393 195 186 179
458013.06250000 4298171.00000000 947.52099609 206 197 188
458013.06250000 4298171.50000000 948.01501465 206 200 188
458013.06250000 4298172.00000000 948.87402344 199 193 182
458013.06250000 4298172.50000000 950.00799561 202 198 189
458013.06250000 4298173.00000000 950.95800781 209 204 198
458013.06250000 4298173.50000000 951.64202881 210 205 199
458013.06250000 4298174.00000000 952.18103027 211 206 200
458013.56250000 4298170.50000000 947.26300049 206 197 188
458013.56250000 4298171.00000000 947.62200928 211 202 193
458013.56250000 4298171.50000000 948.18499756 200 193 183
458013.56250000 4298172.00000000 949.19000244 190 184 174
458013.56250000 4298172.50000000 950.23400879 201 194 186
458013.56250000 4298173.00000000 950.95898438 203 196 190
458013.56250000 4298173.50000000 951.62298584 212 205 199
458013.56250000 4298174.00000000 952.13000488 213 206 200
458014.06250000 4298170.50000000 947.41497803 207 198 189
458014.06250000 4298171.00000000 947.79498291 202 193 184
458014.06250000 4298171.50000000 948.31799316 189 181 172
458014.06250000 4298172.00000000 949.16699219 184 177 167
458014.06250000 4298172.50000000 950.13897705 198 191 183
458014.06250000 4298173.00000000 950.91900635 200 193 186
458014.06250000 4298173.50000000 951.59600830 214 207 200
458014.06250000 4298174.00000000 952.09399414 218 211 205
458014.56250000 4298170.50000000 947.56500244 202 193 182
458014.56250000 4298171.00000000 947.97900391 195 187 176
458014.56250000 4298171.50000000 948.51300049 184 176 166
458014.56250000 4298172.00000000 949.19299316 184 174 165
458014.56250000 4298172.50000000 949.96301270 201 194 186
458014.56250000 4298173.00000000 950.78997803 206 199 191
458014.56250000 4298173.50000000 951.50701904 214 207 199
458014.56250000 4298174.00000000 952.03601074 223 216 208
458015.06250000 4298170.50000000 947.80499268 212 202 192
458015.06250000 4298171.00000000 948.19500732 209 199 187
458015.06250000 4298171.50000000 948.78002930 199 191 179
458015.06250000 4298172.00000000 949.37902832 196 188 178
458015.06250000 4298172.50000000 949.93701172 209 202 194
458015.06250000 4298173.00000000 950.60797119 207 200 192
458015.06250000 4298173.50000000 951.28002930 210 203 195
458015.06250000 4298174.00000000 951.88098145 220 213 205
458015.56250000 4298172.50000000 949.98901367 218 211 202
458015.56250000 4298173.00000000 950.50097656 204 197 188
458015.56250000 4298173.50000000 951.08697510 205 198 190
458015.56250000 4298174.00000000 951.66400146 209 202 194
458016.06250000 4298172.50000000 950.02398682 211 200 190
458016.06250000 4298173.00000000 950.45001221 198 187 177
458016.06250000 4298173.50000000 950.91699219 204 193 183
458016.06250000 4298174.00000000 951.39001465 200 189 179
458016.56250000 4298173.50000000 950.76397705 210 196 183
458016.56250000 4298174.00000000 951.19500732 206 192 179
457980.06250000 4298179.00000000 947.68902588 170 160 152
457980.06250000 4298179.50000000 947.61901855 170 161 153
457980.06250000 4298180.00000000 947.48797607 172 163 155
457980.06250000 4298180.50000000 947.34600830 171 161 153
457980.06250000 4298181.50000000 946.91198730 171 161 152
457980.06250000 4298182.00000000 946.59197998 173 162 152
457980.56250000 4298176.50000000 948.16400146 146 141 138
457980.56250000 4298177.00000000 948.19500732 150 145 142
457980.56250000 4298177.50000000 948.19097900 149 144 141
457980.56250000 4298178.00000000 948.19500732 151 146 143
457980.56250000 4298178.50000000 948.23699951 156 148 145
457980.56250000 4298179.00000000 948.31597900 159 151 148
457980.56250000 4298179.50000000 948.29797363 159 151 148
457980.56250000 4298180.00000000 948.12597656 161 153 150
457980.56250000 4298180.50000000 947.93200684 158 150 147
457980.56250000 4298181.00000000 947.70397949 158 150 147
457980.56250000 4298181.50000000 947.34100342 155 148 143
457980.56250000 4298182.00000000 946.94799805 163 154 149
457980.56250000 4298182.50000000 946.64300537 169 160 156
457981.06250000 4298174.50000000 948.60498047 210 206 205
457981.06250000 4298175.00000000 948.64801025 206 202 201
457981.06250000 4298175.50000000 948.64898682 206 200 200
457981.06250000 4298176.00000000 948.61798096 187 181 181
457981.06250000 4298176.50000000 948.58599854 170 164 164
457981.06250000 4298177.00000000 948.58300781 163 157 157
457981.06250000 4298177.50000000 948.61901855 160 154 154
457981.06250000 4298178.00000000 948.68902588 158 152 152
457981.06250000 4298178.50000000 948.73797607 164 158 158
457981.06250000 4298179.00000000 948.75897217 170 164 164
457981.06250000 4298179.50000000 948.75799561 171 166 165
457981.06250000 4298180.00000000 948.69799805 179 172 172
457981.06250000 4298180.50000000 948.60900879 162 156 156
457981.06250000 4298181.00000000 948.37500000 151 145 145
457981.06250000 4298181.50000000 947.86602783 146 141 140
457981.06250000 4298182.00000000 947.35699463 139 135 132
457981.06250000 4298182.50000000 947.02398682 143 137 136
457981.06250000 4298183.00000000 946.74499512 142 135 135
457981.56250000 4298174.50000000 948.87298584 227 226 224
457981.56250000 4298175.00000000 948.97497559 222 221 219
457981.56250000 4298175.50000000 949.03399658 224 220 219
457981.56250000 4298176.00000000 949.00201416 221 217 216
457981.56250000 4298176.50000000 948.93402100 202 198 197
457981.56250000 4298177.00000000 948.91302490 190 185 185
457981.56250000 4298177.50000000 948.95697021 200 196 195
457981.56250000 4298178.00000000 949.04602051 211 206 206
457981.56250000 4298178.50000000 949.11499023 215 211 210
457981.56250000 4298179.00000000 949.13098145 217 213 213
457981.56250000 4298179.50000000 949.13500977 205 201 200
457981.56250000 4298180.00000000 949.12500000 192 188 188
457981.56250000 4298180.50000000 949.06298828 201 197 196
457981.56250000 4298181.00000000 948.86297607 184 181 180
457981.56250000 4298181.50000000 948.35900879 139 136 135
457981.56250000 4298182.00000000 947.72399902 126 125 124
457981.56250000 4298182.50000000 947.33599854 124 120 123
457981.56250000 4298183.00000000 947.06500244 122 118 121
457982.06250000 4298174.50000000 949.09399414 224 223 222
457982.06250000 4298175.00000000 949.19702148 223 222 220
457982.06250000 4298175.50000000 949.29400635 224 222 220
457982.06250000 4298176.00000000 949.33801270 224 222 220
457982.06250000 4298176.50000000 949.32897949 224 222 220
457982.06250000 4298177.00000000 949.31896973 219 216 216
457982.06250000 4298177.50000000 949.34997559 218 215 216
457982.06250000 4298178.00000000 949.40899658 216 213 213
457982.06250000 4298178.50000000 949.47302246 211 210 210
457982.06250000 4298179.00000000 949.53497314 213 213 213
457982.06250000 4298179.50000000 949.54302979 208 208 208
457982.06250000 4298180.00000000 949.51800537 205 204 205
457982.06250000 4298180.50000000 949.42797852 205 203 205
457982.06250000 4298181.00000000 949.17498779 190 188 189
457982.06250000 4298181.50000000 948.71099854 140 138 139
457982.06250000 4298182.00000000 948.08898926 119 117 121
457982.06250000 4298182.50000000 947.59301758 111 108 114
457982.06250000 4298183.00000000 947.28601074 119 113 119
457982.56250000 4298174.50000000 949.28399658 224 224 222
457982.56250000 4298175.00000000 949.40197754 224 224 222
457982.56250000 4298175.50000000 949.53302002 223 223 221
457982.56250000 4298176.00000000 949.65802002 219 219 217
457982.56250000 4298176.50000000 949.71301270 217 217 217
457982.56250000 4298177.00000000 949.68499756 218 218 218
457982.56250000 4298177.50000000 949.73101807 216 216 216
457982.56250000 4298178.00000000 949.86602783 204 204 205
457982.56250000 4298178.50000000 949.93902588 197 197 197
457982.56250000 4298179.00000000 949.99597168 200 200 200
457982.56250000 4298179.50000000 950.02899170 199 199 199
457982.56250000 4298180.00000000 949.95001221 194 193 193
457982.56250000 4298180.50000000 949.79602051 184 181 182
457982.56250000 4298181.00000000 949.53302002 181 179 180
457982.56250000 4298181.50000000 949.13397217 131 129 131
457982.56250000 4298182.00000000 948.57202148 113 111 116
457982.56250000 4298182.50000000 947.97900391 118 116 120
457982.56250000 4298183.00000000 947.55401611 119 113 119
457983.06250000 4298174.50000000 949.44299316 224 224 222
457983.06250000 4298175.00000000 949.63702393 223 223 221
457983.06250000 4298175.50000000 949.81597900 214 214 212
457983.06250000 4298176.00000000 949.97900391 206 206 205
457983.06250000 4298176.50000000 950.08898926 201 201 201
457983.06250000 4298177.00000000 950.12799072 195 195 195
457983.06250000 4298177.50000000 950.25097656 189 189 189
457983.06250000 4298178.00000000 950.48297119 186 186 188
457983.06250000 4298178.50000000 950.61499023 185 185 185
457983.06250000 4298179.00000000 950.67901611 180 180 180
457983.06250000 4298179.50000000 950.72900391 179 179 178
457983.06250000 4298180.00000000 950.59802246 175 173 174
457983.06250000 4298180.50000000 950.35699463 167 164 165
457983.06250000 4298181.00000000 950.15301514 168 166 166
457983.06250000 4298181.50000000 949.86199951 129 127 128
457983.06250000 4298182.00000000 949.26898193 118 116 119
457983.06250000 4298182.50000000 948.57501221 110 106 112
457983.06250000 4298183.00000000 948.03601074 116 110 116
457983.56250000 4298174.50000000 949.61798096 225 225 223
457983.56250000 4298175.00000000 949.88800049 217 217 215
457983.56250000 4298175.50000000 950.13800049 196 195 193
457983.56250000 4298176.00000000 950.37402344 186 184 183
457983.56250000 4298176.50000000 950.56896973 180 179 179
457983.56250000 4298177.00000000 950.72302246 174 172 173
457983.56250000 4298177.50000000 950.89898682 169 168 168
457983.56250000 4298178.00000000 951.13098145 168 166 168
457983.56250000 4298178.50000000 951.29498291 163 161 163
457983.56250000 4298179.00000000 951.37799072 166 163 164
457983.56250000 4298179.50000000 951.42498779 162 160 161
457983.56250000 4298180.00000000 951.32598877 160 158 159
457983.56250000 4298180.50000000 951.10498047 152 150 151
457983.56250000 4298181.00000000 950.99200439 143 141 142
457983.56250000 4298181.50000000 950.88201904 137 135 136
457983.56250000 4298182.00000000 950.41601563 137 132 135
457983.56250000 4298182.50000000 949.70098877 126 122 125
457983.56250000 4298183.00000000 949.01000977 130 125 129
457984.06250000 4298174.50000000 949.84399414 225 222 219
457984.06250000 4298175.00000000 950.22497559 205 202 199
457984.06250000 4298175.50000000 950.56500244 192 190 187
457984.06250000 4298176.00000000 950.88201904 193 190 187
457984.06250000 4298176.50000000 951.16699219 187 184 182
457984.06250000 4298177.00000000 951.43902588 183 179 178
457984.06250000 4298177.50000000 951.60601807 177 174 174
457984.06250000 4298178.00000000 951.72198486 171 168 168
457984.06250000 4298178.50000000 951.82202148 168 164 163
457984.06250000 4298179.00000000 951.91101074 162 159 159
457984.06250000 4298179.50000000 951.97698975 156 152 152
457984.06250000 4298180.00000000 951.93298340 155 153 152
457984.06250000 4298180.50000000 951.81201172 145 144 143
457984.06250000 4298181.00000000 951.73999023 147 146 145
457984.06250000 4298181.50000000 951.71502686 152 151 150
457984.06250000 4298182.00000000 951.55798340 157 153 154
457984.06250000 4298182.50000000 951.17901611 155 151 151
457984.06250000 4298183.00000000 950.67797852 156 152 151
457984.56250000 4298174.50000000 950.07598877 213 205 204
457984.56250000 4298175.00000000 950.64501953 200 193 190
457984.56250000 4298175.50000000 951.08599854 204 201 196
457984.56250000 4298176.00000000 951.42602539 214 211 206
457984.56250000 4298176.50000000 951.78997803 213 210 205
457984.56250000 4298177.00000000 952.11901855 213 209 205
457984.56250000 4298177.50000000 952.24499512 208 204 201
457984.56250000 4298178.00000000 952.28497314 208 204 201
457984.56250000 4298178.50000000 952.33898926 198 193 190
457984.56250000 4298179.00000000 952.40802002 191 187 184
457984.56250000 4298179.50000000 952.45098877 184 180 177
457984.56250000 4298180.00000000 952.42901611 180 176 173
457984.56250000 4298180.50000000 952.38098145 183 180 176
457984.56250000 4298181.00000000 952.33001709 183 181 177
457984.56250000 4298181.50000000 952.28698730 179 179 176
457984.56250000 4298182.00000000 952.25500488 179 172 174
457984.56250000 4298182.50000000 952.18701172 181 176 175
457984.56250000 4298183.00000000 952.04400635 185 181 177
457985.06250000 4298174.50000000 950.28399658 210 202 200
457985.06250000 4298175.00000000 951.01000977 201 193 191
457985.06250000 4298175.50000000 951.55798340 218 213 207
457985.06250000 4298176.00000000 951.94598389 221 216 210
457985.06250000 4298176.50000000 952.27801514 223 218 214
457985.06250000 4298177.00000000 952.50201416 223 218 214
457985.06250000 4298177.50000000 952.59002686 218 213 209
457985.06250000 4298178.00000000 952.65502930 219 214 210
457985.06250000 4298178.50000000 952.72302246 221 216 212
457985.06250000 4298179.00000000 952.76202393 218 213 209
457985.06250000 4298179.50000000 952.77899170 215 212 207
457985.06250000 4298180.00000000 952.78100586 213 210 205
457985.06250000 4298180.50000000 952.78497314 215 214 209
457985.06250000 4298181.00000000 952.75299072 213 212 207
457985.06250000 4298181.50000000 952.68798828 200 197 193
457985.06250000 4298182.00000000 952.65997314 193 187 188
457985.06250000 4298182.50000000 952.65002441 192 187 184
457985.06250000 4298183.00000000 952.61901855 205 202 197
457985.56250000 4298174.50000000 950.51800537 204 198 194
457985.56250000 4298175.00000000 951.40399170 201 198 193
457985.56250000 4298175.50000000 951.93499756 219 216 211
457985.56250000 4298176.00000000 952.28997803 226 223 218
457985.56250000 4298176.50000000 952.52801514 228 225 220
457985.56250000 4298177.00000000 952.67797852 230 226 221
457985.56250000 4298177.50000000 952.78198242 227 224 219
457985.56250000 4298178.00000000 952.88000488 224 221 216
457985.56250000 4298178.50000000 952.95599365 228 225 220
457985.56250000 4298179.00000000 952.98400879 231 227 222
457985.56250000 4298179.50000000 953.00598145 231 227 222
457985.56250000 4298180.00000000 953.02899170 228 225 220
457985.56250000 4298180.50000000 953.04797363 231 227 222
457985.56250000 4298181.00000000 953.02502441 226 223 218
457985.56250000 4298181.50000000 952.96997070 217 214 209
457985.56250000 4298182.00000000 952.94799805 213 210 205
457985.56250000 4298182.50000000 952.93200684 214 211 206
457985.56250000 4298183.00000000 952.89501953 223 220 215
457986.06250000 4298174.50000000 950.66198730 205 198 194
457986.06250000 4298175.00000000 951.69500732 199 196 191
457986.06250000 4298175.50000000 952.15399170 222 219 214
457986.06250000 4298176.00000000 952.45501709 231 227 222
457986.06250000 4298176.50000000 952.67102051 233 230 224
457986.06250000 4298177.00000000 952.81799316 232 228 223
457986.06250000 4298177.50000000 952.94299316 226 223 218
457986.06250000 4298178.00000000 953.04901123 223 220 215
457986.06250000 4298178.50000000 953.13201904 225 222 217
457986.06250000 4298179.00000000 953.16998291 228 225 220
457986.06250000 4298179.50000000 953.19000244 232 228 223
457986.06250000 4298180.00000000 953.20697021 223 220 215
457986.06250000 4298180.50000000 953.20098877 215 212 207
457986.06250000 4298181.00000000 953.17297363 227 224 219
457986.06250000 4298181.50000000 953.14501953 224 221 216
457986.06250000 4298182.00000000 953.13397217 219 216 211
457986.06250000 4298182.50000000 953.12500000 227 224 219
457986.06250000 4298183.00000000 953.09698486 232 228 223
457986.56250000 4298174.50000000 950.76599121 200 192 188
457986.56250000 4298175.00000000 951.82598877 195 192 187
457986.56250000 4298175.50000000 952.24102783 215 212 207
457986.56250000 4298176.00000000 952.55102539 228 225 220
457986.56250000 4298176.50000000 952.79400635 232 228 223
457986.56250000 4298177.00000000 952.95599365 230 226 221
457986.56250000 4298177.50000000 953.07598877 226 223 218
457986.56250000 4298178.00000000 953.17700195 234 232 226
457986.56250000 4298178.50000000 953.25701904 227 224 219
457986.56250000 4298179.00000000 953.28900146 232 228 223
457986.56250000 4298179.50000000 953.30297852 234 232 226
457986.56250000 4298180.00000000 953.32598877 233 230 224
457986.56250000 4298180.50000000 953.33801270 219 216 211
457986.56250000 4298181.00000000 953.32800293 210 207 202
457986.56250000 4298181.50000000 953.30499268 221 218 213
457986.56250000 4298182.00000000 953.27301025 216 213 208
457986.56250000 4298182.50000000 953.24798584 219 216 211
457986.56250000 4298183.00000000 953.22698975 224 221 216
457987.06250000 4298174.50000000 950.76000977 194 186 182
457987.06250000 4298175.00000000 951.83801270 192 187 183
457987.06250000 4298175.50000000 952.28002930 205 202 197
457987.06250000 4298176.00000000 952.63299561 216 213 208
457987.06250000 4298176.50000000 952.90399170 222 219 214
457987.06250000 4298177.00000000 953.06799316 217 214 209
457987.06250000 4298177.50000000 953.17297363 214 211 206
457987.06250000 4298178.00000000 953.26098633 233 230 224
457987.06250000 4298178.50000000 953.32202148 226 223 218
457987.06250000 4298179.00000000 953.34301758 234 232 226
457987.06250000 4298179.50000000 953.36401367 234 232 226
457987.06250000 4298180.00000000 953.40600586 233 230 224
457987.06250000 4298180.50000000 953.44799805 235 233 227
457987.06250000 4298181.00000000 953.47100830 218 215 210
457987.06250000 4298181.50000000 953.45697021 233 231 225
457987.06250000 4298182.00000000 953.40399170 226 223 218
457987.06250000 4298182.50000000 953.34698486 226 223 218
457987.06250000 4298183.00000000 953.30401611 232 228 223
457987.56250000 4298174.50000000 950.68103027 195 187 184
457987.56250000 4298175.00000000 951.80297852 193 188 184
457987.56250000 4298175.50000000 952.37902832 204 201 196
457987.56250000 4298176.00000000 952.75799561 203 200 195
457987.56250000 4298176.50000000 953.00097656 209 206 201
457987.56250000 4298177.00000000 953.14001465 225 222 217
457987.56250000 4298177.50000000 953.22802734 224 221 216
457987.56250000 4298178.00000000 953.29797363 230 226 221
457987.56250000 4298178.50000000 953.34997559 226 223 218
457987.56250000 4298179.00000000 953.37200928 221 218 213
457987.56250000 4298179.50000000 953.40100098 222 219 214
457987.56250000 4298180.00000000 953.46301270 220 217 212
457987.56250000 4298180.50000000 953.52197266 216 213 208
457987.56250000 4298181.00000000 953.54901123 184 180 175
457987.56250000 4298181.50000000 953.53198242 194 191 186
457987.56250000 4298182.00000000 953.47698975 200 197 192
457987.56250000 4298182.50000000 953.41699219 195 192 187
457987.56250000 4298183.00000000 953.36798096 204 201 196
457988.06250000 4298174.50000000 950.65899658 198 189 186
457988.06250000 4298175.00000000 951.84600830 197 192 188
457988.06250000 4298175.50000000 952.52899170 203 200 195
457988.06250000 4298176.00000000 952.89898682 197 194 189
457988.06250000 4298176.50000000 953.09899902 202 199 194
457988.06250000 4298177.00000000 953.19598389 221 218 213
457988.06250000 4298177.50000000 953.25201416 224 221 216
457988.06250000 4298178.00000000 953.30999756 227 224 219
457988.06250000 4298178.50000000 953.36499023 223 220 215
457988.06250000 4298179.00000000 953.39599609 220 217 212
457988.06250000 4298179.50000000 953.43499756 228 225 220
457988.06250000 4298180.00000000 953.50500488 225 222 217
457988.06250000 4298180.50000000 953.56597900 194 191 186
457988.06250000 4298181.00000000 953.58599854 160 157 152
457988.06250000 4298181.50000000 953.55401611 169 167 161
457988.06250000 4298182.00000000 953.49499512 181 179 173
457988.06250000 4298182.50000000 953.44799805 173 170 165
457988.06250000 4298183.00000000 953.40802002 166 162 157
457988.56250000 4298174.50000000 950.70501709 198 190 187
457988.56250000 4298175.00000000 951.89398193 199 195 190
457988.56250000 4298175.50000000 952.59698486 207 202 198
457988.56250000 4298176.00000000 952.93701172 196 193 188
457988.56250000 4298176.50000000 953.13299561 185 183 177
457988.56250000 4298177.00000000 953.22900391 202 199 194
457988.56250000 4298177.50000000 953.27301025 207 206 201
457988.56250000 4298178.00000000 953.32702637 216 215 210
457988.56250000 4298178.50000000 953.38299561 213 210 205
457988.56250000 4298179.00000000 953.42102051 210 207 202
457988.56250000 4298179.50000000 953.45800781 219 216 211
457988.56250000 4298180.00000000 953.51898193 222 219 214
457988.56250000 4298180.50000000 953.57397461 184 181 176
457988.56250000 4298181.00000000 953.58300781 159 156 151
457988.56250000 4298181.50000000 953.54602051 167 163 158
457988.56250000 4298182.00000000 953.48797607 180 177 172
457988.56250000 4298182.50000000 953.44500732 180 177 172
457988.56250000 4298183.00000000 953.41302490 162 159 154
457989.06250000 4298174.50000000 950.92602539 198 191 188
457989.06250000 4298175.00000000 952.07098389 205 202 197
457989.06250000 4298175.50000000 952.62500000 216 211 207
457989.06250000 4298176.00000000 952.89599609 215 212 207
457989.06250000 4298176.50000000 953.09899902 226 223 218
457989.06250000 4298177.00000000 953.22998047 226 223 218
457989.06250000 4298177.50000000 953.28399658 197 196 191
457989.06250000 4298178.00000000 953.34497070 221 220 215
457989.06250000 4298178.50000000 953.40698242 219 216 211
457989.06250000 4298179.00000000 953.44500732 214 211 206
457989.06250000 4298179.50000000 953.47497559 218 215 210
457989.06250000 4298180.00000000 953.51702881 222 219 214
457989.06250000 4298180.50000000 953.55499268 202 199 194
457989.06250000 4298181.00000000 953.55700684 185 183 177
457989.06250000 4298181.50000000 953.52197266 184 181 176
457989.06250000 4298182.00000000 953.46997070 192 189 184
457989.06250000 4298182.50000000 953.43402100 181 179 173
457989.06250000 4298183.00000000 953.40899658 173 170 165
457989.56250000 4298174.50000000 951.19000244 197 191 187
457989.56250000 4298175.00000000 952.22698975 207 204 199
457989.56250000 4298175.50000000 952.63000488 220 215 211
457989.56250000 4298176.00000000 952.91302490 226 223 218
457989.56250000 4298176.50000000 953.09100342 233 231 225
457989.56250000 4298177.00000000 953.21099854 231 227 222
457989.56250000 4298177.50000000 953.27801514 217 216 211
457989.56250000 4298178.00000000 953.34802246 233 233 227
457989.56250000 4298178.50000000 953.40399170 230 226 221
457989.56250000 4298179.00000000 953.44500732 234 232 226
457989.56250000 4298179.50000000 953.47698975 234 232 226
457989.56250000 4298180.00000000 953.50701904 233 230 224
457989.56250000 4298180.50000000 953.53198242 233 230 224
457989.56250000 4298181.00000000 953.53399658 231 227 222
457989.56250000 4298181.50000000 953.50299072 227 224 219
457989.56250000 4298182.00000000 953.46002197 226 223 218
457989.56250000 4298182.50000000 953.43200684 225 222 217
457989.56250000 4298183.00000000 953.40802002 222 219 214
457990.06250000 4298174.50000000 951.31597900 191 184 181
457990.06250000 4298175.00000000 952.27600098 202 198 195
457990.06250000 4298175.50000000 952.60998535 214 209 205
457990.06250000 4298176.00000000 952.89099121 231 227 222
457990.06250000 4298176.50000000 953.05401611 233 231 225
457990.06250000 4298177.00000000 953.18597412 220 217 212
457990.06250000 4298177.50000000 953.26898193 233 233 227
457990.06250000 4298178.00000000 953.33398438 233 233 227
457990.06250000 4298178.50000000 953.38299561 233 232 226
457990.06250000 4298179.00000000 953.42999268 237 234 229
457990.06250000 4298179.50000000 953.46502686 234 232 226
457990.06250000 4298180.00000000 953.48999023 232 228 223
457990.06250000 4298180.50000000 953.51599121 232 228 223
457990.06250000 4298181.00000000 953.52398682 233 231 225
457990.06250000 4298181.50000000 953.50097656 233 230 224
457990.06250000 4298182.00000000 953.46099854 233 230 224
457990.06250000 4298182.50000000 953.43597412 228 225 220
457990.06250000 4298183.00000000 953.41101074 228 225 220
457990.56250000 4298174.50000000 951.22399902 189 181 179
457990.56250000 4298175.00000000 952.10198975 198 194 191
457990.56250000 4298175.50000000 952.57897949 199 194 190
457990.56250000 4298176.00000000 952.84802246 215 212 207
457990.56250000 4298176.50000000 953.03497314 230 226 221
457990.56250000 4298177.00000000 953.20300293 202 199 194
457990.56250000 4298177.50000000 953.28698730 216 215 210
457990.56250000 4298178.00000000 953.33300781 233 233 227
