457957.56250000 4298329.50000000 948.62799072 204 194 184
457957.56250000 4298330.00000000 949.01000977 192 183 172
457957.56250000 4298330.50000000 949.42700195 168 155 145
457957.56250000 4298331.00000000 949.77197266 162 149 140
457957.56250000 4298331.50000000 950.04998779 170 157 147
457957.56250000 4298332.00000000 950.39001465 167 153 143
457957.56250000 4298332.50000000 950.73101807 159 146 137
457958.06250000 4298324.50000000 945.17401123 177 167 152
457958.06250000 4298325.00000000 945.25799561 179 168 155
457958.06250000 4298325.50000000 945.47802734 180 169 156
457958.06250000 4298326.00000000 945.91101074 183 170 159
457958.06250000 4298326.50000000 946.29400635 184 174 162
457958.06250000 4298327.00000000 946.59698486 190 180 170
457958.06250000 4298327.50000000 946.93200684 195 186 175
457958.06250000 4298328.00000000 947.24597168 199 191 178
457958.06250000 4298328.50000000 947.50701904 204 196 184
457958.06250000 4298329.00000000 947.78302002 204 194 184
457958.06250000 4298329.50000000 948.19396973 200 190 179
457958.06250000 4298330.00000000 948.65301514 181 171 160
457958.06250000 4298330.50000000 949.13800049 155 143 133
457958.06250000 4298331.00000000 949.46502686 164 151 142
457958.06250000 4298331.50000000 949.76800537 172 159 149
457958.06250000 4298332.00000000 950.10601807 168 154 144
457958.06250000 4298332.50000000 950.41198730 168 155 145
457958.56250000 4298326.50000000 945.56298828 184 171 157
457958.56250000 4298327.00000000 945.91699219 189 177 164
457958.56250000 4298327.50000000 946.24200439 188 179 165
457958.56250000 4298328.00000000 946.63299561 192 183 171
457958.56250000 4298328.50000000 946.99200439 198 190 176
457958.56250000 4298329.00000000 947.29797363 204 194 184
457958.56250000 4298329.50000000 947.74102783 201 191 180
457958.56250000 4298330.00000000 948.25201416 172 162 152
457958.56250000 4298330.50000000 948.72900391 157 145 135
457958.56250000 4298331.00000000 949.09002686 168 154 144
457958.56250000 4298331.50000000 949.45800781 169 156 146
457958.56250000 4298332.00000000 949.83099365 169 156 146
457958.56250000 4298332.50000000 950.10998535 167 153 143
457959.06250000 4298327.50000000 945.52197266 187 175 160
457959.06250000 4298328.00000000 945.96398926 193 184 171
457959.06250000 4298328.50000000 946.39398193 195 187 174
457959.06250000 4298329.00000000 946.84002686 198 188 177
457959.06250000 4298329.50000000 947.33099365 201 191 180
457959.06250000 4298330.00000000 947.84497070 190 180 171
457959.06250000 4298330.50000000 948.31097412 174 162 153
457959.06250000 4298331.00000000 948.73400879 164 151 142
457959.06250000 4298331.50000000 949.16101074 168 154 144
457959.06250000 4298332.00000000 949.52600098 159 146 137
457959.06250000 4298332.50000000 949.80297852 160 147 138
457959.56250000 4298328.00000000 945.33502197 192 183 171
457959.56250000 4298328.50000000 945.73699951 195 187 174
457959.56250000 4298329.00000000 946.24102783 195 185 175
457959.56250000 4298329.50000000 946.84698486 199 189 178
457959.56250000 4298330.00000000 947.41400146 202 192 181
457959.56250000 4298330.50000000 947.88299561 184 171 161
457959.56250000 4298331.00000000 948.33099365 179 166 156
457959.56250000 4298331.50000000 948.78198242 163 150 141
457959.56250000 4298332.00000000 949.19500732 168 154 144
457959.56250000 4298332.50000000 949.50402832 161 148 139
457960.06250000 4298328.50000000 945.21099854 194 184 171
457960.06250000 4298329.00000000 945.69702148 195 185 175
457960.06250000 4298329.50000000 946.33697510 198 188 177
457960.06250000 4298330.00000000 947.00097656 204 194 184
457960.06250000 4298330.50000000 947.50000000 203 193 183
457960.06250000 4298331.00000000 947.91998291 190 180 171
457960.06250000 4298331.50000000 948.37402344 173 163 153
457960.06250000 4298332.00000000 948.82702637 156 145 136
457960.06250000 4298332.50000000 949.14697266 160 147 139
457960.56250000 4298329.00000000 945.25097656 199 189 178
457960.56250000 4298329.50000000 945.84698486 198 188 177
457960.56250000 4298330.00000000 946.49700928 204 194 184
457960.56250000 4298330.50000000 947.07501221 206 196 186
457960.56250000 4298331.00000000 947.55401611 204 194 184
457960.56250000 4298331.50000000 948.04602051 181 171 160
457960.56250000 4298332.00000000 948.51300049 150 139 129
457960.56250000 4298332.50000000 948.83599854 162 149 141
457961.06250000 4298329.50000000 945.28601074 199 189 178
457961.06250000 4298330.00000000 945.91802979 199 189 178
457961.06250000 4298330.50000000 946.44500732 200 190 179
457961.06250000 4298331.00000000 946.98101807 204 194 184
457961.06250000 4298331.50000000 947.50299072 201 191 180
457961.06250000 4298332.00000000 947.95098877 174 164 154
457961.06250000 4298332.50000000 948.39398193 149 139 129
457961.56250000 4298330.00000000 945.29699707 197 187 176
457961.56250000 4298330.50000000 945.83502197 199 189 178
457961.56250000 4298331.00000000 946.32202148 198 188 177
457961.56250000 4298331.50000000 946.87402344 200 190 179
457961.56250000 4298332.00000000 947.35101318 195 185 175
457961.56250000 4298332.50000000 947.83001709 163 153 143
457962.06250000 4298331.00000000 945.61901855 189 179 170
457962.06250000 4298331.50000000 946.19299316 198 188 177
457962.06250000 4298332.00000000 946.79602051 198 188 177
457962.06250000 4298332.50000000 947.33502197 188 179 170
457962.56250000 4298331.50000000 945.42199707 190 180 171
457962.56250000 4298332.00000000 946.15100098 194 184 174
457962.56250000 4298332.50000000 946.81201172 197 189 177
457963.06250000 4298332.00000000 945.41302490 192 181 170
457963.06250000 4298332.50000000 946.07000732 203 193 180
457963.56250000 4298332.50000000 945.34197998 195 184 171
457969.06250000 4298323.50000000 945.19299316 127 119 116
457969.56250000 4298323.50000000 946.09497070 135 125 123
457969.56250000 4298324.00000000 945.56500244 130 122 119
457970.06250000 4298323.50000000 946.57897949 138 128 126
457970.06250000 4298324.00000000 946.25299072 142 133 130
457970.06250000 4298324.50000000 945.72698975 134 126 125
457970.06250000 4298325.00000000 945.12402344 127 119 119
457970.56250000 4298323.50000000 947.07000732 143 134 128
457970.56250000 4298324.00000000 946.79101563 135 125 123
457970.56250000 4298324.50000000 946.31298828 130 121 119
457970.56250000 4298325.00000000 945.84002686 130 122 119
457970.56250000 4298325.50000000 945.26300049 123 115 116
457971.06250000 4298323.50000000 947.38098145 151 142 136
457971.06250000 4298324.00000000 947.23999023 131 122 117
457971.06250000 4298324.50000000 946.88702393 126 117 113
457971.06250000 4298325.00000000 946.44097900 126 119 116
457971.06250000 4298325.50000000 945.96502686 124 116 116
457971.06250000 4298326.00000000 945.29400635 116 107 108
457971.56250000 4298323.50000000 947.93402100 158 148 139
457971.56250000 4298324.00000000 947.78900146 143 133 127
457971.56250000 4298324.50000000 947.49298096 129 120 117
457971.56250000 4298325.00000000 947.09002686 123 113 111
457971.56250000 4298325.50000000 946.59301758 127 118 116
457971.56250000 4298326.00000000 945.96899414 120 112 110
457971.56250000 4298326.50000000 945.31097412 112 105 104
457972.06250000 4298323.50000000 948.37200928 170 160 151
457972.06250000 4298324.00000000 948.21002197 155 144 138
457972.06250000 4298324.50000000 947.90997314 144 134 130
457972.06250000 4298325.00000000 947.64202881 129 119 118
457972.06250000 4298325.50000000 947.23901367 128 119 117
457972.06250000 4298326.00000000 946.62902832 124 117 112
457972.06250000 4298326.50000000 945.98498535 118 110 110
457972.06250000 4298327.00000000 945.36901855 113 107 108
457972.56250000 4298323.50000000 948.71398926 174 161 152
457972.56250000 4298324.00000000 948.57000732 162 151 144
457972.56250000 4298324.50000000 948.36999512 160 150 145
457972.56250000 4298325.00000000 948.19000244 147 137 135
457972.56250000 4298325.50000000 947.87200928 130 122 119
457972.56250000 4298326.00000000 947.45898438 127 118 116
457972.56250000 4298326.50000000 946.90899658 123 113 111
457972.56250000 4298327.00000000 946.12500000 121 113 111
457972.56250000 4298327.50000000 945.47198486 119 110 108
457972.56250000 4298328.00000000 945.15301514 118 109 107
457973.06250000 4298323.50000000 949.12799072 183 169 159
457973.06250000 4298324.00000000 949.09100342 162 152 143
457973.06250000 4298324.50000000 949.00897217 164 155 148
457973.06250000 4298325.00000000 948.83398438 166 156 151
457973.06250000 4298325.50000000 948.56701660 148 138 136
457973.06250000 4298326.00000000 948.32501221 141 131 128
457973.06250000 4298326.50000000 948.06701660 134 124 121
457973.06250000 4298327.00000000 947.56097412 127 119 116
457973.06250000 4298327.50000000 946.67102051 123 116 112
457973.06250000 4298328.00000000 945.85302734 119 111 109
457973.06250000 4298328.50000000 945.52801514 119 110 108
457973.06250000 4298329.00000000 945.35699463 122 112 110
457973.06250000 4298329.50000000 945.33398438 127 119 112
457973.06250000 4298330.00000000 945.27697754 134 123 118
457973.06250000 4298330.50000000 945.20397949 147 133 125
457973.06250000 4298331.00000000 945.20098877 166 147 136
457973.06250000 4298331.50000000 945.25598145 184 168 151
457973.06250000 4298332.00000000 945.32000732 202 184 165
457973.06250000 4298332.50000000 945.43402100 215 197 176
457973.56250000 4298323.50000000 949.39099121 199 186 176
457973.56250000 4298324.00000000 949.42199707 172 160 152
457973.56250000 4298324.50000000 949.41302490 145 134 127
457973.56250000 4298325.00000000 949.23199463 150 141 133
457973.56250000 4298325.50000000 949.05499268 161 151 145
457973.56250000 4298326.00000000 948.87500000 156 147 142
457973.56250000 4298326.50000000 948.72399902 145 136 132
457973.56250000 4298327.00000000 948.44000244 137 127 124
457973.56250000 4298327.50000000 947.88299561 129 120 118
457973.56250000 4298328.00000000 947.21502686 124 117 112
457973.56250000 4298328.50000000 946.53497314 122 115 111
457973.56250000 4298329.00000000 946.04199219 122 112 110
457973.56250000 4298329.50000000 945.92700195 124 115 111
457973.56250000 4298330.00000000 945.86901855 131 119 116
457973.56250000 4298330.50000000 945.75897217 139 125 118
457973.56250000 4298331.00000000 945.68798828 149 134 125
457973.56250000 4298331.50000000 945.70697021 162 145 130
457973.56250000 4298332.00000000 945.74902344 183 166 147
457973.56250000 4298332.50000000 945.84197998 203 185 164
457974.06250000 4298323.50000000 949.70599365 200 188 176
457974.06250000 4298324.00000000 949.78399658 193 180 171
457974.06250000 4298324.50000000 949.79101563 184 172 162
457974.06250000 4298325.00000000 949.77099609 174 164 156
457974.06250000 4298325.50000000 949.66400146 155 145 137
457974.06250000 4298326.00000000 949.46899414 147 137 130
457974.06250000 4298326.50000000 949.27899170 160 151 144
457974.06250000 4298327.00000000 949.07397461 148 139 133
457974.06250000 4298327.50000000 948.88500977 139 130 126
457974.06250000 4298328.00000000 948.39501953 129 121 118
457974.06250000 4298328.50000000 947.72302246 123 116 112
457974.06250000 4298329.00000000 947.04699707 123 113 111
457974.06250000 4298329.50000000 946.54400635 122 112 110
457974.06250000 4298330.00000000 946.38598633 126 116 111
457974.06250000 4298330.50000000 946.33398438 134 121 116
457974.06250000 4298331.00000000 946.30102539 140 125 118
457974.06250000 4298331.50000000 946.25299072 149 134 123
457974.06250000 4298332.00000000 946.20397949 167 150 135
457974.06250000 4298332.50000000 946.18103027 191 174 157
457974.56250000 4298323.50000000 949.93597412 171 159 146
457974.56250000 4298324.00000000 950.01501465 189 176 164
457974.56250000 4298324.50000000 950.02697754 205 192 183
457974.56250000 4298325.00000000 950.13201904 210 197 188
457974.56250000 4298325.50000000 950.16900635 197 184 175
457974.56250000 4298326.00000000 950.05798340 161 151 142
457974.56250000 4298326.50000000 949.93902588 148 138 128
457974.56250000 4298327.00000000 949.75799561 150 141 133
457974.56250000 4298327.50000000 949.50500488 145 136 130
457974.56250000 4298328.00000000 949.17401123 136 126 124
457974.56250000 4298328.50000000 948.83197021 129 119 117
457974.56250000 4298329.00000000 948.22399902 124 117 112
457974.56250000 4298329.50000000 947.34802246 123 113 111
457974.56250000 4298330.00000000 946.84698486 124 115 111
457974.56250000 4298330.50000000 946.76000977 127 117 112
457974.56250000 4298331.00000000 946.75598145 135 122 116
457974.56250000 4298331.50000000 946.72601318 141 128 119
457974.56250000 4298332.00000000 946.61602783 156 141 129
457974.56250000 4298332.50000000 946.52502441 177 161 146
457975.06250000 4298323.50000000 950.15301514 156 144 131
457975.06250000 4298324.00000000 950.22100830 168 155 143
457975.06250000 4298324.50000000 950.25897217 187 175 162
457975.06250000 4298325.00000000 950.36602783 198 185 175
457975.06250000 4298325.50000000 950.44000244 209 196 187
457975.06250000 4298326.00000000 950.37402344 189 179 170
457975.06250000 4298326.50000000 950.26898193 153 143 133
457975.06250000 4298327.00000000 950.13500977 138 127 120
457975.06250000 4298327.50000000 949.90100098 143 134 128
457975.06250000 4298328.00000000 949.61401367 146 137 132
457975.06250000 4298328.50000000 949.37902832 146 136 133
457975.06250000 4298329.00000000 949.04498291 133 125 121
457975.06250000 4298329.50000000 948.40698242 126 117 113
457975.06250000 4298330.00000000 947.74102783 124 115 112
457975.06250000 4298330.50000000 947.38702393 124 113 111
457975.06250000 4298331.00000000 947.22198486 129 119 113
457975.06250000 4298331.50000000 947.13500977 136 123 117
457975.06250000 4298332.00000000 947.02301025 146 132 126
457975.06250000 4298332.50000000 946.92797852 162 146 136
457975.56250000 4298323.50000000 950.45599365 152 140 128
457975.56250000 4298324.00000000 950.50201416 154 142 130
457975.56250000 4298324.50000000 950.56701660 174 160 149
457975.56250000 4298325.00000000 950.64801025 189 176 163
457975.56250000 4298325.50000000 950.67199707 190 179 165
457975.56250000 4298326.00000000 950.63098145 197 186 175
457975.56250000 4298326.50000000 950.56799316 168 158 148
457975.56250000 4298327.00000000 950.46997070 144 133 125
457975.56250000 4298327.50000000 950.32299805 143 134 127
457975.56250000 4298328.00000000 950.10601807 154 145 141
457975.56250000 4298328.50000000 949.86499023 157 147 144
457975.56250000 4298329.00000000 949.60198975 146 138 135
457975.56250000 4298329.50000000 949.22302246 132 124 120
457975.56250000 4298330.00000000 948.63299561 128 119 117
457975.56250000 4298330.50000000 948.09002686 125 115 111
457975.56250000 4298331.00000000 947.72497559 125 115 111
457975.56250000 4298331.50000000 947.52697754 131 120 116
457975.56250000 4298332.00000000 947.40100098 137 124 117
457975.56250000 4298332.50000000 947.30902100 148 134 126
457976.06250000 4298323.50000000 950.60797119 144 131 121
457976.06250000 4298324.00000000 950.68798828 147 134 125
457976.06250000 4298324.50000000 950.79400635 160 147 138
457976.06250000 4298325.00000000 950.86401367 172 160 147
457976.06250000 4298325.50000000 950.87799072 151 139 127
457976.06250000 4298326.00000000 950.85797119 180 167 153
457976.06250000 4298326.50000000 950.82501221 184 170 160
457976.06250000 4298327.00000000 950.77301025 163 150 143
457976.06250000 4298327.50000000 950.70397949 152 141 137
457976.06250000 4298328.00000000 950.58898926 160 150 144
457976.06250000 4298328.50000000 950.36901855 144 135 129
457976.06250000 4298329.00000000 950.08801270 145 135 132
457976.06250000 4298329.50000000 949.80499268 145 135 132
457976.06250000 4298330.00000000 949.41400146 133 123 120
457976.06250000 4298330.50000000 948.88098145 129 120 116
457976.06250000 4298331.00000000 948.30102539 127 119 112
457976.06250000 4298331.50000000 947.90301514 127 119 112
457976.06250000 4298332.00000000 947.70501709 132 121 116
457976.06250000 4298332.50000000 947.64501953 141 128 119
457976.56250000 4298323.50000000 950.76397705 167 153 143
457976.56250000 4298324.00000000 950.83898926 138 125 116
457976.56250000 4298324.50000000 950.93402100 161 148 139
457976.56250000 4298325.00000000 951.02801514 180 168 156
457976.56250000 4298325.50000000 951.09698486 162 150 138
457976.56250000 4298326.00000000 951.07702637 176 162 148
457976.56250000 4298326.50000000 951.04699707 184 170 160
457976.56250000 4298327.00000000 951.03100586 172 159 153
457976.56250000 4298327.50000000 950.98498535 158 147 143
457976.56250000 4298328.00000000 950.88598633 164 154 149
457976.56250000 4298328.50000000 950.73297119 152 143 138
457976.56250000 4298329.00000000 950.50701904 134 124 121
457976.56250000 4298329.50000000 950.22900391 148 138 136
457976.56250000 4298330.00000000 949.94897461 141 131 128
457976.56250000 4298330.50000000 949.54602051 130 120 118
457976.56250000 4298331.00000000 948.94299316 127 119 112
457976.56250000 4298331.50000000 948.37902832 127 119 112
457976.56250000 4298332.00000000 948.07299805 131 120 116
457976.56250000 4298332.50000000 947.96697998 139 126 118
457977.06250000 4298323.50000000 950.98101807 164 151 142
457977.06250000 4298324.00000000 951.04699707 157 144 135
457977.06250000 4298324.50000000 951.15802002 168 155 145
457977.06250000 4298325.00000000 951.28900146 183 170 158
457977.06250000 4298325.50000000 951.35797119 175 163 151
457977.06250000 4298326.00000000 951.35198975 181 168 155
457977.06250000 4298326.50000000 951.35498047 184 170 160
457977.06250000 4298327.00000000 951.34802246 163 150 143
457977.06250000 4298327.50000000 951.30200195 156 145 141
457977.06250000 4298328.00000000 951.19201660 158 148 143
457977.06250000 4298328.50000000 951.03802490 141 132 127
457977.06250000 4298329.00000000 950.87097168 128 119 116
457977.06250000 4298329.50000000 950.64599609 144 134 131
457977.06250000 4298330.00000000 950.38702393 142 132 129
457977.06250000 4298330.50000000 950.03100586 137 127 125
457977.06250000 4298331.00000000 949.56701660 132 122 119
457977.06250000 4298331.50000000 948.99298096 128 119 113
457977.06250000 4298332.00000000 948.47998047 128 119 113
457977.06250000 4298332.50000000 948.22698975 134 121 116
457977.56250000 4298323.50000000 951.18402100 162 149 140
457977.56250000 4298324.00000000 951.30603027 163 150 141
457977.56250000 4298324.50000000 951.42901611 174 161 152
457977.56250000 4298325.00000000 951.52801514 180 168 156
457977.56250000 4298325.50000000 951.52899170 179 168 155
457977.56250000 4298326.00000000 951.52600098 189 175 161
457977.56250000 4298326.50000000 951.55798340 170 157 146
457977.56250000 4298327.00000000 951.56298828 141 128 121
457977.56250000 4298327.50000000 951.50500488 129 119 113
457977.56250000 4298328.00000000 951.42999268 146 136 130
457977.56250000 4298328.50000000 951.29998779 146 137 131
457977.56250000 4298329.00000000 951.14697266 139 130 125
457977.56250000 4298329.50000000 950.96899414 146 137 131
457977.56250000 4298330.00000000 950.74102783 160 150 147
457977.56250000 4298330.50000000 950.42401123 152 142 140
457977.56250000 4298331.00000000 950.05798340 138 128 126
457977.56250000 4298331.50000000 949.55902100 126 117 113
457977.56250000 4298332.00000000 948.98297119 125 116 111
457977.56250000 4298332.50000000 948.56701660 129 118 111
457978.06250000 4298323.50000000 951.45898438 166 152 143
457978.06250000 4298324.00000000 951.56799316 150 137 127
457978.06250000 4298324.50000000 951.67901611 155 142 132
457978.06250000 4298325.00000000 951.77502441 173 161 148
457978.06250000 4298325.50000000 951.76898193 176 164 152
457978.06250000 4298326.00000000 951.75500488 194 180 168
457978.06250000 4298326.50000000 951.75000000 166 152 143
457978.06250000 4298327.00000000 951.74401855 140 127 120
457978.06250000 4298327.50000000 951.69201660 122 111 107
457978.06250000 4298328.00000000 951.61999512 126 117 111
457978.06250000 4298328.50000000 951.52301025 140 131 126
457978.06250000 4298329.00000000 951.38299561 148 139 133
457978.06250000 4298329.50000000 951.20800781 152 143 138
457978.06250000 4298330.00000000 951.01000977 162 153 148
457978.06250000 4298330.50000000 950.74102783 161 151 147
457978.06250000 4298331.00000000 950.40899658 142 132 129
457978.06250000 4298331.50000000 949.97802734 124 115 111
457978.06250000 4298332.00000000 949.44799805 124 113 111
457978.06250000 4298332.50000000 948.90997314 124 113 110
457978.56250000 4298323.50000000 951.81201172 166 152 143
457978.56250000 4298324.00000000 951.84698486 150 137 127
457978.56250000 4298324.50000000 951.94897461 150 137 127
457978.56250000 4298325.00000000 952.02099609 167 154 142
457978.56250000 4298325.50000000 952.02197266 177 166 153
457978.56250000 4298326.00000000 952.01098633 194 180 167
457978.56250000 4298326.50000000 952.00299072 186 173 164
457978.56250000 4298327.00000000 951.98297119 147 134 127
457978.56250000 4298327.50000000 951.91601563 135 124 119
457978.56250000 4298328.00000000 951.83001709 139 128 124
457978.56250000 4298328.50000000 951.71600342 146 137 131
457978.56250000 4298329.00000000 951.58599854 158 149 143
457978.56250000 4298329.50000000 951.43298340 156 147 142
457978.56250000 4298330.00000000 951.21301270 149 140 135
457978.56250000 4298330.50000000 950.97302246 144 134 130
457978.56250000 4298331.00000000 950.69702148 132 122 119
457978.56250000 4298331.50000000 950.34100342 123 113 111
457978.56250000 4298332.00000000 949.87597656 122 112 111
457978.56250000 4298332.50000000 949.30902100 123 112 109
457979.06250000 4298323.50000000 952.03802490 164 151 142
457979.06250000 4298324.00000000 952.06896973 156 143 133
457979.06250000 4298324.50000000 952.14801025 163 150 141
457979.06250000 4298325.00000000 952.20001221 169 156 146
457979.06250000 4298325.50000000 952.19500732 179 167 155
457979.06250000 4298326.00000000 952.17602539 188 172 159
457979.06250000 4298326.50000000 952.17700195 196 181 170
457979.06250000 4298327.00000000 952.16900635 176 162 151
457979.06250000 4298327.50000000 952.10900879 159 146 137
457979.06250000 4298328.00000000 952.01300049 155 142 135
457979.06250000 4298328.50000000 951.88201904 148 137 132
457979.06250000 4298329.00000000 951.75897217 157 146 140
457979.06250000 4298329.50000000 951.61297607 157 146 140
457979.06250000 4298330.00000000 951.39898682 148 137 131
457979.06250000 4298330.50000000 951.19000244 136 125 123
457979.06250000 4298331.00000000 950.94598389 123 113 111
457979.06250000 4298331.50000000 950.63397217 121 111 109
457979.06250000 4298332.00000000 950.18701172 124 115 111
457979.06250000 4298332.50000000 949.62799072 124 116 111
457979.56250000 4298323.50000000 952.21398926 170 158 145
457979.56250000 4298324.00000000 952.25201416 168 155 143
457979.56250000 4298324.50000000 952.32202148 171 159 146
457979.56250000 4298325.00000000 952.36999512 169 157 144
457979.56250000 4298325.50000000 952.36401367 177 164 151
457979.56250000 4298326.00000000 952.37200928 187 172 157
457979.56250000 4298326.50000000 952.37902832 190 176 162
457979.56250000 4298327.00000000 952.35797119 180 168 156
457979.56250000 4298327.50000000 952.29199219 160 147 139
457979.56250000 4298328.00000000 952.17102051 141 128 121
457979.56250000 4298328.50000000 952.03100586 132 121 116
457979.56250000 4298329.00000000 951.92797852 145 134 127
457979.56250000 4298329.50000000 951.77697754 151 140 133
457979.56250000 4298330.00000000 951.57299805 142 131 125
457979.56250000 4298330.50000000 951.39898682 131 120 118
457979.56250000 4298331.00000000 951.18298340 119 109 107
457979.56250000 4298331.50000000 950.90100098 123 113 111
457979.56250000 4298332.00000000 950.47601318 127 118 116
457979.56250000 4298332.50000000 949.91601563 125 116 112
457980.06250000 4298323.50000000 952.45202637 166 151 140
457980.06250000 4298324.00000000 952.46600342 173 159 147
457980.06250000 4298324.50000000 952.53900146 184 169 158
457980.06250000 4298325.00000000 952.59100342 187 173 161
457980.06250000 4298325.50000000 952.58599854 179 164 153
457980.06250000 4298326.00000000 952.60198975 185 170 157
457980.06250000 4298326.50000000 952.58398438 183 168 157
457980.06250000 4298327.00000000 952.52197266 179 166 156
457980.06250000 4298327.50000000 952.44299316 160 147 139
457980.06250000 4298328.00000000 952.33398438 134 123 118
457980.06250000 4298328.50000000 952.21502686 136 125 120
457980.06250000 4298329.00000000 952.12402344 151 140 133
457980.06250000 4298329.50000000 951.96899414 159 148 142
457980.06250000 4298330.00000000 951.75897217 149 138 131
457980.06250000 4298330.50000000 951.57702637 136 125 123
457980.06250000 4298331.00000000 951.41497803 129 119 117
457980.06250000 4298331.50000000 951.17498779 128 119 116
457980.06250000 4298332.00000000 950.80700684 129 119 118
457980.06250000 4298332.50000000 950.29302979 128 119 117
457980.56250000 4298323.50000000 952.69201660 160 146 135
457980.56250000 4298324.00000000 952.69897461 173 159 147
457980.56250000 4298324.50000000 952.75799561 179 166 154
457980.56250000 4298325.00000000 952.81201172 180 167 155
457980.56250000 4298325.50000000 952.81799316 180 167 155
457980.56250000 4298326.00000000 952.80999756 184 169 156
457980.56250000 4298326.50000000 952.75799561 180 168 155
457980.56250000 4298327.00000000 952.67199707 172 159 149
457980.56250000 4298327.50000000 952.59197998 151 141 131
457980.56250000 4298328.00000000 952.51000977 136 126 119
457980.56250000 4298328.50000000 952.40100098 139 130 127
457980.56250000 4298329.00000000 952.27801514 154 143 137
457980.56250000 4298329.50000000 952.13897705 157 146 140
457980.56250000 4298330.00000000 951.98297119 152 141 135
457980.56250000 4298330.50000000 951.79998779 143 132 129
457980.56250000 4298331.00000000 951.63201904 133 123 120
457980.56250000 4298331.50000000 951.40899658 131 121 119
457980.56250000 4298332.00000000 951.08898926 130 120 119
457980.56250000 4298332.50000000 950.67297363 130 120 120
457981.06250000 4298323.50000000 952.90301514 164 150 141
457981.06250000 4298324.00000000 952.90698242 172 158 148
457981.06250000 4298324.50000000 952.91601563 180 167 157
457981.06250000 4298325.00000000 952.94500732 179 166 156
457981.06250000 4298325.50000000 952.95300293 180 167 156
457981.06250000 4298326.00000000 952.94201660 183 168 156
457981.06250000 4298326.50000000 952.90197754 185 173 160
457981.06250000 4298327.00000000 952.82702637 179 167 157
457981.06250000 4298327.50000000 952.75897217 154 143 137
457981.06250000 4298328.00000000 952.68701172 127 118 111
457981.06250000 4298328.50000000 952.57000732 131 121 118
457981.06250000 4298329.00000000 952.43701172 147 136 130
457981.06250000 4298329.50000000 952.32397461 154 143 137
457981.06250000 4298330.00000000 952.20098877 144 133 127
457981.06250000 4298330.50000000 952.01098633 148 137 135
457981.06250000 4298331.00000000 951.81799316 139 129 127
457981.06250000 4298331.50000000 951.60699463 135 125 123
457981.06250000 4298332.00000000 951.31201172 132 122 120
457981.06250000 4298332.50000000 950.98699951 130 120 119
457981.56250000 4298323.50000000 953.03002930 160 147 138
457981.56250000 4298324.00000000 953.06201172 158 145 136
457981.56250000 4298324.50000000 953.07098389 168 154 144
457981.56250000 4298325.00000000 953.08801270 168 155 145
457981.56250000 4298325.50000000 953.07800293 171 158 148
457981.56250000 4298326.00000000 953.05700684 173 160 146
457981.56250000 4298326.50000000 953.04400635 184 171 161
457981.56250000 4298327.00000000 952.99200439 179 168 159
457981.56250000 4298327.50000000 952.92401123 156 145 139
457981.56250000 4298328.00000000 952.85699463 131 121 117
457981.56250000 4298328.50000000 952.74798584 127 118 116
457981.56250000 4298329.00000000 952.62402344 139 128 121
457981.56250000 4298329.50000000 952.50402832 155 144 138
457981.56250000 4298330.00000000 952.37200928 156 145 139
457981.56250000 4298330.50000000 952.20001221 146 135 132
457981.56250000 4298331.00000000 952.00201416 138 128 126
457981.56250000 4298331.50000000 951.78100586 137 127 125
457981.56250000 4298332.00000000 951.52899170 133 123 123
457981.56250000 4298332.50000000 951.26702881 127 118 116
457982.06250000 4298323.50000000 953.13897705 157 144 136
457982.06250000 4298324.00000000 953.20599365 148 135 127
457982.06250000 4298324.50000000 953.26098633 149 137 130
457982.06250000 4298325.00000000 953.28302002 153 141 133
457982.06250000 4298325.50000000 953.25201416 152 141 133
457982.06250000 4298326.00000000 953.19598389 160 149 139
457982.06250000 4298326.50000000 953.16998291 179 168 158
457982.06250000 4298327.00000000 953.11901855 170 160 151
457982.06250000 4298327.50000000 953.04101563 153 142 136
457982.06250000 4298328.00000000 952.97497559 133 123 119
457982.06250000 4298328.50000000 952.88299561 124 115 112
457982.06250000 4298329.00000000 952.77502441 129 119 116
457982.06250000 4298329.50000000 952.65698242 157 148 142
457982.06250000 4298330.00000000 952.52801514 162 151 144
457982.06250000 4298330.50000000 952.38598633 154 142 136
457982.06250000 4298331.00000000 952.18597412 149 136 132
457982.06250000 4298331.50000000 951.92999268 149 136 132
457982.06250000 4298332.00000000 951.72802734 139 128 127
457982.06250000 4298332.50000000 951.53002930 129 119 117
457982.56250000 4298323.50000000 953.28497314 152 139 129
457982.56250000 4298324.00000000 953.33300781 137 124 116
457982.56250000 4298324.50000000 953.39001465 137 126 119
457982.56250000 4298325.00000000 953.43103027 138 127 123
457982.56250000 4298325.50000000 953.41699219 139 128 123
457982.56250000 4298326.00000000 953.35198975 156 146 136
457982.56250000 4298326.50000000 953.28002930 184 173 162
457982.56250000 4298327.00000000 953.20697021 169 159 149
457982.56250000 4298327.50000000 953.13201904 147 136 129
457982.56250000 4298328.00000000 953.07397461 129 119 117
457982.56250000 4298328.50000000 952.98999023 121 111 111
457982.56250000 4298329.00000000 952.90802002 133 124 120
457982.56250000 4298329.50000000 952.82897949 154 145 140
457982.56250000 4298330.00000000 952.73199463 167 154 147
457982.56250000 4298330.50000000 952.60198975 160 147 141
457982.56250000 4298331.00000000 952.39697266 157 144 138
457982.56250000 4298331.50000000 952.14001465 159 145 142
457982.56250000 4298332.00000000 951.94396973 146 135 131
457982.56250000 4298332.50000000 951.76300049 135 124 119
457983.06250000 4298323.50000000 953.44799805 160 147 138
457983.06250000 4298324.00000000 953.46899414 138 125 117
457983.06250000 4298324.50000000 953.51000977 133 121 116
457983.06250000 4298325.00000000 953.55999756 133 122 116
457983.06250000 4298325.50000000 953.55798340 143 133 125
457983.06250000 4298326.00000000 953.50500488 160 147 138
457983.06250000 4298326.50000000 953.41900635 172 162 152
457983.06250000 4298327.00000000 953.33599854 174 164 154
457983.06250000 4298327.50000000 953.25897217 148 138 129
457983.06250000 4298328.00000000 953.19201660 127 117 112
457983.06250000 4298328.50000000 953.11102295 119 109 108
457983.06250000 4298329.00000000 953.02502441 135 125 120
457983.06250000 4298329.50000000 952.96600342 156 145 139
457983.06250000 4298330.00000000 952.91601563 168 156 148
457983.06250000 4298330.50000000 952.80401611 163 150 142
457983.06250000 4298331.00000000 952.60699463 161 148 142
457983.06250000 4298331.50000000 952.37799072 153 142 138
457983.06250000 4298332.00000000 952.16802979 142 131 127
457983.06250000 4298332.50000000 951.96697998 134 123 119
457983.56250000 4298323.50000000 953.55700684 168 154 144
457983.56250000 4298324.00000000 953.57598877 148 135 126
457983.56250000 4298324.50000000 953.61199951 141 128 119
457983.56250000 4298325.00000000 953.65698242 145 132 126
457983.56250000 4298325.50000000 953.64001465 147 134 127
457983.56250000 4298326.00000000 953.59301758 162 149 140
457983.56250000 4298326.50000000 953.53198242 174 161 152
457983.56250000 4298327.00000000 953.46398926 177 167 156
457983.56250000 4298327.50000000 953.39697266 160 150 141
457983.56250000 4298328.00000000 953.33898926 136 125 119
457983.56250000 4298328.50000000 953.25701904 125 115 111
457983.56250000 4298329.00000000 953.13800049 139 130 125
457983.56250000 4298329.50000000 953.05297852 168 156 149
457983.56250000 4298330.00000000 953.00299072 170 157 148
457983.56250000 4298330.50000000 952.92602539 158 145 137
457983.56250000 4298331.00000000 952.75097656 159 146 140
457983.56250000 4298331.50000000 952.55603027 146 135 130
457983.56250000 4298332.00000000 952.37597656 139 129 125
457983.56250000 4298332.50000000 952.17297363 133 122 119
457984.06250000 4298323.50000000 953.66802979 171 160 149
457984.06250000 4298324.00000000 953.71002197 154 141 131
457984.06250000 4298324.50000000 953.75897217 156 143 133
457984.06250000 4298325.00000000 953.77801514 160 147 139
457984.06250000 4298325.50000000 953.75897217 166 152 143
457984.06250000 4298326.00000000 953.71002197 171 158 148
457984.06250000 4298326.50000000 953.63098145 174 161 152
457984.06250000 4298327.00000000 953.54602051 176 163 154
457984.06250000 4298327.50000000 953.49200439 169 157 148
457984.06250000 4298328.00000000 953.45697021 149 138 132
457984.06250000 4298328.50000000 953.39898682 131 120 117
457984.06250000 4298329.00000000 953.30798340 144 134 127
457984.06250000 4298329.50000000 953.20800781 168 157 147
457984.06250000 4298330.00000000 953.10998535 173 160 151
457984.06250000 4298330.50000000 953.01898193 158 145 137
457984.06250000 4298331.00000000 952.85900879 147 135 128
457984.06250000 4298331.50000000 952.69000244 135 124 119
457984.06250000 4298332.00000000 952.54199219 131 121 117
457984.06250000 4298332.50000000 952.38299561 124 115 110
457984.56250000 4298323.50000000 953.83898926 168 158 147
457984.56250000 4298324.00000000 953.88500977 168 154 144
457984.56250000 4298324.50000000 953.92199707 171 158 148
457984.56250000 4298325.00000000 953.91400146 173 160 151
457984.56250000 4298325.50000000 953.89801025 179 166 156
457984.56250000 4298326.00000000 953.84997559 174 160 151
457984.56250000 4298326.50000000 953.75897217 174 161 152
457984.56250000 4298327.00000000 953.66198730 174 161 152
457984.56250000 4298327.50000000 953.58001709 168 155 145
457984.56250000 4298328.00000000 953.51898193 151 139 131
457984.56250000 4298328.50000000 953.49200439 131 120 116
457984.56250000 4298329.00000000 953.46002197 147 137 127
457984.56250000 4298329.50000000 953.39398193 172 159 149
457984.56250000 4298330.00000000 953.30401611 168 155 145
457984.56250000 4298330.50000000 953.18499756 162 149 141
457984.56250000 4298331.00000000 953.00897217 147 136 129
457984.56250000 4298331.50000000 952.84100342 130 121 116
457984.56250000 4298332.00000000 952.69000244 125 117 111
457984.56250000 4298332.50000000 952.58697510 122 111 107
457985.06250000 4298323.50000000 953.96398926 166 155 144
457985.06250000 4298324.00000000 953.99597168 173 160 151
457985.06250000 4298324.50000000 954.02301025 173 160 151
457985.06250000 4298325.00000000 954.01702881 173 159 149
457985.06250000 4298325.50000000 953.98498535 172 158 148
457985.06250000 4298326.00000000 953.93200684 174 160 151
457985.06250000 4298326.50000000 953.87298584 176 163 154
457985.06250000 4298327.00000000 953.79699707 171 158 148
457985.06250000 4298327.50000000 953.69598389 168 154 144
457985.06250000 4298328.00000000 953.59600830 158 146 138
457985.06250000 4298328.50000000 953.54699707 146 135 129
457985.06250000 4298329.00000000 953.53302002 160 147 139
457985.06250000 4298329.50000000 953.50201416 174 161 152
457985.06250000 4298330.00000000 953.44799805 168 155 145
457985.06250000 4298330.50000000 953.32702637 168 155 145
457985.06250000 4298331.00000000 953.15197754 154 144 136
457985.06250000 4298331.50000000 953.00402832 135 125 119
457985.06250000 4298332.00000000 952.85601807 125 116 112
457985.06250000 4298332.50000000 952.77600098 121 110 107
457985.56250000 4298323.50000000 954.06896973 168 157 147
457985.56250000 4298324.00000000 954.09301758 168 157 147
457985.56250000 4298324.50000000 954.10900879 164 154 144
457985.56250000 4298325.00000000 954.09802246 166 155 145
457985.56250000 4298325.50000000 954.05999756 164 154 144
457985.56250000 4298326.00000000 953.99902344 170 157 147
457985.56250000 4298326.50000000 953.95300293 176 163 154
457985.56250000 4298327.00000000 953.91900635 174 161 152
457985.56250000 4298327.50000000 953.82897949 170 157 147
457985.56250000 4298328.00000000 953.72601318 168 155 145
457985.56250000 4298328.50000000 953.67102051 169 156 146
457985.56250000 4298329.00000000 953.62701416 172 159 149
457985.56250000 4298329.50000000 953.57299805 177 166 154
457985.56250000 4298330.00000000 953.52801514 183 170 158
457985.56250000 4298330.50000000 953.45397949 181 169 159
457985.56250000 4298331.00000000 953.34301758 164 151 143
457985.56250000 4298331.50000000 953.24200439 142 129 123
457985.56250000 4298332.00000000 953.11999512 131 119 116
457985.56250000 4298332.50000000 952.99902344 124 113 111
457986.06250000 4298325.50000000 954.13702393 164 154 144
457986.06250000 4298326.00000000 954.09600830 172 159 149
457986.06250000 4298326.50000000 954.05798340 177 164 155
457986.06250000 4298327.00000000 954.02301025 173 160 151
457986.06250000 4298327.50000000 953.94702148 176 163 154
457986.06250000 4298328.00000000 953.88500977 174 161 152
457986.06250000 4298328.50000000 953.84002686 164 151 142
457986.06250000 4298329.00000000 953.78900146 164 151 142
457986.06250000 4298329.50000000 953.74597168 175 162 153
457986.06250000 4298330.00000000 953.71600342 186 174 161
457986.06250000 4298330.50000000 953.66497803 177 164 154
457986.06250000 4298331.00000000 953.58801270 179 166 157
457986.06250000 4298331.50000000 953.50402832 159 146 140
457986.06250000 4298332.00000000 953.37500000 137 125 119
457986.06250000 4298332.50000000 953.23400879 126 115 109
457986.56250000 4298327.00000000 954.14099121 173 160 151
457986.56250000 4298327.50000000 954.04199219 170 157 147
457986.56250000 4298328.00000000 953.99200439 172 159 149
457986.56250000 4298328.50000000 953.95898438 169 156 146
457986.56250000 4298329.00000000 953.93499756 164 151 142
457986.56250000 4298329.50000000 953.92700195 174 161 152
457986.56250000 4298330.00000000 953.90502930 181 169 157
457986.56250000 4298330.50000000 953.84497070 176 164 152
457986.56250000 4298331.00000000 953.76098633 173 160 152
457986.56250000 4298331.50000000 953.67102051 160 147 139
457986.56250000 4298332.00000000 953.55499268 134 121 113
457986.56250000 4298332.50000000 953.43597412 159 146 138
457987.06250000 4298328.00000000 954.09100342 169 156 146
457987.06250000 4298328.50000000 954.04498291 169 156 146
457987.06250000 4298329.00000000 954.03900146 169 156 146
457987.06250000 4298329.50000000 954.05700684 168 155 145
457987.06250000 4298330.00000000 954.04998779 179 168 155
457987.06250000 4298330.50000000 954.01599121 179 167 154
457987.06250000 4298331.00000000 953.93298340 175 162 153
457987.06250000 4298331.50000000 953.83599854 164 151 142
457987.06250000 4298332.00000000 953.73901367 139 126 118
457987.06250000 4298332.50000000 953.64001465 169 155 145
457987.56250000 4298331.00000000 954.13000488 176 164 152
457987.56250000 4298331.50000000 954.05499268 170 157 147
457987.56250000 4298332.00000000 953.95098877 174 161 152
457987.56250000 4298332.50000000 953.85797119 169 154 145
457988.06250000 4298332.00000000 954.13500977 179 163 155
457988.06250000 4298332.50000000 954.04998779 174 157 148
457952.56250000 4298333.00000000 954.11999512 208 196 181
457953.06250000 4298333.00000000 953.73901367 210 198 181
457953.06250000 4298333.50000000 953.95800781 193 181 167
457953.56250000 4298333.00000000 953.41101074 216 207 191
457953.56250000 4298333.50000000 953.63000488 204 195 179
457953.56250000 4298334.00000000 953.91101074 210 201 186
457954.06250000 4298333.00000000 953.13397217 213 204 189
457954.06250000 4298333.50000000 953.35302734 210 201 186
457954.06250000 4298334.00000000 953.63598633 210 201 187
457954.06250000 4298334.50000000 953.93499756 206 196 184
457954.56250000 4298333.00000000 952.85699463 198 189 174
457954.56250000 4298333.50000000 953.08398438 200 191 175
457954.56250000 4298334.00000000 953.36901855 210 200 188
457954.56250000 4298334.50000000 953.65197754 220 210 197
457954.56250000 4298335.00000000 953.93701172 218 208 195
457955.06250000 4298333.00000000 952.53802490 189 180 164
457955.06250000 4298333.50000000 952.80102539 190 180 168
457955.06250000 4298334.00000000 953.08898926 217 207 194
457955.06250000 4298334.50000000 953.39099121 220 210 197
457955.06250000 4298335.00000000 953.67602539 220 210 200
457955.06250000 4298335.50000000 953.95300293 218 208 195
457955.56250000 4298333.00000000 952.23797607 212 202 190
457955.56250000 4298333.50000000 952.56701660 203 193 180
457955.56250000 4298334.00000000 952.89599609 208 198 186
457955.56250000 4298334.50000000 953.18402100 209 199 189
457955.56250000 4298335.00000000 953.44598389 208 198 188
457955.56250000 4298335.50000000 953.72100830 203 193 183
457955.56250000 4298336.00000000 954.00299072 200 190 179
457956.06250000 4298333.00000000 951.94201660 203 193 180
457956.06250000 4298333.50000000 952.31298828 190 180 168
457956.06250000 4298334.00000000 952.68298340 181 171 159
457956.06250000 4298334.50000000 952.98400879 179 168 158
457956.06250000 4298335.00000000 953.24102783 180 170 159
457956.06250000 4298335.50000000 953.49700928 164 154 143
457956.06250000 4298336.00000000 953.77801514 151 141 131
457956.06250000 4298336.50000000 954.09802246 150 140 130
457956.56250000 4298333.00000000 951.64202881 185 172 162
457956.56250000 4298333.50000000 952.02600098 170 157 148
457956.56250000 4298334.00000000 952.38500977 150 140 130
457956.56250000 4298334.50000000 952.74597168 166 155 145
457956.56250000 4298335.00000000 953.05700684 169 158 151
457956.56250000 4298335.50000000 953.29602051 160 150 141
457956.56250000 4298336.00000000 953.56701660 152 142 132
457956.56250000 4298336.50000000 953.88500977 163 153 143
457957.06250000 4298333.00000000 951.34802246 176 163 155
457957.06250000 4298333.50000000 951.76702881 171 158 149
457957.06250000 4298334.00000000 952.13800049 155 145 136
457957.06250000 4298334.50000000 952.47998047 157 146 139
457957.06250000 4298335.00000000 952.82800293 162 151 144
457957.06250000 4298335.50000000 953.10699463 172 161 155
457957.06250000 4298336.00000000 953.37799072 201 191 181
457957.06250000 4298336.50000000 953.66998291 197 187 176
457957.06250000 4298337.00000000 953.94799805 172 162 152
457957.56250000 4298333.00000000 951.07202148 174 161 153
457957.56250000 4298333.50000000 951.49902344 163 150 142
457957.56250000 4298334.00000000 951.90802002 164 154 144
457957.56250000 4298334.50000000 952.20397949 162 151 144
457957.56250000 4298335.00000000 952.50097656 155 144 138
457957.56250000 4298335.50000000 952.83398438 187 176 171
457957.56250000 4298336.00000000 953.14300537 213 203 193
457957.56250000 4298336.50000000 953.41302490 209 199 189
457957.56250000 4298337.00000000 953.68902588 185 175 164
457957.56250000 4298337.50000000 953.96801758 180 170 159
457957.56250000 4298342.00000000 954.10400391 133 128 125
457958.06250000 4298333.00000000 950.76202393 172 159 151
457958.06250000 4298333.50000000 951.15899658 167 153 144
457958.06250000 4298334.00000000 951.57299805 162 152 143
457958.06250000 4298334.50000000 951.91198730 155 145 138
457958.06250000 4298335.00000000 952.16497803 146 135 128
457958.06250000 4298335.50000000 952.47399902 168 156 149
457958.06250000 4298336.00000000 952.84399414 207 197 187
457958.06250000 4298336.50000000 953.14801025 201 191 179
457958.06250000 4298337.00000000 953.41497803 190 180 168
457958.06250000 4298337.50000000 953.69702148 191 181 170
457958.06250000 4298338.00000000 953.97698975 181 171 160
457958.06250000 4298342.00000000 954.04901123 140 133 127
457958.56250000 4298333.00000000 950.42102051 166 152 143
457958.56250000 4298333.50000000 950.79998779 166 152 143
457958.56250000 4298334.00000000 951.23101807 166 155 145
457958.56250000 4298334.50000000 951.59600830 163 152 145
457958.56250000 4298335.00000000 951.85302734 157 146 140
457958.56250000 4298335.50000000 952.15301514 149 138 131
457958.56250000 4298336.00000000 952.53997803 183 172 161
457958.56250000 4298336.50000000 952.88299561 196 186 175
457958.56250000 4298337.00000000 953.14801025 201 191 178
457958.56250000 4298337.50000000 953.41699219 197 187 175
457958.56250000 4298338.00000000 953.68798828 184 174 161
457958.56250000 4298338.50000000 953.92297363 172 160 149
457958.56250000 4298339.00000000 954.12902832 168 154 144
457958.56250000 4298341.50000000 954.07800293 157 147 138
457958.56250000 4298342.00000000 953.97302246 150 141 133
457959.06250000 4298333.00000000 950.09100342 164 151 143
457959.06250000 4298333.50000000 950.43298340 164 151 143
457959.06250000 4298334.00000000 950.82702637 159 149 140
457959.06250000 4298334.50000000 951.19702148 163 152 144
457959.06250000 4298335.00000000 951.47302246 159 148 142
457959.06250000 4298335.50000000 951.79699707 155 144 138
457959.06250000 4298336.00000000 952.21002197 163 153 143
457959.06250000 4298336.50000000 952.58099365 183 172 160
457959.06250000 4298337.00000000 952.88098145 204 194 181
457959.06250000 4298337.50000000 953.15002441 212 203 188
457959.06250000 4298338.00000000 953.40197754 201 191 178
457959.06250000 4298338.50000000 953.61102295 179 168 156
457959.06250000 4298339.00000000 953.79998779 162 150 138
457959.06250000 4298339.50000000 953.98602295 155 142 132
457959.06250000 4298340.00000000 954.08099365 167 154 143
457959.06250000 4298340.50000000 954.06402588 168 158 147
457959.06250000 4298341.00000000 954.00897217 156 146 137
457959.06250000 4298341.50000000 953.94799805 153 143 133
457959.06250000 4298342.00000000 953.87902832 147 138 128
457959.56250000 4298333.00000000 949.79101563 162 149 141
457959.56250000 4298333.50000000 950.10198975 161 148 140
457959.56250000 4298334.00000000 950.41998291 158 147 139
457959.56250000 4298334.50000000 950.76000977 159 148 142
457959.56250000 4298335.00000000 951.07501221 153 142 136
457959.56250000 4298335.50000000 951.39202881 156 145 137
457959.56250000 4298336.00000000 951.80603027 167 156 146
457959.56250000 4298336.50000000 952.24102783 179 168 157
457959.56250000 4298337.00000000 952.59301758 194 184 172
457959.56250000 4298337.50000000 952.87500000 215 206 191
457959.56250000 4298338.00000000 953.12097168 209 199 187
457959.56250000 4298338.50000000 953.33697510 202 192 180
457959.56250000 4298339.00000000 953.52099609 193 183 171
457959.56250000 4298339.50000000 953.69500732 187 175 165
457959.56250000 4298340.00000000 953.83099365 179 167 157
457959.56250000 4298340.50000000 953.85101318 167 156 145
457959.56250000 4298341.00000000 953.80603027 167 156 146
457959.56250000 4298341.50000000 953.77502441 169 159 149
457959.56250000 4298342.00000000 953.75402832 179 168 158
457960.06250000 4298333.00000000 949.42901611 160 147 139
457960.06250000 4298333.50000000 949.78002930 157 144 136
457960.06250000 4298334.00000000 950.10498047 152 139 131
457960.06250000 4298334.50000000 950.40600586 162 149 143
457960.06250000 4298335.00000000 950.72399902 157 145 139
457960.06250000 4298335.50000000 951.03497314 153 143 133
457960.06250000 4298336.00000000 951.37500000 169 159 148
457960.06250000 4298336.50000000 951.80700684 184 174 163
457960.06250000 4298337.00000000 952.22900391 206 196 186
457960.06250000 4298337.50000000 952.57000732 203 195 184
457960.06250000 4298338.00000000 952.85101318 190 183 171
457960.06250000 4298338.50000000 953.08801270 198 188 177
457960.06250000 4298339.00000000 953.27001953 209 199 189
457960.06250000 4298339.50000000 953.38800049 206 196 186
457960.06250000 4298340.00000000 953.49499512 197 187 176
457960.06250000 4298340.50000000 953.56500244 195 185 175
457960.06250000 4298341.00000000 953.57598877 206 196 186
457960.06250000 4298341.50000000 953.58197021 207 197 187
457960.06250000 4298342.00000000 953.59899902 199 191 179
457960.56250000 4298333.00000000 949.13800049 156 143 135
