458078.06250000 4298177.50000000 951.02099609 159 151 148
458078.06250000 4298178.00000000 951.08697510 158 150 147
458078.06250000 4298178.50000000 951.15301514 159 153 149
458078.06250000 4298179.00000000 951.25201416 161 154 151
458078.06250000 4298179.50000000 951.30401611 162 156 152
458078.06250000 4298180.00000000 951.28399658 158 152 149
458078.06250000 4298180.50000000 951.26300049 160 154 151
458078.06250000 4298181.00000000 951.25299072 154 148 145
458078.06250000 4298181.50000000 951.25500488 148 140 138
458078.06250000 4298182.00000000 951.22399902 145 136 136
458078.06250000 4298182.50000000 951.11901855 145 136 134
458078.06250000 4298183.00000000 951.01000977 143 135 133
458078.56250000 4298174.50000000 949.54400635 138 128 126
458078.56250000 4298175.00000000 949.75897217 137 127 126
458078.56250000 4298175.50000000 950.04302979 144 136 134
458078.56250000 4298176.00000000 950.27197266 150 142 140
458078.56250000 4298176.50000000 950.37799072 152 144 142
458078.56250000 4298177.00000000 950.50402832 157 149 146
458078.56250000 4298177.50000000 950.67102051 159 151 148
458078.56250000 4298178.00000000 950.74700928 159 151 148
458078.56250000 4298178.50000000 950.75500488 159 153 149
458078.56250000 4298179.00000000 950.81500244 160 155 151
458078.56250000 4298179.50000000 950.87597656 159 154 149
458078.56250000 4298180.00000000 950.89300537 158 153 149
458078.56250000 4298180.50000000 950.91198730 157 152 149
458078.56250000 4298181.00000000 950.90399170 148 143 140
458078.56250000 4298181.50000000 950.82098389 143 137 136
458078.56250000 4298182.00000000 950.73797607 139 130 132
458078.56250000 4298182.50000000 950.62597656 131 123 122
458078.56250000 4298183.00000000 950.51397705 138 130 128
458079.06250000 4298174.50000000 949.10797119 147 137 136
458079.06250000 4298175.00000000 949.36999512 136 126 125
458079.06250000 4298175.50000000 949.60302734 132 124 122
458079.06250000 4298176.00000000 949.78900146 131 123 121
458079.06250000 4298176.50000000 949.94897461 147 139 136
458079.06250000 4298177.00000000 950.14398193 153 145 142
458079.06250000 4298177.50000000 950.30200195 152 144 141
458079.06250000 4298178.00000000 950.39001465 150 142 139
458079.06250000 4298178.50000000 950.44598389 155 149 145
458079.06250000 4298179.00000000 950.49200439 156 151 147
458079.06250000 4298179.50000000 950.51898193 154 149 145
458079.06250000 4298180.00000000 950.52001953 155 150 147
458079.06250000 4298180.50000000 950.52099609 147 142 139
458079.06250000 4298181.00000000 950.48797607 140 135 132
458079.06250000 4298181.50000000 950.39398193 135 130 127
458079.06250000 4298182.00000000 950.32702637 135 126 127
458079.06250000 4298182.50000000 950.28198242 134 126 124
458079.06250000 4298183.00000000 950.17901611 144 136 134
458079.56250000 4298174.50000000 948.69500732 141 131 130
458079.56250000 4298175.00000000 948.98901367 134 124 123
458079.56250000 4298175.50000000 949.22302246 129 121 119
458079.56250000 4298176.00000000 949.40997314 128 120 117
458079.56250000 4298176.50000000 949.58197021 140 132 129
458079.56250000 4298177.00000000 949.73602295 152 143 140
458079.56250000 4298177.50000000 949.84997559 152 144 141
458079.56250000 4298178.00000000 949.95001221 144 136 133
458079.56250000 4298178.50000000 950.04400635 145 137 134
458079.56250000 4298179.00000000 950.12097168 151 143 140
458079.56250000 4298179.50000000 950.17498779 148 140 138
458079.56250000 4298180.00000000 950.20501709 146 138 136
458079.56250000 4298180.50000000 950.19799805 140 132 130
458079.56250000 4298181.00000000 950.15100098 137 128 129
458079.56250000 4298181.50000000 950.09497070 132 123 124
458079.56250000 4298182.00000000 950.02301025 133 124 125
458079.56250000 4298182.50000000 949.92999268 128 120 119
458079.56250000 4298183.00000000 949.83898926 144 136 133
458080.06250000 4298174.50000000 948.27899170 133 125 123
458080.06250000 4298175.00000000 948.50299072 134 126 124
458080.06250000 4298175.50000000 948.77197266 136 126 124
458080.06250000 4298176.00000000 949.04998779 136 126 124
458080.06250000 4298176.50000000 949.26300049 140 130 128
458080.06250000 4298177.00000000 949.38201904 149 139 137
458080.06250000 4298177.50000000 949.44396973 150 140 138
458080.06250000 4298178.00000000 949.49499512 142 132 131
458080.06250000 4298178.50000000 949.58300781 138 129 127
458080.06250000 4298179.00000000 949.68298340 138 130 128
458080.06250000 4298179.50000000 949.73101807 140 132 130
458080.06250000 4298180.00000000 949.76202393 142 134 132
458080.06250000 4298180.50000000 949.77600098 144 135 136
458080.06250000 4298181.00000000 949.74798584 141 132 133
458080.06250000 4298181.50000000 949.70202637 133 124 125
458080.06250000 4298182.00000000 949.62799072 132 123 123
458080.06250000 4298182.50000000 949.52398682 132 124 122
458080.06250000 4298183.00000000 949.42498779 142 134 131
458080.56250000 4298174.50000000 947.84497070 131 123 121
458080.56250000 4298175.00000000 948.00299072 137 129 127
458080.56250000 4298175.50000000 948.25299072 143 133 131
458080.56250000 4298176.00000000 948.56896973 141 131 129
458080.56250000 4298176.50000000 948.82098389 141 131 129
458080.56250000 4298177.00000000 948.93597412 136 126 125
458080.56250000 4298177.50000000 948.93701172 136 126 125
458080.56250000 4298178.00000000 948.95202637 136 126 125
458080.56250000 4298178.50000000 949.05200195 135 127 125
458080.56250000 4298179.00000000 949.13201904 135 127 125
458080.56250000 4298179.50000000 949.18103027 134 126 124
458080.56250000 4298180.00000000 949.25097656 133 124 125
458080.56250000 4298180.50000000 949.27899170 135 126 127
458080.56250000 4298181.00000000 949.25897217 136 127 128
458080.56250000 4298181.50000000 949.21899414 138 129 130
458080.56250000 4298182.00000000 949.14099121 141 133 131
458080.56250000 4298182.50000000 949.03802490 140 132 129
458080.56250000 4298183.00000000 948.93103027 137 129 126
458081.06250000 4298174.50000000 947.39300537 130 122 121
458081.06250000 4298175.00000000 947.56402588 133 125 123
458081.06250000 4298175.50000000 947.83099365 137 128 123
458081.06250000 4298176.00000000 948.10498047 139 129 127
458081.06250000 4298176.50000000 948.31799316 146 136 134
458081.06250000 4298177.00000000 948.42999268 141 131 129
458081.06250000 4298177.50000000 948.45501709 137 127 126
458081.06250000 4298178.00000000 948.51397705 135 125 124
458081.06250000 4298178.50000000 948.60998535 137 129 127
458081.06250000 4298179.00000000 948.66497803 142 134 132
458081.06250000 4298179.50000000 948.72100830 133 125 123
458081.06250000 4298180.00000000 948.78601074 130 121 122
458081.06250000 4298180.50000000 948.81500244 130 121 122
458081.06250000 4298181.00000000 948.80297852 128 119 120
458081.06250000 4298181.50000000 948.74902344 132 123 124
458081.06250000 4298182.00000000 948.66400146 133 125 123
458081.06250000 4298182.50000000 948.59497070 136 128 125
458081.06250000 4298183.00000000 948.52197266 138 130 127
458081.56250000 4298174.50000000 946.96398926 134 124 122
458081.56250000 4298175.00000000 947.18597412 134 124 122
458081.56250000 4298175.50000000 947.44299316 137 126 124
458081.56250000 4298176.00000000 947.66101074 145 134 130
458081.56250000 4298176.50000000 947.80999756 153 142 138
458081.56250000 4298177.00000000 947.90698242 151 140 136
458081.56250000 4298177.50000000 947.98699951 138 127 125
458081.56250000 4298178.00000000 948.03997803 136 124 124
458081.56250000 4298178.50000000 948.07897949 132 124 122
458081.56250000 4298179.00000000 948.12902832 135 127 125
458081.56250000 4298179.50000000 948.22497559 134 126 124
458081.56250000 4298180.00000000 948.30999756 130 122 120
458081.56250000 4298180.50000000 948.34997559 129 121 119
458081.56250000 4298181.00000000 948.34600830 128 120 118
458081.56250000 4298181.50000000 948.26800537 132 124 122
458081.56250000 4298182.00000000 948.14501953 133 124 125
458081.56250000 4298182.50000000 948.08300781 134 125 126
458081.56250000 4298183.00000000 948.10302734 139 130 130
458082.06250000 4298174.50000000 946.45501709 138 128 126
458082.06250000 4298175.00000000 946.71899414 137 127 125
458082.06250000 4298175.50000000 946.95599365 143 132 130
458082.06250000 4298176.00000000 947.18103027 153 142 138
458082.06250000 4298176.50000000 947.32098389 166 154 149
458082.06250000 4298177.00000000 947.38500977 163 152 148
458082.06250000 4298177.50000000 947.42901611 146 135 133
458082.06250000 4298178.00000000 947.44500732 141 129 129
458082.06250000 4298178.50000000 947.48400879 136 126 125
458082.06250000 4298179.00000000 947.52301025 137 129 127
458082.06250000 4298179.50000000 947.63201904 135 127 125
458082.06250000 4298180.00000000 947.74200439 133 125 123
458082.06250000 4298180.50000000 947.75299072 137 129 127
458082.06250000 4298181.00000000 947.73797607 146 138 136
458082.06250000 4298181.50000000 947.72601318 138 130 128
458082.06250000 4298182.00000000 947.72100830 134 125 126
458082.06250000 4298182.50000000 947.71697998 130 121 122
458082.06250000 4298183.00000000 947.71197510 128 120 118
458082.56250000 4298174.50000000 945.96801758 153 143 141
458082.56250000 4298175.00000000 946.22601318 142 132 130
458082.56250000 4298175.50000000 946.40301514 144 133 131
458082.56250000 4298176.00000000 946.59197998 149 138 134
458082.56250000 4298176.50000000 946.71997070 162 151 147
458082.56250000 4298177.00000000 946.80603027 162 151 147
458082.56250000 4298177.50000000 946.88098145 155 144 142
458082.56250000 4298178.00000000 946.90698242 147 135 135
458082.56250000 4298178.50000000 946.95300293 139 128 127
458082.56250000 4298179.00000000 947.01800537 139 131 129
458082.56250000 4298179.50000000 947.10101318 138 130 128
458082.56250000 4298180.00000000 947.19500732 136 128 126
458082.56250000 4298180.50000000 947.22998047 135 127 125
458082.56250000 4298181.00000000 947.21997070 142 134 132
458082.56250000 4298181.50000000 947.25201416 138 130 128
458082.56250000 4298182.00000000 947.31298828 135 125 126
458082.56250000 4298182.50000000 947.33898926 133 123 122
458082.56250000 4298183.00000000 947.30603027 130 120 119
458083.06250000 4298174.50000000 945.39697266 147 138 133
458083.06250000 4298175.00000000 945.68902588 141 132 127
458083.06250000 4298175.50000000 945.82501221 145 134 132
458083.06250000 4298176.00000000 945.88598633 144 133 129
458083.06250000 4298176.50000000 946.01202393 146 135 131
458083.06250000 4298177.00000000 946.20300293 156 145 141
458083.06250000 4298177.50000000 946.33898926 157 146 144
458083.06250000 4298178.00000000 946.40399170 154 142 142
458083.06250000 4298178.50000000 946.44598389 145 135 134
458083.06250000 4298179.00000000 946.49499512 144 134 133
458083.06250000 4298179.50000000 946.59399414 143 133 132
458083.06250000 4298180.00000000 946.70098877 135 125 124
458083.06250000 4298180.50000000 946.75097656 133 123 122
458083.06250000 4298181.00000000 946.74401855 131 121 120
458083.06250000 4298181.50000000 946.72900391 139 129 128
458083.06250000 4298182.00000000 946.74401855 144 134 133
458083.06250000 4298182.50000000 946.78002930 139 129 128
458083.06250000 4298183.00000000 946.78302002 134 124 123
458083.56250000 4298175.50000000 945.26702881 136 125 123
458083.56250000 4298176.00000000 945.35699463 144 133 129
458083.56250000 4298176.50000000 945.52099609 146 135 131
458083.56250000 4298177.00000000 945.68103027 146 135 131
458083.56250000 4298177.50000000 945.77099609 142 131 129
458083.56250000 4298178.00000000 945.86297607 141 129 129
458083.56250000 4298178.50000000 945.91302490 139 129 128
458083.56250000 4298179.00000000 945.98297119 137 127 126
458083.56250000 4298179.50000000 946.09100342 135 125 124
458083.56250000 4298180.00000000 946.16900635 140 130 129
458083.56250000 4298180.50000000 946.22497559 137 127 126
458083.56250000 4298181.00000000 946.27801514 134 124 123
458083.56250000 4298181.50000000 946.32702637 135 125 124
458083.56250000 4298182.00000000 946.35797119 140 130 129
458083.56250000 4298182.50000000 946.36401367 143 133 132
458083.56250000 4298183.00000000 946.32800293 140 130 128
458084.06250000 4298177.00000000 945.12799072 145 134 130
458084.06250000 4298177.50000000 945.18597412 145 134 132
458084.06250000 4298178.00000000 945.25299072 141 129 129
458084.06250000 4298178.50000000 945.31799316 135 125 124
458084.06250000 4298179.00000000 945.41900635 132 122 121
458084.06250000 4298179.50000000 945.49401855 132 122 121
458084.06250000 4298180.00000000 945.56298828 137 127 126
458084.06250000 4298180.50000000 945.68499756 138 128 127
458084.06250000 4298181.00000000 945.81201172 138 128 127
458084.06250000 4298181.50000000 945.91198730 137 127 126
458084.06250000 4298182.00000000 945.97302246 138 127 126
458084.06250000 4298182.50000000 945.95001221 140 129 128
458084.06250000 4298183.00000000 945.84899902 144 133 131
458084.56250000 4298180.50000000 945.13397217 133 123 122
458084.56250000 4298181.00000000 945.29998779 138 128 127
458084.56250000 4298181.50000000 945.40100098 139 129 128
458084.56250000 4298182.00000000 945.43902588 144 134 132
458084.56250000 4298182.50000000 945.40399170 149 139 135
458084.56250000 4298183.00000000 945.31500244 153 139 135
458068.56250000 4298192.50000000 954.10302734 136 128 126
458069.06250000 4298192.00000000 954.09600830 129 120 118
458069.06250000 4298192.50000000 953.79998779 140 132 130
458069.56250000 4298191.50000000 954.09301758 133 125 123
458069.56250000 4298192.00000000 953.77899170 122 115 112
458069.56250000 4298192.50000000 953.52197266 131 123 122
458070.06250000 4298190.50000000 954.13000488 136 128 126
458070.06250000 4298191.00000000 953.94097900 139 131 129
458070.06250000 4298191.50000000 953.64398193 129 121 119
458070.06250000 4298192.00000000 953.36901855 123 116 114
458070.06250000 4298192.50000000 953.14099121 133 126 126
458070.56250000 4298190.00000000 954.04699707 133 125 123
458070.56250000 4298190.50000000 953.83197021 136 128 126
458070.56250000 4298191.00000000 953.58300781 138 130 128
458070.56250000 4298191.50000000 953.28900146 128 119 120
458070.56250000 4298192.00000000 953.06701660 125 118 117
458070.56250000 4298192.50000000 952.83502197 133 127 127
458071.06250000 4298189.50000000 953.88500977 122 117 116
458071.06250000 4298190.00000000 953.65301514 127 119 119
458071.06250000 4298190.50000000 953.47497559 139 131 129
458071.06250000 4298191.00000000 953.27697754 144 136 134
458071.06250000 4298191.50000000 953.05603027 130 124 124
458071.06250000 4298192.00000000 952.81500244 118 111 111
458071.06250000 4298192.50000000 952.56500244 118 111 111
458071.56250000 4298188.50000000 954.07598877 119 113 116
458071.56250000 4298189.00000000 953.77301025 118 111 111
458071.56250000 4298189.50000000 953.46899414 119 113 112
458071.56250000 4298190.00000000 953.21600342 122 113 113
458071.56250000 4298190.50000000 952.98400879 140 132 130
458071.56250000 4298191.00000000 952.84100342 150 142 139
458071.56250000 4298191.50000000 952.66802979 144 138 137
458071.56250000 4298192.00000000 952.40301514 123 118 117
458071.56250000 4298192.50000000 952.11499023 116 109 109
458072.06250000 4298187.50000000 953.97900391 122 117 116
458072.06250000 4298188.00000000 953.84997559 126 120 120
458072.06250000 4298188.50000000 953.62298584 126 120 120
458072.06250000 4298189.00000000 953.35601807 123 118 117
458072.06250000 4298189.50000000 953.13500977 123 119 116
458072.06250000 4298190.00000000 952.87799072 131 123 121
458072.06250000 4298190.50000000 952.67498779 134 126 124
458072.06250000 4298191.00000000 952.52099609 138 130 128
458072.06250000 4298191.50000000 952.31896973 142 137 134
458072.06250000 4298192.00000000 951.98699951 135 129 127
458072.06250000 4298192.50000000 951.67401123 126 120 120
458072.56250000 4298186.00000000 954.04199219 113 108 105
458072.56250000 4298186.50000000 953.86700439 113 107 106
458072.56250000 4298187.00000000 953.64099121 119 112 112
458072.56250000 4298187.50000000 953.38702393 122 117 116
458072.56250000 4298188.00000000 953.19702148 121 116 116
458072.56250000 4298188.50000000 952.96099854 122 117 116
458072.56250000 4298189.00000000 952.72497559 128 122 122
458072.56250000 4298189.50000000 952.58300781 140 134 134
458072.56250000 4298190.00000000 952.49902344 136 128 126
458072.56250000 4298190.50000000 952.32501221 130 122 120
458072.56250000 4298191.00000000 952.16302490 130 122 120
458072.56250000 4298191.50000000 951.85498047 131 126 123
458072.56250000 4298192.00000000 951.57000732 134 129 127
458072.56250000 4298192.50000000 951.38098145 128 122 122
458073.06250000 4298185.00000000 954.05798340 125 120 117
458073.06250000 4298185.50000000 953.84997559 125 120 117
458073.06250000 4298186.00000000 953.71600342 119 113 111
458073.06250000 4298186.50000000 953.49597168 118 111 111
458073.06250000 4298187.00000000 953.17498779 127 121 121
458073.06250000 4298187.50000000 952.87701416 131 125 125
458073.06250000 4298188.00000000 952.65899658 126 120 120
458073.06250000 4298188.50000000 952.47399902 123 118 117
458073.06250000 4298189.00000000 952.23602295 126 120 120
458073.06250000 4298189.50000000 951.98797607 133 127 127
458073.06250000 4298190.00000000 951.80999756 142 133 133
458073.06250000 4298190.50000000 951.68798828 139 131 129
458073.06250000 4298191.00000000 951.54199219 128 120 118
458073.06250000 4298191.50000000 951.36199951 129 121 119
458073.06250000 4298192.00000000 951.22302246 130 122 120
458073.06250000 4298192.50000000 951.07800293 133 124 125
458073.56250000 4298184.00000000 954.11102295 137 129 126
458073.56250000 4298184.50000000 953.95397949 132 124 122
458073.56250000 4298185.00000000 953.74902344 128 123 120
458073.56250000 4298185.50000000 953.62097168 131 126 124
458073.56250000 4298186.00000000 953.47399902 127 121 121
458073.56250000 4298186.50000000 953.14300537 123 118 117
458073.56250000 4298187.00000000 952.78497314 126 120 120
458073.56250000 4298187.50000000 952.49597168 126 120 122
458073.56250000 4298188.00000000 952.29602051 123 118 119
458073.56250000 4298188.50000000 952.14898682 124 119 120
458073.56250000 4298189.00000000 951.87402344 122 117 117
458073.56250000 4298189.50000000 951.57897949 124 119 118
458073.56250000 4298190.00000000 951.43902588 136 127 128
458073.56250000 4298190.50000000 951.36199951 136 128 127
458073.56250000 4298191.00000000 951.21600342 125 118 116
458073.56250000 4298191.50000000 950.97497559 125 118 116
458073.56250000 4298192.00000000 950.70001221 131 123 121
458073.56250000 4298192.50000000 950.52398682 129 120 120
458074.06250000 4298183.50000000 953.89398193 130 121 118
458074.06250000 4298184.00000000 953.77502441 130 123 120
458074.06250000 4298184.50000000 953.63201904 126 121 118
458074.06250000 4298185.00000000 953.43499756 132 126 126
458074.06250000 4298185.50000000 953.19897461 131 125 125
458074.06250000 4298186.00000000 952.93701172 130 124 124
458074.06250000 4298186.50000000 952.66699219 128 122 123
458074.06250000 4298187.00000000 952.34301758 128 122 124
458074.06250000 4298187.50000000 952.08398438 123 118 119
458074.06250000 4298188.00000000 951.92199707 120 115 116
458074.06250000 4298188.50000000 951.69000244 122 117 118
458074.06250000 4298189.00000000 951.38397217 122 117 118
458074.06250000 4298189.50000000 951.25201416 123 118 118
458074.06250000 4298190.00000000 951.13098145 129 120 121
458074.06250000 4298190.50000000 950.93597412 132 123 124
458074.06250000 4298191.00000000 950.78997803 130 121 122
458074.06250000 4298191.50000000 950.51202393 128 120 118
458074.06250000 4298192.00000000 950.15899658 127 119 117
458074.06250000 4298192.50000000 950.00000000 133 125 123
458074.56250000 4298183.50000000 953.58099365 134 126 123
458074.56250000 4298184.00000000 953.41497803 125 119 116
458074.56250000 4298184.50000000 953.25799561 128 123 120
458074.56250000 4298185.00000000 953.08599854 132 126 126
458074.56250000 4298185.50000000 952.85900879 132 126 126
458074.56250000 4298186.00000000 952.58197021 126 120 120
458074.56250000 4298186.50000000 952.30401611 122 117 117
458074.56250000 4298187.00000000 952.00000000 124 119 120
458074.56250000 4298187.50000000 951.73199463 119 112 114
458074.56250000 4298188.00000000 951.49700928 118 111 113
458074.56250000 4298188.50000000 951.24200439 122 117 118
458074.56250000 4298189.00000000 951.03302002 125 119 121
458074.56250000 4298189.50000000 950.92199707 124 119 120
458074.56250000 4298190.00000000 950.70001221 127 119 119
458074.56250000 4298190.50000000 950.47802734 130 121 122
458074.56250000 4298191.00000000 950.31597900 132 123 124
458074.56250000 4298191.50000000 950.01300049 130 122 120
458074.56250000 4298192.00000000 949.76501465 130 122 120
458074.56250000 4298192.50000000 949.63702393 129 121 119
458075.06250000 4298183.50000000 953.28302002 141 133 131
458075.06250000 4298184.00000000 953.13800049 130 122 120
458075.06250000 4298184.50000000 952.94396973 131 125 122
458075.06250000 4298185.00000000 952.76300049 129 123 124
458075.06250000 4298185.50000000 952.57897949 119 112 114
458075.06250000 4298186.00000000 952.30603027 115 108 110
458075.06250000 4298186.50000000 951.98901367 122 117 118
458075.06250000 4298187.00000000 951.67700195 123 118 119
458075.06250000 4298187.50000000 951.41400146 118 111 113
458075.06250000 4298188.00000000 951.15899658 118 111 114
458075.06250000 4298188.50000000 950.89501953 122 118 119
458075.06250000 4298189.00000000 950.63098145 122 117 118
458075.06250000 4298189.50000000 950.40100098 125 119 121
458075.06250000 4298190.00000000 950.15502930 130 124 123
458075.06250000 4298190.50000000 949.86199951 135 128 125
458075.06250000 4298191.00000000 949.64697266 133 125 123
458075.06250000 4298191.50000000 949.43499756 134 124 123
458075.06250000 4298192.00000000 949.36401367 129 119 118
458075.06250000 4298192.50000000 949.25500488 128 119 117
458075.56250000 4298183.50000000 952.95898438 137 129 127
458075.56250000 4298184.00000000 952.79602051 133 125 123
458075.56250000 4298184.50000000 952.61901855 129 123 121
458075.56250000 4298185.00000000 952.39501953 126 120 121
458075.56250000 4298185.50000000 952.16198730 119 113 116
458075.56250000 4298186.00000000 951.86199951 118 111 113
458075.56250000 4298186.50000000 951.50598145 121 116 117
458075.56250000 4298187.00000000 951.26098633 121 116 117
458075.56250000 4298187.50000000 951.03399658 119 112 114
458075.56250000 4298188.00000000 950.78601074 119 112 116
458075.56250000 4298188.50000000 950.53497314 121 116 117
458075.56250000 4298189.00000000 950.19201660 118 111 113
458075.56250000 4298189.50000000 949.87402344 120 115 116
458075.56250000 4298190.00000000 949.61102295 124 118 116
458075.56250000 4298190.50000000 949.35400391 131 123 121
458075.56250000 4298191.00000000 949.17901611 131 123 121
458075.56250000 4298191.50000000 949.03100586 132 122 121
458075.56250000 4298192.00000000 948.87500000 130 120 119
458075.56250000 4298192.50000000 948.60498047 132 122 121
458076.06250000 4298183.50000000 952.49902344 134 126 124
458076.06250000 4298184.00000000 952.29602051 137 129 127
458076.06250000 4298184.50000000 952.09497070 128 123 120
458076.06250000 4298185.00000000 951.90301514 120 115 116
458076.06250000 4298185.50000000 951.66601563 122 117 118
458076.06250000 4298186.00000000 951.34197998 120 115 116
458076.06250000 4298186.50000000 951.10198975 119 113 116
458076.06250000 4298187.00000000 950.91497803 120 115 116
458076.06250000 4298187.50000000 950.63598633 120 115 116
458076.06250000 4298188.00000000 950.27697754 120 115 117
458076.06250000 4298188.50000000 949.96002197 121 116 117
458076.06250000 4298189.00000000 949.68499756 119 112 114
458076.06250000 4298189.50000000 949.41198730 122 117 118
458076.06250000 4298190.00000000 949.17199707 127 119 119
458076.06250000 4298190.50000000 948.92199707 134 126 124
458076.06250000 4298191.00000000 948.73199463 136 128 126
458076.06250000 4298191.50000000 948.55297852 133 123 122
458076.06250000 4298192.00000000 948.35302734 136 126 125
458076.06250000 4298192.50000000 948.13098145 137 127 125
458076.56250000 4298183.50000000 951.99200439 139 131 129
458076.56250000 4298184.00000000 951.86499023 137 129 127
458076.56250000 4298184.50000000 951.73199463 129 123 121
458076.56250000 4298185.00000000 951.53997803 122 117 118
458076.56250000 4298185.50000000 951.25201416 121 116 117
458076.56250000 4298186.00000000 950.97302246 120 115 116
458076.56250000 4298186.50000000 950.76702881 117 110 112
458076.56250000 4298187.00000000 950.53802490 119 113 116
458076.56250000 4298187.50000000 950.16900635 121 116 117
458076.56250000 4298188.00000000 949.80798340 121 116 117
458076.56250000 4298188.50000000 949.48400879 121 116 117
458076.56250000 4298189.00000000 949.15698242 123 118 119
458076.56250000 4298189.50000000 948.93798828 125 117 119
458076.56250000 4298190.00000000 948.66601563 125 117 116
458076.56250000 4298190.50000000 948.40502930 133 125 123
458076.56250000 4298191.00000000 948.25500488 146 136 135
458076.56250000 4298191.50000000 948.17401123 153 143 142
458076.56250000 4298192.00000000 947.97802734 144 134 132
458076.56250000 4298192.50000000 947.73699951 143 133 131
458077.06250000 4298183.50000000 951.55798340 144 136 134
458077.06250000 4298184.00000000 951.37701416 135 127 125
458077.06250000 4298184.50000000 951.16699219 125 119 116
458077.06250000 4298185.00000000 950.94897461 120 115 116
458077.06250000 4298185.50000000 950.77001953 127 121 123
458077.06250000 4298186.00000000 950.58099365 119 112 114
458077.06250000 4298186.50000000 950.36602783 117 110 112
458077.06250000 4298187.00000000 950.07501221 116 109 111
458077.06250000 4298187.50000000 949.65899658 120 115 116
458077.06250000 4298188.00000000 949.30102539 123 118 119
458077.06250000 4298188.50000000 949.08099365 124 116 118
458077.06250000 4298189.00000000 948.75201416 124 116 118
458077.06250000 4298189.50000000 948.39202881 123 115 117
458077.06250000 4298190.00000000 948.13000488 122 112 113
458077.06250000 4298190.50000000 947.87597656 124 115 113
458077.06250000 4298191.00000000 947.74401855 133 123 122
458077.06250000 4298191.50000000 947.71398926 138 127 125
458077.06250000 4298192.00000000 947.52099609 137 126 124
458077.06250000 4298192.50000000 947.17297363 140 129 127
458077.56250000 4298183.50000000 951.18402100 142 134 132
458077.56250000 4298184.00000000 950.96301270 139 131 129
458077.56250000 4298184.50000000 950.78302002 127 122 119
458077.56250000 4298185.00000000 950.60101318 120 115 116
458077.56250000 4298185.50000000 950.39300537 126 120 122
458077.56250000 4298186.00000000 950.17297363 120 115 116
458077.56250000 4298186.50000000 949.92901611 120 115 116
458077.56250000 4298187.00000000 949.60601807 116 109 111
458077.56250000 4298187.50000000 949.19897461 119 112 114
458077.56250000 4298188.00000000 948.90100098 120 113 116
458077.56250000 4298188.50000000 948.64599609 123 115 118
458077.56250000 4298189.00000000 948.28601074 124 116 118
458077.56250000 4298189.50000000 947.90802002 126 118 120
458077.56250000 4298190.00000000 947.67498779 126 118 117
458077.56250000 4298190.50000000 947.46502686 130 120 119
458077.56250000 4298191.00000000 947.19799805 131 121 120
458077.56250000 4298191.50000000 947.07299805 135 124 122
458077.56250000 4298192.00000000 946.75299072 138 127 125
458077.56250000 4298192.50000000 946.23699951 142 131 128
458078.06250000 4298183.50000000 950.86199951 144 136 134
458078.06250000 4298184.00000000 950.69299316 139 131 130
458078.06250000 4298184.50000000 950.55401611 129 121 121
458078.06250000 4298185.00000000 950.35699463 119 113 114
458078.06250000 4298185.50000000 950.09600830 123 118 118
458078.06250000 4298186.00000000 949.82000732 125 119 121
458078.06250000 4298186.50000000 949.51501465 119 113 116
458078.06250000 4298187.00000000 949.12701416 117 110 112
458078.06250000 4298187.50000000 948.75701904 119 112 116
458078.06250000 4298188.00000000 948.47601318 119 112 116
458078.06250000 4298188.50000000 948.13500977 119 111 114
458078.06250000 4298189.00000000 947.68402100 116 108 111
458078.06250000 4298189.50000000 947.21801758 118 110 112
458078.06250000 4298190.00000000 946.96301270 121 113 113
458078.06250000 4298190.50000000 946.85198975 127 119 117
458078.06250000 4298191.00000000 946.65698242 135 125 124
458078.06250000 4298191.50000000 946.30798340 137 126 124
458078.06250000 4298192.00000000 945.87097168 143 133 131
458078.06250000 4298192.50000000 945.48297119 142 131 128
458078.56250000 4298183.50000000 950.42700195 146 138 136
458078.56250000 4298184.00000000 950.31402588 143 134 133
458078.56250000 4298184.50000000 950.12902832 137 128 131
458078.56250000 4298185.00000000 949.87298584 124 119 118
458078.56250000 4298185.50000000 949.67797852 127 121 121
458078.56250000 4298186.00000000 949.46197510 124 119 120
458078.56250000 4298186.50000000 949.11700439 119 112 114
458078.56250000 4298187.00000000 948.75000000 117 110 112
458078.56250000 4298187.50000000 948.42102051 115 108 112
458078.56250000 4298188.00000000 948.04699707 116 108 113
458078.56250000 4298188.50000000 947.59600830 113 107 109
458078.56250000 4298189.00000000 947.13098145 110 104 106
458078.56250000 4298189.50000000 946.70501709 111 105 107
458078.56250000 4298190.00000000 946.39398193 120 113 113
458078.56250000 4298190.50000000 946.11297607 126 119 116
458078.56250000 4298191.00000000 945.72100830 132 122 121
458078.56250000 4298191.50000000 945.28198242 134 123 121
458079.06250000 4298183.50000000 950.02697754 141 133 131
458079.06250000 4298184.00000000 949.87200928 132 124 123
458079.06250000 4298184.50000000 949.70300293 124 116 116
458079.06250000 4298185.00000000 949.50402832 119 112 112
458079.06250000 4298185.50000000 949.32501221 121 116 116
458079.06250000 4298186.00000000 949.08801270 121 116 117
458079.06250000 4298186.50000000 948.73199463 119 112 114
458079.06250000 4298187.00000000 948.38299561 113 107 109
458079.06250000 4298187.50000000 948.05401611 111 105 109
458079.06250000 4298188.00000000 947.62298584 115 108 112
458079.06250000 4298188.50000000 947.12402344 117 109 112
458079.06250000 4298189.00000000 946.70202637 116 109 111
458079.06250000 4298189.50000000 946.29699707 115 108 110
458079.06250000 4298190.00000000 945.92297363 120 115 113
458079.06250000 4298190.50000000 945.54101563 123 115 112
458079.56250000 4298183.50000000 949.73297119 140 132 129
458079.56250000 4298184.00000000 949.57800293 129 120 119
458079.56250000 4298184.50000000 949.37701416 119 110 111
458079.56250000 4298185.00000000 949.19702148 116 109 109
458079.56250000 4298185.50000000 949.01397705 116 109 109
458079.56250000 4298186.00000000 948.71099854 120 115 116
458079.56250000 4298186.50000000 948.36798096 118 111 113
458079.56250000 4298187.00000000 948.01397705 117 110 112
458079.56250000 4298187.50000000 947.59301758 111 105 109
458079.56250000 4298188.00000000 947.10797119 107 100 105
458079.56250000 4298188.50000000 946.65600586 113 104 108
458079.56250000 4298189.00000000 946.25097656 113 106 108
458079.56250000 4298189.50000000 945.85198975 111 105 107
458079.56250000 4298190.00000000 945.46801758 116 108 107
458080.06250000 4298183.50000000 949.31402588 149 141 138
458080.06250000 4298184.00000000 949.12402344 147 139 136
458080.06250000 4298184.50000000 948.93103027 140 132 132
458080.06250000 4298185.00000000 948.79998779 127 121 121
458080.06250000 4298185.50000000 948.58599854 122 117 116
458080.06250000 4298186.00000000 948.26800537 119 112 114
458080.06250000 4298186.50000000 947.97698975 117 110 112
458080.06250000 4298187.00000000 947.61401367 115 108 110
458080.06250000 4298187.50000000 947.10498047 111 105 109
458080.06250000 4298188.00000000 946.59698486 115 107 111
458080.06250000 4298188.50000000 946.12902832 111 102 105
458080.06250000 4298189.00000000 945.64697266 111 102 105
458080.06250000 4298189.50000000 945.23199463 113 105 108
458080.56250000 4298183.50000000 948.81597900 145 137 134
458080.56250000 4298184.00000000 948.70397949 155 147 145
458080.56250000 4298184.50000000 948.61102295 144 136 134
458080.56250000 4298185.00000000 948.47698975 139 133 133
458080.56250000 4298185.50000000 948.21697998 127 121 121
458080.56250000 4298186.00000000 947.92401123 117 110 112
458080.56250000 4298186.50000000 947.59399414 113 107 109
458080.56250000 4298187.00000000 947.16198730 110 104 106
458080.56250000 4298187.50000000 946.63098145 111 105 109
458080.56250000 4298188.00000000 946.11297607 113 104 109
458080.56250000 4298188.50000000 945.65502930 107 98 103
458080.56250000 4298189.00000000 945.23400879 108 99 103
458081.06250000 4298183.50000000 948.42498779 142 134 131
458081.06250000 4298184.00000000 948.32098389 142 134 131
458081.06250000 4298184.50000000 948.21099854 136 128 126
458081.06250000 4298185.00000000 948.09698486 134 128 128
458081.06250000 4298185.50000000 947.88897705 123 118 118
458081.06250000 4298186.00000000 947.58898926 119 112 114
458081.06250000 4298186.50000000 947.18103027 115 108 110
458081.06250000 4298187.00000000 946.70300293 111 105 107
458081.06250000 4298187.50000000 946.17498779 111 105 109
458081.06250000 4298188.00000000 945.67901611 111 102 105
458081.06250000 4298188.50000000 945.27197266 109 98 103
458081.56250000 4298183.50000000 948.09997559 145 137 135
458081.56250000 4298184.00000000 948.00500488 136 128 126
458081.56250000 4298184.50000000 947.85101318 131 123 121
458081.56250000 4298185.00000000 947.69500732 126 120 123
458081.56250000 4298185.50000000 947.46697998 121 116 118
458081.56250000 4298186.00000000 947.15698242 119 113 116
458081.56250000 4298186.50000000 946.72998047 117 110 112
458081.56250000 4298187.00000000 946.26300049 117 107 110
458081.56250000 4298187.50000000 945.80902100 113 104 106
458081.56250000 4298188.00000000 945.33300781 109 100 102
458082.06250000 4298183.50000000 947.70098877 128 120 118
458082.06250000 4298184.00000000 947.65301514 130 122 120
458082.06250000 4298184.50000000 947.50897217 135 127 125
458082.06250000 4298185.00000000 947.26300049 127 121 121
458082.06250000 4298185.50000000 946.97900391 122 117 118
458082.06250000 4298186.00000000 946.66900635 120 113 114
458082.06250000 4298186.50000000 946.29101563 120 111 113
458082.06250000 4298187.00000000 945.88598633 121 112 113
458082.06250000 4298187.50000000 945.48297119 117 107 106
458082.56250000 4298183.50000000 947.25598145 129 119 118
458082.56250000 4298184.00000000 947.18200684 132 122 120
458082.56250000 4298184.50000000 947.00897217 136 126 124
458082.56250000 4298185.00000000 946.80798340 134 125 126
458082.56250000 4298185.50000000 946.57598877 129 120 121
458082.56250000 4298186.00000000 946.25299072 125 117 114
458082.56250000 4298186.50000000 945.89398193 127 118 116
458082.56250000 4298187.00000000 945.49499512 132 122 121
458083.06250000 4298183.50000000 946.75500488 133 123 121
458083.06250000 4298184.00000000 946.64001465 137 127 125
458083.06250000 4298184.50000000 946.45898438 137 127 125
458083.06250000 4298185.00000000 946.35900879 136 126 125
458083.06250000 4298185.50000000 946.19500732 134 124 122
458083.06250000 4298186.00000000 945.85998535 130 120 118
458083.06250000 4298186.50000000 945.44299316 135 124 122
458083.56250000 4298183.50000000 946.26397705 136 126 124
458083.56250000 4298184.00000000 946.16699219 136 126 124
458083.56250000 4298184.50000000 946.03100586 135 125 123
458083.56250000 4298185.00000000 945.90197754 136 125 121
458083.56250000 4298185.50000000 945.70697021 136 125 121
458083.56250000 4298186.00000000 945.35302734 136 125 120
458084.06250000 4298183.50000000 945.75598145 141 130 128
458084.06250000 4298184.00000000 945.69201660 138 127 125
458084.06250000 4298184.50000000 945.56500244 138 128 124
458084.06250000 4298185.00000000 945.35101318 143 130 125
458084.56250000 4298183.50000000 945.25097656 152 139 133
458084.56250000 4298184.00000000 945.14202881 148 133 126
458063.56250000 4298201.50000000 954.05700684 141 131 130
458063.56250000 4298202.00000000 954.00000000 136 126 125
458064.06250000 4298200.00000000 954.00897217 136 129 129
458064.06250000 4298200.50000000 953.87597656 129 122 121
458064.06250000 4298201.00000000 953.76898193 129 119 119
458064.06250000 4298201.50000000 953.72399902 135 125 126
458064.06250000 4298202.00000000 953.66601563 141 131 130
458064.56250000 4298199.00000000 953.98297119 138 132 132
458064.56250000 4298199.50000000 953.77398682 136 130 130
458064.56250000 4298200.00000000 953.61297607 131 125 125
458064.56250000 4298200.50000000 953.53198242 126 120 120
458064.56250000 4298201.00000000 953.46899414 128 119 119
458064.56250000 4298201.50000000 953.39801025 131 121 122
458064.56250000 4298202.00000000 953.30902100 136 126 126
458065.06250000 4298198.00000000 954.06298828 119 113 113
458065.06250000 4298198.50000000 953.83099365 118 111 111
458065.06250000 4298199.00000000 953.62097168 130 124 124
458065.06250000 4298199.50000000 953.43798828 138 132 132
458065.06250000 4298200.00000000 953.29498291 137 131 131
458065.06250000 4298200.50000000 953.21398926 129 123 123
458065.06250000 4298201.00000000 953.11700439 129 120 121
458065.06250000 4298201.50000000 953.02001953 128 119 119
458065.06250000 4298202.00000000 952.95397949 129 119 119
458065.56250000 4298197.50000000 953.92297363 123 118 119
458065.56250000 4298198.00000000 953.68798828 120 115 116
458065.56250000 4298198.50000000 953.42700195 116 109 109
458065.56250000 4298199.00000000 953.24597168 124 116 116
458065.56250000 4298199.50000000 953.10797119 136 127 128
458065.56250000 4298200.00000000 952.96600342 141 133 131
458065.56250000 4298200.50000000 952.86499023 136 128 126
458065.56250000 4298201.00000000 952.77398682 132 126 126
458065.56250000 4298201.50000000 952.69396973 127 121 121
458065.56250000 4298202.00000000 952.61602783 129 120 120
458066.06250000 4298196.50000000 954.02697754 118 111 113
458066.06250000 4298197.00000000 953.86901855 122 117 118
458066.06250000 4298197.50000000 953.64001465 123 118 119
458066.06250000 4298198.00000000 953.34197998 126 120 122
458066.06250000 4298198.50000000 953.06597900 119 113 113
458066.06250000 4298199.00000000 952.92401123 126 118 118
458066.06250000 4298199.50000000 952.81597900 130 121 122
458066.06250000 4298200.00000000 952.68103027 140 132 130
458066.06250000 4298200.50000000 952.55499268 138 130 128
458066.06250000 4298201.00000000 952.45397949 131 125 125
458066.06250000 4298201.50000000 952.36700439 129 123 123
458066.06250000 4298202.00000000 952.22802734 128 120 119
458066.56250000 4298195.50000000 954.07000732 122 117 118
458066.56250000 4298196.00000000 953.82897949 121 116 117
458066.56250000 4298196.50000000 953.64697266 123 118 119
458066.56250000 4298197.00000000 953.46997070 123 118 119
458066.56250000 4298197.50000000 953.20800781 123 118 119
458066.56250000 4298198.00000000 952.93798828 126 120 121
458066.56250000 4298198.50000000 952.72399902 129 123 123
458066.56250000 4298199.00000000 952.61199951 128 119 120
458066.56250000 4298199.50000000 952.48699951 129 120 121
458066.56250000 4298200.00000000 952.34100342 131 123 121
458066.56250000 4298200.50000000 952.22601318 131 123 121
458066.56250000 4298201.00000000 952.09197998 131 122 123
458066.56250000 4298201.50000000 951.96899414 129 120 121
458066.56250000 4298202.00000000 951.83898926 132 124 122
458067.06250000 4298195.00000000 953.87500000 112 106 108
458067.06250000 4298195.50000000 953.61999512 121 116 117
458067.06250000 4298196.00000000 953.39599609 130 124 126
458067.06250000 4298196.50000000 953.25201416 127 121 123
458067.06250000 4298197.00000000 953.06298828 121 116 117
458067.06250000 4298197.50000000 952.81597900 118 111 113
458067.06250000 4298198.00000000 952.58001709 124 119 119
458067.06250000 4298198.50000000 952.36999512 131 125 125
458067.06250000 4298199.00000000 952.23297119 127 119 119
458067.06250000 4298199.50000000 952.09802246 130 121 122
458067.06250000 4298200.00000000 951.95098877 134 126 124
458067.06250000 4298200.50000000 951.82098389 133 125 123
458067.06250000 4298201.00000000 951.64202881 137 129 127
458067.06250000 4298201.50000000 951.46997070 135 127 125
458067.06250000 4298202.00000000 951.34997559 133 125 123
458067.56250000 4298194.00000000 954.07098389 118 111 111
458067.56250000 4298194.50000000 953.79199219 118 111 112
458067.56250000 4298195.00000000 953.51202393 115 108 110
458067.56250000 4298195.50000000 953.27301025 119 113 116
458067.56250000 4298196.00000000 953.11401367 127 121 123
458067.56250000 4298196.50000000 952.93200684 124 119 120
458067.56250000 4298197.00000000 952.71099854 113 107 109
458067.56250000 4298197.50000000 952.48797607 115 108 110
458067.56250000 4298198.00000000 952.23400879 124 119 120
458067.56250000 4298198.50000000 952.00097656 128 122 122
458067.56250000 4298199.00000000 951.81298828 125 117 117
458067.56250000 4298199.50000000 951.61901855 131 122 123
458067.56250000 4298200.00000000 951.42797852 134 126 124
458067.56250000 4298200.50000000 951.27099609 131 123 121
458067.56250000 4298201.00000000 951.09197998 141 133 131
458067.56250000 4298201.50000000 950.97198486 143 135 133
458067.56250000 4298202.00000000 950.88800049 142 134 132
458068.06250000 4298193.50000000 954.00201416 124 119 118
458068.06250000 4298194.00000000 953.70202637 125 120 120
458068.06250000 4298194.50000000 953.43402100 121 116 117
458068.06250000 4298195.00000000 953.22198486 119 112 114
458068.06250000 4298195.50000000 953.01702881 124 119 120
458068.06250000 4298196.00000000 952.81097412 125 119 121
458068.06250000 4298196.50000000 952.59197998 121 116 117
458068.06250000 4298197.00000000 952.36297607 116 109 111
458068.06250000 4298197.50000000 952.13397217 117 110 112
458068.06250000 4298198.00000000 951.89099121 125 119 121
458068.06250000 4298198.50000000 951.64501953 128 122 122
458068.06250000 4298199.00000000 951.40002441 126 118 118
458068.06250000 4298199.50000000 951.15002441 129 120 121
458068.06250000 4298200.00000000 950.91699219 131 123 121
458068.06250000 4298200.50000000 950.72399902 133 125 123
458068.06250000 4298201.00000000 950.56799316 155 145 143
458068.06250000 4298201.50000000 950.51098633 159 149 148
458068.06250000 4298202.00000000 950.45001221 144 134 133
458068.56250000 4298193.00000000 953.80200195 146 138 136
458068.56250000 4298193.50000000 953.62097168 135 126 127
458068.56250000 4298194.00000000 953.36102295 127 121 121
458068.56250000 4298194.50000000 953.10302734 118 111 113
458068.56250000 4298195.00000000 952.89898682 118 111 113
458068.56250000 4298195.50000000 952.70098877 119 113 113
458068.56250000 4298196.00000000 952.45599365 122 117 116
458068.56250000 4298196.50000000 952.20697021 122 117 116
458068.56250000 4298197.00000000 951.95599365 122 118 116
458068.56250000 4298197.50000000 951.75500488 119 112 112
458068.56250000 4298198.00000000 951.53698730 123 118 118
458068.56250000 4298198.50000000 951.27502441 130 124 124
458068.56250000 4298199.00000000 950.97802734 130 124 124
458068.56250000 4298199.50000000 950.67199707 131 122 123
458068.56250000 4298200.00000000 950.42901611 133 125 123
458068.56250000 4298200.50000000 950.25799561 134 126 124
458068.56250000 4298201.00000000 950.14202881 144 134 134
458068.56250000 4298201.50000000 950.06896973 148 138 139
458068.56250000 4298202.00000000 949.99102783 136 126 127
458069.06250000 4298193.00000000 953.50799561 142 134 132
458069.06250000 4298193.50000000 953.28399658 125 117 117
458069.06250000 4298194.00000000 953.05700684 120 115 114
458069.06250000 4298194.50000000 952.83599854 115 108 109
458069.06250000 4298195.00000000 952.63000488 117 110 112
458069.06250000 4298195.50000000 952.43298340 119 112 112
458069.06250000 4298196.00000000 952.16601563 119 112 112
458069.06250000 4298196.50000000 951.84997559 120 115 114
458069.06250000 4298197.00000000 951.56402588 122 118 114
458069.06250000 4298197.50000000 951.30902100 121 117 113
458069.06250000 4298198.00000000 951.09100342 126 120 120
458069.06250000 4298198.50000000 950.80499268 128 122 122
458069.06250000 4298199.00000000 950.52001953 128 122 122
458069.06250000 4298199.50000000 950.23297119 127 119 119
458069.06250000 4298200.00000000 949.96301270 130 122 120
458069.06250000 4298200.50000000 949.79699707 133 125 123
458069.06250000 4298201.00000000 949.65698242 133 123 124
458069.06250000 4298201.50000000 949.56597900 131 121 122
458069.06250000 4298202.00000000 949.53399658 132 122 123
458069.56250000 4298193.00000000 953.19000244 124 117 116
458069.56250000 4298193.50000000 952.95001221 121 116 116
458069.56250000 4298194.00000000 952.74700928 118 111 111
458069.56250000 4298194.50000000 952.48797607 112 106 108
458069.56250000 4298195.00000000 952.27099609 118 111 113
458069.56250000 4298195.50000000 952.09497070 123 118 119
458069.56250000 4298196.00000000 951.85498047 124 119 118
458069.56250000 4298196.50000000 951.53302002 121 116 116
458069.56250000 4298197.00000000 951.22399902 116 109 109
458069.56250000 4298197.50000000 950.96899414 118 111 111
458069.56250000 4298198.00000000 950.67199707 122 117 116
458069.56250000 4298198.50000000 950.29199219 124 119 118
458069.56250000 4298199.00000000 949.99499512 129 120 120
458069.56250000 4298199.50000000 949.72100830 127 119 117
458069.56250000 4298200.00000000 949.42901611 131 123 121
458069.56250000 4298200.50000000 949.26898193 135 127 125
458069.56250000 4298201.00000000 949.15600586 131 121 120
458069.56250000 4298201.50000000 949.05297852 135 125 124
458069.56250000 4298202.00000000 949.01300049 136 126 125
458070.06250000 4298193.00000000 952.84600830 129 123 123
458070.06250000 4298193.50000000 952.62200928 119 113 113
458070.06250000 4298194.00000000 952.35900879 116 109 111
458070.06250000 4298194.50000000 952.09997559 121 116 117
458070.06250000 4298195.00000000 951.90802002 120 115 116
458070.06250000 4298195.50000000 951.67102051 125 119 121
458070.06250000 4298196.00000000 951.38702393 128 122 124
458070.06250000 4298196.50000000 951.08398438 120 115 114
458070.06250000 4298197.00000000 950.77899170 119 112 112
458070.06250000 4298197.50000000 950.50097656 121 116 116
458070.06250000 4298198.00000000 950.10998535 121 113 114
458070.06250000 4298198.50000000 949.75000000 124 117 116
458070.06250000 4298199.00000000 949.43597412 129 121 119
458070.06250000 4298199.50000000 949.18597412 125 118 116
458070.06250000 4298200.00000000 948.95898438 132 123 121
458070.06250000 4298200.50000000 948.76501465 136 126 124
458070.06250000 4298201.00000000 948.64099121 137 127 126
458070.06250000 4298201.50000000 948.56402588 141 131 130
458070.06250000 4298202.00000000 948.50299072 139 129 128
458070.56250000 4298193.00000000 952.62597656 130 124 124
458070.56250000 4298193.50000000 952.37200928 119 112 114
458070.56250000 4298194.00000000 952.09197998 115 110 111
458070.56250000 4298194.50000000 951.85797119 117 111 114
458070.56250000 4298195.00000000 951.54797363 116 109 113
458070.56250000 4298195.50000000 951.26702881 119 113 116
458070.56250000 4298196.00000000 950.94598389 125 119 121
458070.56250000 4298196.50000000 950.60797119 123 118 119
458070.56250000 4298197.00000000 950.32202148 121 116 116
458070.56250000 4298197.50000000 949.96697998 124 119 118
458070.56250000 4298198.00000000 949.59399414 127 119 117
458070.56250000 4298198.50000000 949.26599121 128 120 118
458070.56250000 4298199.00000000 948.99902344 133 125 123
458070.56250000 4298199.50000000 948.75402832 132 122 121
458070.56250000 4298200.00000000 948.51397705 131 121 119
458070.56250000 4298200.50000000 948.32000732 135 125 123
458070.56250000 4298201.00000000 948.16998291 142 131 129
458070.56250000 4298201.50000000 948.10302734 143 132 130
458070.56250000 4298202.00000000 948.04302979 146 135 133
458071.06250000 4298193.00000000 952.31298828 120 115 116
458071.06250000 4298193.50000000 952.00299072 119 116 116
458071.06250000 4298194.00000000 951.70098877 113 109 110
458071.06250000 4298194.50000000 951.46398926 112 107 110
458071.06250000 4298195.00000000 951.12902832 115 108 112
