457919.56250000 4298157.50000000 960.48999023 195 179 161
457919.56250000 4298158.00000000 960.32397461 193 176 160
457919.56250000 4298158.50000000 960.15600586 189 172 156
457919.56250000 4298159.00000000 959.95501709 191 174 158
457919.56250000 4298159.50000000 959.72399902 195 179 162
457919.56250000 4298160.00000000 959.51800537 204 187 171
457919.56250000 4298160.50000000 959.36499023 203 186 171
457919.56250000 4298161.00000000 959.28997803 198 181 165
457919.56250000 4298161.50000000 959.21600342 194 177 161
457919.56250000 4298162.00000000 959.05499268 191 174 158
457919.56250000 4298162.50000000 958.90600586 193 177 161
457919.56250000 4298163.00000000 958.83898926 196 180 164
457919.56250000 4298163.50000000 958.80700684 193 176 160
457919.56250000 4298164.00000000 958.82397461 193 176 160
457919.56250000 4298164.50000000 958.85498047 190 174 158
457920.06250000 4298155.50000000 960.85699463 190 174 158
457920.06250000 4298156.00000000 960.61602783 195 177 161
457920.06250000 4298156.50000000 960.39300537 195 179 160
457920.06250000 4298157.00000000 960.16198730 197 180 162
457920.06250000 4298157.50000000 959.95300293 199 183 164
457920.06250000 4298158.00000000 959.81597900 196 179 162
457920.06250000 4298158.50000000 959.73498535 192 175 159
457920.06250000 4298159.00000000 959.60498047 191 174 158
457920.06250000 4298159.50000000 959.38800049 195 179 161
457920.06250000 4298160.00000000 959.20098877 201 184 166
457920.06250000 4298160.50000000 959.07598877 201 184 168
457920.06250000 4298161.00000000 958.95800781 194 177 161
457920.06250000 4298161.50000000 958.84002686 192 175 159
457920.06250000 4298162.00000000 958.71697998 190 173 157
457920.06250000 4298162.50000000 958.56402588 191 174 158
457920.06250000 4298163.00000000 958.43701172 190 173 157
457920.06250000 4298163.50000000 958.37200928 190 173 157
457920.06250000 4298164.00000000 958.44000244 189 172 156
457920.06250000 4298164.50000000 958.53601074 189 173 157
457920.56250000 4298155.50000000 960.45898438 190 171 156
457920.56250000 4298156.00000000 960.25799561 194 176 158
457920.56250000 4298156.50000000 960.04498291 195 179 160
457920.56250000 4298157.00000000 959.80902100 202 185 167
457920.56250000 4298157.50000000 959.56097412 206 189 173
457920.56250000 4298158.00000000 959.37799072 198 181 165
457920.56250000 4298158.50000000 959.30401611 195 179 162
457920.56250000 4298159.00000000 959.23797607 195 179 162
457920.56250000 4298159.50000000 959.09399414 194 177 159
457920.56250000 4298160.00000000 958.90100098 199 183 164
457920.56250000 4298160.50000000 958.74700928 197 180 164
457920.56250000 4298161.00000000 958.58599854 189 172 156
457920.56250000 4298161.50000000 958.37298584 188 171 155
457920.56250000 4298162.00000000 958.23797607 187 169 154
457920.56250000 4298162.50000000 958.17102051 188 170 155
457920.56250000 4298163.00000000 958.11102295 184 167 150
457920.56250000 4298163.50000000 958.08697510 187 168 153
457920.56250000 4298164.00000000 958.13299561 187 170 154
457920.56250000 4298164.50000000 958.21697998 188 172 156
457921.06250000 4298155.50000000 959.98400879 184 167 149
457921.06250000 4298156.00000000 959.75000000 195 177 160
457921.06250000 4298156.50000000 959.54699707 196 181 162
457921.06250000 4298157.00000000 959.32702637 201 186 167
457921.06250000 4298157.50000000 959.13299561 204 188 172
457921.06250000 4298158.00000000 959.02600098 198 183 166
457921.06250000 4298158.50000000 958.91998291 196 180 164
457921.06250000 4298159.00000000 958.76397705 194 179 162
457921.06250000 4298159.50000000 958.59100342 194 177 159
457921.06250000 4298160.00000000 958.45202637 195 179 160
457921.06250000 4298160.50000000 958.33300781 193 176 160
457921.06250000 4298161.00000000 958.15997314 190 173 157
457921.06250000 4298161.50000000 957.94299316 184 168 151
457921.06250000 4298162.00000000 957.78100586 184 167 152
457921.06250000 4298162.50000000 957.73999023 175 158 142
457921.06250000 4298163.00000000 957.70800781 169 153 137
457921.06250000 4298163.50000000 957.68798828 180 163 147
457921.06250000 4298164.00000000 957.70599365 184 167 151
457921.06250000 4298164.50000000 957.77502441 189 172 156
457921.56250000 4298155.50000000 959.49499512 185 169 154
457921.56250000 4298156.00000000 959.29797363 192 176 161
457921.56250000 4298156.50000000 959.13800049 193 176 160
457921.56250000 4298157.00000000 958.93902588 200 184 167
457921.56250000 4298157.50000000 958.73999023 200 184 167
457921.56250000 4298158.00000000 958.66601563 201 184 168
457921.56250000 4298158.50000000 958.54602051 196 179 163
457921.56250000 4298159.00000000 958.29699707 189 172 156
457921.56250000 4298159.50000000 958.07800293 194 175 160
457921.56250000 4298160.00000000 957.95501709 192 173 158
457921.56250000 4298160.50000000 957.81701660 192 175 158
457921.56250000 4298161.00000000 957.61297607 190 173 157
457921.56250000 4298161.50000000 957.44299316 186 169 153
457921.56250000 4298162.00000000 957.33502197 179 162 147
457921.56250000 4298162.50000000 957.29199219 171 158 141
457921.56250000 4298163.00000000 957.23699951 170 157 141
457921.56250000 4298163.50000000 957.19702148 175 159 143
457921.56250000 4298164.00000000 957.21099854 180 164 149
457921.56250000 4298164.50000000 957.27001953 187 171 156
457922.06250000 4298155.50000000 959.13000488 185 168 152
457922.06250000 4298156.00000000 958.97198486 191 174 158
457922.06250000 4298156.50000000 958.76098633 194 177 161
457922.06250000 4298157.00000000 958.52600098 198 181 165
457922.06250000 4298157.50000000 958.33502197 198 181 165
457922.06250000 4298158.00000000 958.27099609 198 181 165
457922.06250000 4298158.50000000 958.15997314 196 179 163
457922.06250000 4298159.00000000 957.92102051 192 175 159
457922.06250000 4298159.50000000 957.72198486 193 176 160
457922.06250000 4298160.00000000 957.56298828 190 173 157
457922.06250000 4298160.50000000 957.36999512 187 170 155
457922.06250000 4298161.00000000 957.20501709 184 167 151
457922.06250000 4298161.50000000 957.05798340 174 158 143
457922.06250000 4298162.00000000 956.95098877 177 161 146
457922.06250000 4298162.50000000 956.88897705 179 166 149
457922.06250000 4298163.00000000 956.80297852 170 157 141
457922.06250000 4298163.50000000 956.72900391 176 160 145
457922.06250000 4298164.00000000 956.74401855 183 167 151
457922.06250000 4298164.50000000 956.75897217 185 169 154
457922.56250000 4298155.50000000 958.68298340 184 168 149
457922.56250000 4298156.00000000 958.46600342 188 171 154
457922.56250000 4298156.50000000 958.25701904 193 176 160
457922.56250000 4298157.00000000 958.04400635 192 175 159
457922.56250000 4298157.50000000 957.90100098 195 179 162
457922.56250000 4298158.00000000 957.81896973 199 183 166
457922.56250000 4298158.50000000 957.65399170 198 181 165
457922.56250000 4298159.00000000 957.45397949 194 177 161
457922.56250000 4298159.50000000 957.34899902 194 177 161
457922.56250000 4298160.00000000 957.21502686 188 172 156
457922.56250000 4298160.50000000 956.99597168 186 170 156
457922.56250000 4298161.00000000 956.80798340 181 164 152
457922.56250000 4298161.50000000 956.70599365 171 157 144
457922.56250000 4298162.00000000 956.61798096 168 154 141
457922.56250000 4298162.50000000 956.51501465 172 158 145
457922.56250000 4298163.00000000 956.36499023 173 159 146
457922.56250000 4298163.50000000 956.28302002 175 159 144
457922.56250000 4298164.00000000 956.31298828 181 166 150
457922.56250000 4298164.50000000 956.27600098 184 168 153
457923.06250000 4298155.50000000 958.37799072 184 167 150
457923.06250000 4298156.00000000 958.13500977 188 171 154
457923.06250000 4298156.50000000 957.89001465 190 173 157
457923.06250000 4298157.00000000 957.70300293 189 172 156
457923.06250000 4298157.50000000 957.56500244 193 176 160
457923.06250000 4298158.00000000 957.43701172 197 180 164
457923.06250000 4298158.50000000 957.25201416 199 183 166
457923.06250000 4298159.00000000 957.09002686 198 181 165
457923.06250000 4298159.50000000 956.98699951 194 179 162
457923.06250000 4298160.00000000 956.80401611 185 169 155
457923.06250000 4298160.50000000 956.59802246 179 166 154
457923.06250000 4298161.00000000 956.41601563 168 153 143
457923.06250000 4298161.50000000 956.31201172 152 138 129
457923.06250000 4298162.00000000 956.21697998 155 141 130
457923.06250000 4298162.50000000 956.12097168 166 151 139
457923.06250000 4298163.00000000 955.96801758 179 164 151
457923.06250000 4298163.50000000 955.86102295 179 163 150
457923.06250000 4298164.00000000 955.83001709 179 163 150
457923.06250000 4298164.50000000 955.76397705 183 167 151
457923.56250000 4298155.50000000 958.09497070 179 163 147
457923.56250000 4298156.00000000 957.83801270 186 170 154
457923.56250000 4298156.50000000 957.61401367 187 170 154
457923.56250000 4298157.00000000 957.42901611 190 173 157
457923.56250000 4298157.50000000 957.29199219 190 173 157
457923.56250000 4298158.00000000 957.15301514 196 179 163
457923.56250000 4298158.50000000 956.96398926 203 186 171
457923.56250000 4298159.00000000 956.79199219 203 186 171
457923.56250000 4298159.50000000 956.63299561 197 181 165
457923.56250000 4298160.00000000 956.45202637 179 167 151
457923.56250000 4298160.50000000 956.25299072 161 147 138
457923.56250000 4298161.00000000 956.07897949 145 130 123
457923.56250000 4298161.50000000 955.97998047 134 121 114
457923.56250000 4298162.00000000 955.90100098 135 122 113
457923.56250000 4298162.50000000 955.82501221 148 134 124
457923.56250000 4298163.00000000 955.67901611 169 155 144
457923.56250000 4298163.50000000 955.55999756 172 156 144
457923.56250000 4298164.00000000 955.42498779 177 161 148
457923.56250000 4298164.50000000 955.25000000 172 156 141
457924.06250000 4298155.50000000 957.69000244 174 160 146
457924.06250000 4298156.00000000 957.46099854 184 168 152
457924.06250000 4298156.50000000 957.29602051 181 164 148
457924.06250000 4298157.00000000 957.09497070 188 171 155
457924.06250000 4298157.50000000 956.88098145 190 173 157
457924.06250000 4298158.00000000 956.72998047 194 177 161
457924.06250000 4298158.50000000 956.62701416 202 185 170
457924.06250000 4298159.00000000 956.49401855 203 186 171
457924.06250000 4298159.50000000 956.28601074 193 180 163
457924.06250000 4298160.00000000 956.08197021 164 150 138
457924.06250000 4298160.50000000 955.89801025 146 132 124
457924.06250000 4298161.00000000 955.78997803 136 122 118
457924.06250000 4298161.50000000 955.70800781 131 119 112
457924.06250000 4298162.00000000 955.64599609 134 121 112
457924.06250000 4298162.50000000 955.51202393 147 133 123
457924.06250000 4298163.00000000 955.33099365 157 143 132
457924.06250000 4298163.50000000 955.23602295 167 149 139
457924.06250000 4298164.00000000 955.06201172 172 156 143
457924.06250000 4298164.50000000 954.84899902 168 152 138
457924.56250000 4298155.50000000 957.42602539 164 150 139
457924.56250000 4298156.00000000 957.21301270 174 159 146
457924.56250000 4298156.50000000 956.99401855 171 155 139
457924.56250000 4298157.00000000 956.74597168 184 168 152
457924.56250000 4298157.50000000 956.49499512 198 181 165
457924.56250000 4298158.00000000 956.31402588 201 184 168
457924.56250000 4298158.50000000 956.19598389 198 181 165
457924.56250000 4298159.00000000 956.11700439 197 180 164
457924.56250000 4298159.50000000 955.97302246 189 174 161
457924.56250000 4298160.00000000 955.76300049 154 140 129
457924.56250000 4298160.50000000 955.62298584 137 123 116
457924.56250000 4298161.00000000 955.57702637 131 119 110
457924.56250000 4298161.50000000 955.47601318 133 120 112
457924.56250000 4298162.00000000 955.32501221 139 126 118
457924.56250000 4298162.50000000 955.17700195 154 140 131
457924.56250000 4298163.00000000 955.04302979 160 146 135
457924.56250000 4298163.50000000 954.95599365 159 145 134
457924.56250000 4298164.00000000 954.77197266 166 151 140
457924.56250000 4298164.50000000 954.57800293 170 154 141
457925.06250000 4298155.50000000 957.26000977 154 140 129
457925.06250000 4298156.00000000 957.01202393 166 150 138
457925.06250000 4298156.50000000 956.72302246 171 155 140
457925.06250000 4298157.00000000 956.44598389 180 164 148
457925.06250000 4298157.50000000 956.22399902 193 176 160
457925.06250000 4298158.00000000 956.07702637 201 184 168
457925.06250000 4298158.50000000 955.96099854 198 181 165
457925.06250000 4298159.00000000 955.84197998 194 177 161
457925.06250000 4298159.50000000 955.66198730 189 175 160
457925.06250000 4298160.00000000 955.45697021 156 142 129
457925.06250000 4298160.50000000 955.36499023 142 128 118
457925.06250000 4298161.00000000 955.31298828 140 127 119
457925.06250000 4298161.50000000 955.16900635 144 131 123
457925.06250000 4298162.00000000 954.97998047 153 140 131
457925.06250000 4298162.50000000 954.87200928 162 147 137
457925.06250000 4298163.00000000 954.77398682 159 145 134
457925.06250000 4298163.50000000 954.66802979 158 144 133
457925.06250000 4298164.00000000 954.48602295 166 151 140
457925.06250000 4298164.50000000 954.30603027 173 157 144
457925.56250000 4298155.50000000 956.98400879 158 144 133
457925.56250000 4298156.00000000 956.73297119 168 153 140
457925.56250000 4298156.50000000 956.44897461 170 154 139
457925.56250000 4298157.00000000 956.18701172 179 162 147
457925.56250000 4298157.50000000 955.96997070 190 173 157
457925.56250000 4298158.00000000 955.82202148 199 183 166
457925.56250000 4298158.50000000 955.71002197 201 184 167
457925.56250000 4298159.00000000 955.55603027 199 183 164
457925.56250000 4298159.50000000 955.34002686 194 179 162
457925.56250000 4298160.00000000 955.17797852 173 160 144
457925.56250000 4298160.50000000 955.08599854 166 151 138
457925.56250000 4298161.00000000 954.96197510 164 150 139
457925.56250000 4298161.50000000 954.82598877 168 154 143
457925.56250000 4298162.00000000 954.71801758 168 155 143
457925.56250000 4298162.50000000 954.59100342 166 151 140
457925.56250000 4298163.00000000 954.43298340 160 146 135
457925.56250000 4298163.50000000 954.30798340 161 148 137
457925.56250000 4298164.00000000 954.16802979 166 152 141
457926.06250000 4298155.50000000 956.72100830 170 153 143
457926.06250000 4298156.00000000 956.47802734 177 160 150
457926.06250000 4298156.50000000 956.19299316 172 156 142
457926.06250000 4298157.00000000 955.92602539 168 152 137
457926.06250000 4298157.50000000 955.66699219 190 173 157
457926.06250000 4298158.00000000 955.44500732 197 180 163
457926.06250000 4298158.50000000 955.29901123 200 184 165
457926.06250000 4298159.00000000 955.18499756 201 184 166
457926.06250000 4298159.50000000 955.06701660 201 185 167
457926.06250000 4298160.00000000 954.95300293 192 176 160
457926.06250000 4298160.50000000 954.85198975 180 166 150
457926.06250000 4298161.00000000 954.71997070 177 162 149
457926.06250000 4298161.50000000 954.56799316 168 153 141
457926.06250000 4298162.00000000 954.44299316 166 151 137
457926.06250000 4298162.50000000 954.31402588 167 152 141
457926.06250000 4298163.00000000 954.17199707 168 153 142
457926.56250000 4298155.50000000 956.50701904 173 156 146
457926.56250000 4298156.00000000 956.20697021 175 158 148
457926.56250000 4298156.50000000 955.90002441 176 160 147
457926.56250000 4298157.00000000 955.60699463 180 164 149
457926.56250000 4298157.50000000 955.34002686 185 168 153
457926.56250000 4298158.00000000 955.12500000 195 179 162
457926.56250000 4298158.50000000 954.98797607 198 181 161
457926.56250000 4298159.00000000 954.89501953 200 184 163
457926.56250000 4298159.50000000 954.79699707 202 185 167
457926.56250000 4298160.00000000 954.69000244 199 183 164
457926.56250000 4298160.50000000 954.59002686 191 173 158
457926.56250000 4298161.00000000 954.44897461 177 161 148
457926.56250000 4298161.50000000 954.26800537 164 148 135
457926.56250000 4298162.00000000 954.18597412 168 152 138
457927.06250000 4298155.50000000 956.26000977 156 139 129
457927.06250000 4298156.00000000 955.89898682 156 139 128
457927.06250000 4298156.50000000 955.54901123 152 136 123
457927.06250000 4298157.00000000 955.25201416 162 146 131
457927.06250000 4298157.50000000 955.03802490 181 163 149
457927.06250000 4298158.00000000 954.86700439 193 176 160
457927.06250000 4298158.50000000 954.72802734 197 180 160
457927.06250000 4298159.00000000 954.59802246 199 183 162
457927.06250000 4298159.50000000 954.46600342 197 180 162
457927.06250000 4298160.00000000 954.36999512 193 176 161
457927.06250000 4298160.50000000 954.25000000 190 172 159
457927.56250000 4298155.50000000 955.94299316 153 137 124
457927.56250000 4298156.00000000 955.55700684 151 135 122
457927.56250000 4298156.50000000 955.20300293 150 134 121
457927.56250000 4298157.00000000 954.98400879 157 141 126
457927.56250000 4298157.50000000 954.82598877 179 162 146
457927.56250000 4298158.00000000 954.63397217 189 173 156
457927.56250000 4298158.50000000 954.45300293 194 177 158
457927.56250000 4298159.00000000 954.33300781 195 179 158
457927.56250000 4298159.50000000 954.22698975 192 173 156
457928.06250000 4298155.50000000 955.56896973 174 158 143
457928.06250000 4298156.00000000 955.19799805 179 161 147
457928.06250000 4298156.50000000 954.86798096 177 159 145
457928.06250000 4298157.00000000 954.66998291 184 167 150
457928.06250000 4298157.50000000 954.52099609 190 173 155
457928.06250000 4298158.00000000 954.34002686 192 176 157
457928.06250000 4298158.50000000 954.20202637 192 177 158
457928.56250000 4298155.50000000 955.11401367 180 164 149
457928.56250000 4298156.00000000 954.78900146 192 175 160
457928.56250000 4298156.50000000 954.49902344 192 174 160
457928.56250000 4298157.00000000 954.26098633 190 173 157
457929.06250000 4298155.50000000 954.65802002 185 168 152
457929.06250000 4298156.00000000 954.33801270 192 175 160
457910.06250000 4298171.00000000 963.17700195 167 152 139
457910.56250000 4298169.50000000 963.04797363 140 127 119
457910.56250000 4298170.00000000 962.85998535 131 119 110
457910.56250000 4298170.50000000 962.73498535 144 129 122
457910.56250000 4298171.00000000 962.68597412 166 151 139
457910.56250000 4298171.50000000 962.78497314 181 168 152
457910.56250000 4298172.00000000 962.92297363 185 172 155
457910.56250000 4298172.50000000 963.04901123 174 161 144
457910.56250000 4298173.00000000 963.16601563 149 136 119
457911.06250000 4298168.50000000 963.12701416 162 148 140
457911.06250000 4298169.00000000 962.90502930 155 142 133
457911.06250000 4298169.50000000 962.65100098 136 123 116
457911.06250000 4298170.00000000 962.43200684 135 122 116
457911.06250000 4298170.50000000 962.30700684 141 128 120
457911.06250000 4298171.00000000 962.23999023 162 148 138
457911.06250000 4298171.50000000 962.35601807 180 168 152
457911.06250000 4298172.00000000 962.50299072 195 181 164
457911.06250000 4298172.50000000 962.61700439 195 179 163
457911.06250000 4298173.00000000 962.79498291 184 168 151
457911.06250000 4298173.50000000 962.92199707 166 149 133
457911.06250000 4298174.00000000 962.97302246 157 141 126
457911.56250000 4298168.00000000 963.10198975 163 151 142
457911.56250000 4298168.50000000 962.78601074 156 143 137
457911.56250000 4298169.00000000 962.46600342 142 131 123
457911.56250000 4298169.50000000 962.16302490 136 124 117
457911.56250000 4298170.00000000 961.95697021 137 124 118
457911.56250000 4298170.50000000 961.89801025 140 127 121
457911.56250000 4298171.00000000 961.86297607 160 146 137
457911.56250000 4298171.50000000 961.93902588 173 159 146
457911.56250000 4298172.00000000 962.06402588 187 170 154
457911.56250000 4298172.50000000 962.18902588 199 184 167
457911.56250000 4298173.00000000 962.37200928 198 183 166
457911.56250000 4298173.50000000 962.53997803 184 167 150
457911.56250000 4298174.00000000 962.62701416 180 163 147
457912.06250000 4298167.00000000 963.14099121 159 145 136
457912.06250000 4298167.50000000 962.89501953 158 145 136
457912.06250000 4298168.00000000 962.67401123 154 142 134
457912.06250000 4298168.50000000 962.39099121 144 133 127
457912.06250000 4298169.00000000 961.98101807 131 122 117
457912.06250000 4298169.50000000 961.65502930 128 118 113
457912.06250000 4298170.00000000 961.53802490 137 125 118
457912.06250000 4298170.50000000 961.48400879 146 132 123
457912.06250000 4298171.00000000 961.42602539 166 148 138
457912.06250000 4298171.50000000 961.45397949 173 157 144
457912.06250000 4298172.00000000 961.59399414 183 164 150
457912.06250000 4298172.50000000 961.76098633 199 183 166
457912.06250000 4298173.00000000 961.87200928 203 186 171
457912.06250000 4298173.50000000 961.98901367 196 179 163
457912.06250000 4298174.00000000 962.15502930 181 164 148
457912.56250000 4298165.50000000 963.02697754 173 157 144
457912.56250000 4298166.00000000 962.89001465 169 153 140
457912.56250000 4298166.50000000 962.81799316 152 138 127
457912.56250000 4298167.00000000 962.65600586 150 136 127
457912.56250000 4298167.50000000 962.41497803 153 140 132
457912.56250000 4298168.00000000 962.19097900 145 132 125
457912.56250000 4298168.50000000 961.83502197 133 122 116
457912.56250000 4298169.00000000 961.45501709 124 116 110
457912.56250000 4298169.50000000 961.18200684 124 113 109
457912.56250000 4298170.00000000 961.00799561 133 122 116
457912.56250000 4298170.50000000 960.96099854 145 132 123
457912.56250000 4298171.00000000 960.94897461 159 142 132
457912.56250000 4298171.50000000 960.99700928 169 153 140
457912.56250000 4298172.00000000 961.12298584 186 168 155
457912.56250000 4298172.50000000 961.28900146 201 184 168
457912.56250000 4298173.00000000 961.41198730 206 189 173
457912.56250000 4298173.50000000 961.52301025 208 191 175
457912.56250000 4298174.00000000 961.69396973 192 175 159
457913.06250000 4298165.00000000 962.84100342 164 147 137
457913.06250000 4298165.50000000 962.66699219 161 144 134
457913.06250000 4298166.00000000 962.48400879 159 142 130
457913.06250000 4298166.50000000 962.38299561 158 144 133
457913.06250000 4298167.00000000 962.23999023 156 142 133
457913.06250000 4298167.50000000 962.02099609 151 138 130
457913.06250000 4298168.00000000 961.70001221 141 128 122
457913.06250000 4298168.50000000 961.37200928 130 119 114
457913.06250000 4298169.00000000 961.06201172 119 110 105
457913.06250000 4298169.50000000 960.78997803 122 111 107
457913.06250000 4298170.00000000 960.65502930 132 121 114
457913.06250000 4298170.50000000 960.57299805 149 135 126
457913.06250000 4298171.00000000 960.53497314 151 134 124
457913.06250000 4298171.50000000 960.55499268 152 136 123
457913.06250000 4298172.00000000 960.62298584 173 155 143
457913.06250000 4298172.50000000 960.76098633 193 176 160
457913.06250000 4298173.00000000 960.93200684 204 187 171
457913.06250000 4298173.50000000 961.08801270 211 194 178
457913.06250000 4298174.00000000 961.26898193 199 183 166
457913.56250000 4298165.00000000 962.51898193 167 149 139
457913.56250000 4298165.50000000 962.37500000 159 142 132
457913.56250000 4298166.00000000 962.20098877 167 149 139
457913.56250000 4298166.50000000 962.02099609 170 156 146
457913.56250000 4298167.00000000 961.82000732 160 146 137
457913.56250000 4298167.50000000 961.61901855 148 135 127
457913.56250000 4298168.00000000 961.33599854 145 133 127
457913.56250000 4298168.50000000 961.04498291 130 119 116
457913.56250000 4298169.00000000 960.71002197 122 113 108
457913.56250000 4298169.50000000 960.46398926 126 116 111
457913.56250000 4298170.00000000 960.29101563 135 124 117
457913.56250000 4298170.50000000 960.10699463 150 137 128
457913.56250000 4298171.00000000 959.96099854 152 135 125
457913.56250000 4298171.50000000 959.97998047 147 131 118
457913.56250000 4298172.00000000 960.10998535 159 141 129
457913.56250000 4298172.50000000 960.28198242 184 167 152
457913.56250000 4298173.00000000 960.44097900 195 179 162
457913.56250000 4298173.50000000 960.63000488 205 188 172
457913.56250000 4298174.00000000 960.84600830 209 192 176
457914.06250000 4298165.00000000 962.16101074 160 143 133
457914.06250000 4298165.50000000 962.02600098 157 140 130
457914.06250000 4298166.00000000 961.85498047 158 141 131
457914.06250000 4298166.50000000 961.70697021 174 159 150
457914.06250000 4298167.00000000 961.50097656 168 152 145
457914.06250000 4298167.50000000 961.22198486 155 142 135
457914.06250000 4298168.00000000 960.95397949 149 137 131
457914.06250000 4298168.50000000 960.70098877 129 119 114
457914.06250000 4298169.00000000 960.42401123 122 113 108
457914.06250000 4298169.50000000 960.17999268 132 121 117
457914.06250000 4298170.00000000 959.94897461 144 133 126
457914.06250000 4298170.50000000 959.75201416 154 141 132
457914.06250000 4298171.00000000 959.63098145 164 147 137
457914.06250000 4298171.50000000 959.62298584 161 145 132
457914.06250000 4298172.00000000 959.71899414 163 145 133
457914.06250000 4298172.50000000 959.90002441 184 167 152
457914.06250000 4298173.00000000 960.10498047 199 183 167
457914.06250000 4298173.50000000 960.28900146 212 195 179
457914.06250000 4298174.00000000 960.47302246 216 199 182
457914.56250000 4298165.00000000 961.72399902 155 138 128
457914.56250000 4298165.50000000 961.67498779 160 143 133
457914.56250000 4298166.00000000 961.55902100 160 143 134
457914.56250000 4298166.50000000 961.35601807 161 146 138
457914.56250000 4298167.00000000 961.13397217 170 155 148
457914.56250000 4298167.50000000 960.90100098 154 141 135
457914.56250000 4298168.00000000 960.62902832 146 133 129
457914.56250000 4298168.50000000 960.38897705 126 116 111
457914.56250000 4298169.00000000 960.14398193 119 110 105
457914.56250000 4298169.50000000 959.89202881 130 119 116
457914.56250000 4298170.00000000 959.69299316 146 135 128
457914.56250000 4298170.50000000 959.51202393 157 143 134
457914.56250000 4298171.00000000 959.38000488 166 148 138
457914.56250000 4298171.50000000 959.35601807 166 149 136
457914.56250000 4298172.00000000 959.44799805 161 143 131
457914.56250000 4298172.50000000 959.58599854 183 164 150
457914.56250000 4298173.00000000 959.72998047 197 179 165
457914.56250000 4298173.50000000 959.87402344 205 188 172
457914.56250000 4298174.00000000 960.02600098 216 199 181
457915.06250000 4298165.00000000 961.34997559 157 140 132
457915.06250000 4298165.50000000 961.28302002 154 137 129
457915.06250000 4298166.00000000 961.18298340 154 140 131
457915.06250000 4298166.50000000 960.95599365 160 146 136
457915.06250000 4298167.00000000 960.73199463 170 156 145
457915.06250000 4298167.50000000 960.55102539 156 143 134
457915.06250000 4298168.00000000 960.26702881 146 133 126
457915.06250000 4298168.50000000 960.06201172 130 117 112
457915.06250000 4298169.00000000 959.84002686 118 106 103
457915.06250000 4298169.50000000 959.58502197 129 119 114
457915.06250000 4298170.00000000 959.38299561 144 130 127
457915.06250000 4298170.50000000 959.20098877 151 136 132
457915.06250000 4298171.00000000 959.09899902 160 143 135
457915.06250000 4298171.50000000 959.11798096 171 154 144
457915.06250000 4298172.00000000 959.18402100 176 158 145
457915.06250000 4298172.50000000 959.25598145 184 166 151
457915.06250000 4298173.00000000 959.39501953 193 176 160
457915.06250000 4298173.50000000 959.58898926 192 175 159
457915.06250000 4298174.00000000 959.72900391 200 184 165
457915.56250000 4298165.00000000 961.07800293 154 137 128
457915.56250000 4298165.50000000 960.92999268 153 136 128
457915.56250000 4298166.00000000 960.79199219 146 131 122
457915.56250000 4298166.50000000 960.60101318 161 147 136
457915.56250000 4298167.00000000 960.38897705 167 152 141
457915.56250000 4298167.50000000 960.17700195 161 147 138
457915.56250000 4298168.00000000 959.89801025 147 134 126
457915.56250000 4298168.50000000 959.70898438 134 121 116
457915.56250000 4298169.00000000 959.52697754 127 117 111
457915.56250000 4298169.50000000 959.28399658 133 119 116
457915.56250000 4298170.00000000 959.05401611 144 129 126
457915.56250000 4298170.50000000 958.83697510 141 126 121
457915.56250000 4298171.00000000 958.77899170 145 128 120
457915.56250000 4298171.50000000 958.77502441 158 141 131
457915.56250000 4298172.00000000 958.79199219 175 158 145
457915.56250000 4298172.50000000 958.86102295 184 166 151
457915.56250000 4298173.00000000 959.05999756 187 170 154
457915.56250000 4298173.50000000 959.33099365 197 180 164
457915.56250000 4298174.00000000 959.52899170 202 185 167
457916.06250000 4298165.00000000 960.84399414 145 128 118
457916.06250000 4298165.50000000 960.64697266 147 130 120
457916.06250000 4298166.00000000 960.40698242 154 137 127
457916.06250000 4298166.50000000 960.28302002 171 155 144
457916.06250000 4298167.00000000 960.07098389 155 141 129
457916.06250000 4298167.50000000 959.79998779 162 148 137
457916.06250000 4298168.00000000 959.64599609 156 142 134
457916.06250000 4298168.50000000 959.50897217 144 131 125
457916.06250000 4298169.00000000 959.31201172 137 124 118
457916.06250000 4298169.50000000 959.02502441 138 125 119
457916.06250000 4298170.00000000 958.75799561 143 130 124
457916.06250000 4298170.50000000 958.61401367 142 127 121
457916.06250000 4298171.00000000 958.55499268 143 128 120
457916.06250000 4298171.50000000 958.53198242 156 139 129
457916.06250000 4298172.00000000 958.56701660 168 150 137
457916.06250000 4298172.50000000 958.65002441 179 161 147
457916.06250000 4298173.00000000 958.79302979 179 160 146
457916.06250000 4298173.50000000 958.99298096 184 168 151
457916.06250000 4298174.00000000 959.15600586 201 184 168
457916.56250000 4298165.00000000 960.34600830 157 139 127
457916.56250000 4298165.50000000 960.23901367 155 137 125
457916.56250000 4298166.00000000 960.07598877 162 146 133
457916.56250000 4298166.50000000 959.95300293 181 166 152
457916.56250000 4298167.00000000 959.78601074 179 162 149
457916.56250000 4298167.50000000 959.56500244 168 154 142
457916.56250000 4298168.00000000 959.35198975 163 149 140
457916.56250000 4298168.50000000 959.21502686 154 139 132
457916.56250000 4298169.00000000 959.00500488 144 131 123
457916.56250000 4298169.50000000 958.71801758 144 131 123
457916.56250000 4298170.00000000 958.52099609 150 135 128
457916.56250000 4298170.50000000 958.35101318 146 131 124
457916.56250000 4298171.00000000 958.25000000 141 127 118
457916.56250000 4298171.50000000 958.26202393 149 135 124
457916.56250000 4298172.00000000 958.30798340 159 142 129
457916.56250000 4298172.50000000 958.42797852 181 163 149
457916.56250000 4298173.00000000 958.57800293 195 177 163
457916.56250000 4298173.50000000 958.68200684 189 172 156
457916.56250000 4298174.00000000 958.75402832 190 173 157
457917.06250000 4298165.00000000 960.09497070 177 159 147
457917.06250000 4298165.50000000 960.01599121 171 153 141
457917.06250000 4298166.00000000 959.87200928 174 158 145
457917.06250000 4298166.50000000 959.71502686 181 166 150
457917.06250000 4298167.00000000 959.53802490 180 164 149
457917.06250000 4298167.50000000 959.30499268 184 168 154
457917.06250000 4298168.00000000 959.15002441 175 161 151
457917.06250000 4298168.50000000 958.93298340 157 143 134
457917.06250000 4298169.00000000 958.64801025 149 135 126
457917.06250000 4298169.50000000 958.42498779 148 133 126
457917.06250000 4298170.00000000 958.22302246 150 135 128
457917.06250000 4298170.50000000 958.00402832 145 130 123
457917.06250000 4298171.00000000 957.84197998 143 129 120
457917.06250000 4298171.50000000 957.86901855 150 136 125
457917.06250000 4298172.00000000 957.91802979 164 149 136
457917.06250000 4298172.50000000 957.96197510 183 164 150
457917.06250000 4298173.00000000 958.04199219 201 184 170
457917.06250000 4298173.50000000 958.17102051 212 194 180
457917.06250000 4298174.00000000 958.30401611 208 191 175
457917.56250000 4298165.00000000 959.87799072 177 159 145
457917.56250000 4298165.50000000 959.77398682 184 167 154
457917.56250000 4298166.00000000 959.69396973 184 167 152
457917.56250000 4298166.50000000 959.52301025 184 168 153
457917.56250000 4298167.00000000 959.29199219 185 169 154
457917.56250000 4298167.50000000 959.14001465 186 170 155
457917.56250000 4298168.00000000 958.95397949 177 163 151
457917.56250000 4298168.50000000 958.64398193 161 147 138
457917.56250000 4298169.00000000 958.37200928 156 142 133
457917.56250000 4298169.50000000 958.15399170 142 128 119
457917.56250000 4298170.00000000 957.91601563 146 131 124
457917.56250000 4298170.50000000 957.71398926 150 135 128
457917.56250000 4298171.00000000 957.58099365 147 133 124
457917.56250000 4298171.50000000 957.53997803 160 146 135
457917.56250000 4298172.00000000 957.60797119 170 155 142
457917.56250000 4298172.50000000 957.65600586 177 159 145
457917.56250000 4298173.00000000 957.66400146 184 167 152
457917.56250000 4298173.50000000 957.73602295 195 177 163
457917.56250000 4298174.00000000 957.87500000 203 185 171
457918.06250000 4298165.00000000 959.52502441 188 171 156
457918.06250000 4298165.50000000 959.45800781 193 177 161
457918.06250000 4298166.00000000 959.38299561 185 169 153
457918.06250000 4298166.50000000 959.28302002 179 166 150
457918.06250000 4298167.00000000 959.14599609 180 166 151
457918.06250000 4298167.50000000 958.92401123 183 168 155
457918.06250000 4298168.00000000 958.60400391 180 166 153
457918.06250000 4298168.50000000 958.31097412 173 158 145
457918.06250000 4298169.00000000 958.00402832 157 143 135
457918.06250000 4298169.50000000 957.78100586 140 127 119
457918.06250000 4298170.00000000 957.60900879 149 136 127
457918.06250000 4298170.50000000 957.40997314 153 139 130
457918.06250000 4298171.00000000 957.33599854 155 139 130
457918.06250000 4298171.50000000 957.32098389 155 139 129
457918.06250000 4298172.00000000 957.30999756 161 144 133
457918.06250000 4298172.50000000 957.33197021 161 144 131
457918.06250000 4298173.00000000 957.41900635 176 159 146
457918.06250000 4298173.50000000 957.53198242 190 173 160
457918.06250000 4298174.00000000 957.61602783 179 161 147
457918.56250000 4298165.00000000 959.26898193 197 181 165
457918.56250000 4298165.50000000 959.22900391 190 174 158
457918.56250000 4298166.00000000 959.17700195 167 155 137
457918.56250000 4298166.50000000 959.09802246 155 143 129
457918.56250000 4298167.00000000 958.96899414 152 141 129
457918.56250000 4298167.50000000 958.67297363 156 143 134
457918.56250000 4298168.00000000 958.30499268 160 146 137
457918.56250000 4298168.50000000 957.98297119 169 153 143
457918.56250000 4298169.00000000 957.70599365 157 144 137
457918.56250000 4298169.50000000 957.50201416 143 132 126
457918.56250000 4298170.00000000 957.27697754 152 139 133
457918.56250000 4298170.50000000 957.09002686 154 140 131
457918.56250000 4298171.00000000 956.98101807 156 142 133
457918.56250000 4298171.50000000 956.95898438 161 144 134
457918.56250000 4298172.00000000 956.96002197 162 145 135
457918.56250000 4298172.50000000 956.99902344 156 140 128
457918.56250000 4298173.00000000 957.09497070 173 157 144
457918.56250000 4298173.50000000 957.25500488 195 179 166
457918.56250000 4298174.00000000 957.39501953 197 181 167
457919.06250000 4298165.00000000 959.13800049 189 173 157
457919.06250000 4298165.50000000 959.13000488 163 150 134
457919.06250000 4298166.00000000 959.06500244 134 126 111
457919.06250000 4298166.50000000 958.90301514 122 113 102
457919.06250000 4298167.00000000 958.72900391 117 107 98
457919.06250000 4298167.50000000 958.49499512 121 112 103
457919.06250000 4298168.00000000 958.16802979 131 120 111
457919.06250000 4298168.50000000 957.82000732 135 122 114
457919.06250000 4298169.00000000 957.49597168 134 123 119
457919.06250000 4298169.50000000 957.25000000 131 120 114
457919.06250000 4298170.00000000 957.04101563 131 120 114
457919.06250000 4298170.50000000 956.87902832 140 127 120
457919.06250000 4298171.00000000 956.75897217 144 130 122
457919.06250000 4298171.50000000 956.65698242 153 139 130
457919.06250000 4298172.00000000 956.62701416 167 152 142
457919.06250000 4298172.50000000 956.69097900 170 153 143
457919.06250000 4298173.00000000 956.79101563 183 166 155
457919.06250000 4298173.50000000 956.93402100 201 185 172
457919.06250000 4298174.00000000 957.08398438 202 186 173
457919.56250000 4298165.00000000 958.88800049 174 159 143
457919.56250000 4298165.50000000 958.88897705 141 129 113
457919.56250000 4298166.00000000 958.83599854 120 113 100
457919.56250000 4298166.50000000 958.72100830 113 106 96
457919.56250000 4298167.00000000 958.53002930 107 100 93
457919.56250000 4298167.50000000 958.23199463 110 103 95
457919.56250000 4298168.00000000 957.89398193 126 118 110
457919.56250000 4298168.50000000 957.55902100 132 122 116
457919.56250000 4298169.00000000 957.25598145 130 121 116
457919.56250000 4298169.50000000 956.99798584 130 119 116
457919.56250000 4298170.00000000 956.77899170 128 118 111
457919.56250000 4298170.50000000 956.56402588 141 130 124
457919.56250000 4298171.00000000 956.36798096 150 137 129
457919.56250000 4298171.50000000 956.29797363 150 137 129
457919.56250000 4298172.00000000 956.28399658 159 145 137
457919.56250000 4298172.50000000 956.31701660 166 151 140
457919.56250000 4298173.00000000 956.41802979 168 154 143
457919.56250000 4298173.50000000 956.52899170 174 160 150
457919.56250000 4298174.00000000 956.64898682 181 168 156
457920.06250000 4298165.00000000 958.59497070 167 153 136
457920.06250000 4298165.50000000 958.59997559 137 125 109
457920.06250000 4298166.00000000 958.57000732 119 110 97
457920.06250000 4298166.50000000 958.53997803 112 105 95
457920.06250000 4298167.00000000 958.30401611 105 99 90
457920.06250000 4298167.50000000 957.88598633 110 103 96
457920.06250000 4298168.00000000 957.49499512 127 119 112
457920.06250000 4298168.50000000 957.21997070 138 127 121
457920.06250000 4298169.00000000 956.93597412 140 128 121
457920.06250000 4298169.50000000 956.65802002 140 127 120
457920.06250000 4298170.00000000 956.37097168 140 128 120
457920.06250000 4298170.50000000 956.15197754 146 134 127
457920.06250000 4298171.00000000 956.00000000 151 138 131
457920.06250000 4298171.50000000 955.95599365 155 142 134
457920.06250000 4298172.00000000 955.93798828 157 144 136
457920.06250000 4298172.50000000 955.94500732 158 145 136
457920.06250000 4298173.00000000 956.04498291 160 147 138
457920.06250000 4298173.50000000 956.13702393 159 146 138
457920.06250000 4298174.00000000 956.16601563 159 146 138
457920.56250000 4298165.00000000 958.26898193 175 162 145
457920.56250000 4298165.50000000 958.25799561 142 130 114
457920.56250000 4298166.00000000 958.20202637 123 115 99
457920.56250000 4298166.50000000 958.11901855 118 108 95
457920.56250000 4298167.00000000 957.90899658 116 107 96
457920.56250000 4298167.50000000 957.54998779 124 116 106
457920.56250000 4298168.00000000 957.16900635 134 123 114
457920.56250000 4298168.50000000 956.89099121 149 136 128
457920.56250000 4298169.00000000 956.61297607 159 144 137
457920.56250000 4298169.50000000 956.28698730 161 146 139
457920.56250000 4298170.00000000 956.03198242 157 142 135
457920.56250000 4298170.50000000 955.89300537 153 140 132
457920.56250000 4298171.00000000 955.76800537 149 136 128
457920.56250000 4298171.50000000 955.67901611 153 140 132
457920.56250000 4298172.00000000 955.63299561 159 146 138
457920.56250000 4298172.50000000 955.60601807 167 153 145
457920.56250000 4298173.00000000 955.65301514 175 162 154
457920.56250000 4298173.50000000 955.73199463 158 145 137
457920.56250000 4298174.00000000 955.77001953 158 145 137
457921.06250000 4298165.00000000 957.84497070 186 171 155
457921.06250000 4298165.50000000 957.80297852 164 152 135
457921.06250000 4298166.00000000 957.65698242 144 132 116
457921.06250000 4298166.50000000 957.50500488 141 130 116
457921.06250000 4298167.00000000 957.36700439 140 131 118
457921.06250000 4298167.50000000 957.07202148 148 137 126
457921.06250000 4298168.00000000 956.70098877 158 145 134
457921.06250000 4298168.50000000 956.39599609 171 157 147
457921.06250000 4298169.00000000 956.15698242 179 166 155
457921.06250000 4298169.50000000 955.93103027 172 158 149
457921.06250000 4298170.00000000 955.69500732 166 151 142
457921.06250000 4298170.50000000 955.53302002 157 143 134
457921.06250000 4298171.00000000 955.37200928 149 135 126
457921.06250000 4298171.50000000 955.25799561 155 141 132
457921.06250000 4298172.00000000 955.21398926 163 150 141
457921.06250000 4298172.50000000 955.23699951 168 158 148
457921.06250000 4298173.00000000 955.27197266 172 162 153
457921.06250000 4298173.50000000 955.30401611 153 143 134
457921.06250000 4298174.00000000 955.33099365 150 139 133
457921.56250000 4298165.00000000 957.29498291 187 169 155
457921.56250000 4298165.50000000 957.24798584 183 167 151
457921.56250000 4298166.00000000 957.11700439 170 157 141
457921.56250000 4298166.50000000 956.93298340 166 152 136
457921.56250000 4298167.00000000 956.78900146 168 153 140
457921.56250000 4298167.50000000 956.46197510 169 155 142
457921.56250000 4298168.00000000 956.11798096 168 154 141
457921.56250000 4298168.50000000 955.92401123 167 152 139
457921.56250000 4298169.00000000 955.75701904 179 161 149
457921.56250000 4298169.50000000 955.53698730 177 161 148
457921.56250000 4298170.00000000 955.29302979 160 143 134
457921.56250000 4298170.50000000 955.18103027 163 148 139
457921.56250000 4298171.00000000 954.98999023 159 146 137
457921.56250000 4298171.50000000 954.82800293 160 147 139
457921.56250000 4298172.00000000 954.80401611 162 149 140
457921.56250000 4298172.50000000 954.80200195 180 167 155
457921.56250000 4298173.00000000 954.79302979 186 172 163
457921.56250000 4298173.50000000 954.77600098 166 151 143
457921.56250000 4298174.00000000 954.78002930 157 143 134
457922.06250000 4298165.00000000 956.62500000 186 168 154
457922.06250000 4298165.50000000 956.44396973 187 170 155
457922.06250000 4298166.00000000 956.37902832 174 161 145
457922.06250000 4298166.50000000 956.28698730 168 154 138
457922.06250000 4298167.00000000 956.14898682 168 153 140
457922.06250000 4298167.50000000 955.90002441 171 157 144
457922.06250000 4298168.00000000 955.71002197 167 152 139
457922.06250000 4298168.50000000 955.55902100 161 147 134
457922.06250000 4298169.00000000 955.33599854 181 164 151
457922.06250000 4298169.50000000 955.10400391 177 161 148
457922.06250000 4298170.00000000 954.88702393 154 137 127
457922.06250000 4298170.50000000 954.73999023 161 146 137
457922.06250000 4298171.00000000 954.55999756 166 152 143
457922.06250000 4298171.50000000 954.41802979 158 145 137
457922.06250000 4298172.00000000 954.36798096 156 143 135
457922.06250000 4298172.50000000 954.30700684 168 156 147
457922.06250000 4298173.00000000 954.25897217 183 171 162
457922.06250000 4298173.50000000 954.23400879 166 153 145
457922.06250000 4298174.00000000 954.23400879 159 148 140
457922.56250000 4298165.00000000 956.13397217 186 168 154
457922.56250000 4298165.50000000 955.95202637 184 167 152
457922.56250000 4298166.00000000 955.81201172 172 159 143
457922.56250000 4298166.50000000 955.71099854 168 155 139
457922.56250000 4298167.00000000 955.58197021 170 156 143
457922.56250000 4298167.50000000 955.40802002 176 162 149
457922.56250000 4298168.00000000 955.27398682 160 146 133
457922.56250000 4298168.50000000 955.11602783 163 149 136
457922.56250000 4298169.00000000 954.91101074 177 159 149
457922.56250000 4298169.50000000 954.71002197 173 156 146
457922.56250000 4298170.00000000 954.46197510 170 154 141
457922.56250000 4298170.50000000 954.21997070 180 166 154
457923.06250000 4298165.00000000 955.64202881 184 166 151
457923.06250000 4298165.50000000 955.44702148 181 163 149
457923.06250000 4298166.00000000 955.28698730 181 166 150
457923.06250000 4298166.50000000 955.19702148 177 161 146
457923.06250000 4298167.00000000 955.05999756 179 162 149
457923.06250000 4298167.50000000 954.91198730 183 167 153
457923.06250000 4298168.00000000 954.80499268 173 157 144
457923.06250000 4298168.50000000 954.65197754 170 154 141
457923.06250000 4298169.00000000 954.48498535 171 153 143
457923.06250000 4298169.50000000 954.28802490 172 155 145
457923.56250000 4298165.00000000 955.15301514 175 157 143
457923.56250000 4298165.50000000 954.99298096 184 167 150
457923.56250000 4298166.00000000 954.80999756 174 158 143
457923.56250000 4298166.50000000 954.74298096 184 168 153
457923.56250000 4298167.00000000 954.67797852 179 162 149
457923.56250000 4298167.50000000 954.59100342 181 166 152
457923.56250000 4298168.00000000 954.41601563 171 155 142
457923.56250000 4298168.50000000 954.22198486 169 153 140
457924.06250000 4298165.00000000 954.73901367 172 154 140
457924.06250000 4298165.50000000 954.63500977 177 160 144
457924.06250000 4298166.00000000 954.50097656 168 152 137
457924.06250000 4298166.50000000 954.40997314 181 166 150
457924.06250000 4298167.00000000 954.32800293 180 164 151
457924.06250000 4298167.50000000 954.23699951 180 164 151
457924.56250000 4298165.00000000 954.43402100 179 161 149
457924.56250000 4298165.50000000 954.32397461 180 161 147
457924.56250000 4298166.00000000 954.23400879 174 157 141
457925.06250000 4298165.00000000 954.17297363 179 162 150
457909.56250000 4298179.50000000 963.16198730 143 134 127
457909.56250000 4298180.00000000 963.17498779 172 162 151
457910.06250000 4298178.50000000 963.14099121 119 110 104
457910.06250000 4298179.00000000 963.08001709 120 111 106
457910.06250000 4298179.50000000 963.02697754 122 113 106
457910.06250000 4298180.00000000 963.01000977 137 126 117
457910.06250000 4298180.50000000 963.02001953 169 156 145
457910.06250000 4298181.00000000 963.06298828 185 171 158
457910.06250000 4298181.50000000 963.14099121 179 164 151
457910.56250000 4298177.50000000 963.15698242 127 118 106
457910.56250000 4298178.00000000 963.06402588 125 116 106
457910.56250000 4298178.50000000 962.97198486 119 111 104
457910.56250000 4298179.00000000 962.88598633 109 100 95
457910.56250000 4298179.50000000 962.83502197 110 101 96
457910.56250000 4298180.00000000 962.84698486 123 112 105
457910.56250000 4298180.50000000 962.87902832 148 135 126
457910.56250000 4298181.00000000 962.91900635 180 168 154
457910.56250000 4298181.50000000 962.97399902 180 167 153
457910.56250000 4298182.00000000 963.03100586 162 152 140
457910.56250000 4298182.50000000 963.08197021 141 132 121
457910.56250000 4298183.00000000 963.12097168 131 124 114
457911.06250000 4298174.50000000 962.98498535 164 148 133
457911.06250000 4298175.00000000 962.95800781 173 157 142
457911.06250000 4298175.50000000 962.94702148 184 168 152
457911.06250000 4298176.00000000 962.94299316 183 167 150
457911.06250000 4298176.50000000 962.93402100 175 162 145
457911.06250000 4298177.00000000 962.93200684 164 151 135
457911.06250000 4298177.50000000 962.90997314 152 138 125
457911.06250000 4298178.00000000 962.82397461 138 125 116
457911.06250000 4298178.50000000 962.71398926 124 113 107
457911.06250000 4298179.00000000 962.62597656 119 109 104
457911.06250000 4298179.50000000 962.59698486 120 111 106
457911.06250000 4298180.00000000 962.64300537 129 119 113
457911.06250000 4298180.50000000 962.68597412 146 136 127
457911.06250000 4298181.00000000 962.71197510 176 164 150
457911.06250000 4298181.50000000 962.74298096 168 155 139
457911.06250000 4298182.00000000 962.80200195 143 134 120
457911.06250000 4298182.50000000 962.89202881 136 127 116
457911.06250000 4298183.00000000 962.94201660 132 125 116
457911.56250000 4298174.50000000 962.66900635 184 167 152
457911.56250000 4298175.00000000 962.65600586 193 175 160
457911.56250000 4298175.50000000 962.65197754 193 176 160
457911.56250000 4298176.00000000 962.65002441 193 179 159
457911.56250000 4298176.50000000 962.63897705 196 180 164
457911.56250000 4298177.00000000 962.63500977 188 172 157
457911.56250000 4298177.50000000 962.63598633 171 157 143
457911.56250000 4298178.00000000 962.59698486 150 136 125
457911.56250000 4298178.50000000 962.52502441 137 126 117
457911.56250000 4298179.00000000 962.45697021 135 125 118
457911.56250000 4298179.50000000 962.43200684 134 125 117
457911.56250000 4298180.00000000 962.46002197 144 133 125
457911.56250000 4298180.50000000 962.49597168 163 152 142
457911.56250000 4298181.00000000 962.53601074 172 160 146
457911.56250000 4298181.50000000 962.58099365 147 135 119
