457949.06250000 4298158.00000000 940.03601074 148 137 133
457949.06250000 4298158.50000000 940.02502441 148 137 133
457949.06250000 4298159.00000000 940.00500488 148 137 133
457949.06250000 4298159.50000000 939.97497559 145 134 130
457949.06250000 4298160.00000000 939.96997070 149 138 134
457949.06250000 4298160.50000000 939.99298096 147 136 131
457949.06250000 4298161.00000000 940.05700684 146 133 127
457949.06250000 4298161.50000000 940.14501953 152 139 133
457949.06250000 4298162.00000000 940.17602539 158 145 139
457949.06250000 4298162.50000000 940.11700439 162 149 141
457949.06250000 4298163.00000000 940.07397461 164 151 145
457949.06250000 4298163.50000000 940.13397217 160 149 143
457949.06250000 4298164.00000000 940.17297363 147 136 130
457949.06250000 4298164.50000000 940.07098389 139 128 124
457949.56250000 4298155.50000000 939.71997070 142 132 131
457949.56250000 4298156.00000000 939.70697021 140 130 128
457949.56250000 4298156.50000000 939.71600342 143 132 130
457949.56250000 4298157.00000000 939.73901367 148 137 133
457949.56250000 4298157.50000000 939.72399902 154 143 139
457949.56250000 4298158.00000000 939.68402100 161 150 145
457949.56250000 4298158.50000000 939.65997314 161 150 144
457949.56250000 4298159.00000000 939.62902832 157 146 140
457949.56250000 4298159.50000000 939.58197021 150 139 135
457949.56250000 4298160.00000000 939.56500244 148 137 133
457949.56250000 4298160.50000000 939.63000488 153 142 136
457949.56250000 4298161.00000000 939.72497559 162 149 143
457949.56250000 4298161.50000000 939.77001953 161 148 142
457949.56250000 4298162.00000000 939.73999023 160 147 141
457949.56250000 4298162.50000000 939.65997314 161 149 143
457949.56250000 4298163.00000000 939.70202637 160 149 143
457949.56250000 4298163.50000000 939.80700684 156 145 139
457949.56250000 4298164.00000000 939.76702881 147 136 130
457949.56250000 4298164.50000000 939.63000488 142 132 128
457950.06250000 4298155.50000000 939.35302734 143 133 132
457950.06250000 4298156.00000000 939.36199951 142 132 130
457950.06250000 4298156.50000000 939.37200928 146 135 132
457950.06250000 4298157.00000000 939.35900879 154 143 140
457950.06250000 4298157.50000000 939.31597900 154 143 140
457950.06250000 4298158.00000000 939.27301025 149 138 134
457950.06250000 4298158.50000000 939.26397705 149 138 134
457950.06250000 4298159.00000000 939.26397705 151 140 135
457950.06250000 4298159.50000000 939.25701904 153 140 137
457950.06250000 4298160.00000000 939.29101563 154 141 138
457950.06250000 4298160.50000000 939.36102295 157 144 141
457950.06250000 4298161.00000000 939.40600586 160 146 142
457950.06250000 4298161.50000000 939.41198730 156 143 138
457950.06250000 4298162.00000000 939.38397217 157 144 140
457950.06250000 4298162.50000000 939.35699463 160 148 144
457950.06250000 4298163.00000000 939.39099121 161 150 145
457950.06250000 4298163.50000000 939.40301514 156 145 140
457950.06250000 4298164.00000000 939.29797363 147 136 132
457950.06250000 4298164.50000000 939.15502930 142 132 127
457950.56250000 4298155.50000000 939.05499268 140 130 128
457950.56250000 4298156.00000000 939.10998535 139 128 126
457950.56250000 4298156.50000000 939.11199951 144 133 131
457950.56250000 4298157.00000000 939.01397705 147 136 134
457950.56250000 4298157.50000000 938.88098145 146 135 133
457950.56250000 4298158.00000000 938.78100586 137 126 122
457950.56250000 4298158.50000000 938.81201172 136 125 121
457950.56250000 4298159.00000000 938.92297363 142 131 127
457950.56250000 4298159.50000000 938.99200439 149 135 132
457950.56250000 4298160.00000000 939.02801514 152 138 135
457950.56250000 4298160.50000000 939.04199219 154 140 137
457950.56250000 4298161.00000000 939.05700684 153 139 136
457950.56250000 4298161.50000000 939.06500244 151 137 134
457950.56250000 4298162.00000000 939.03497314 154 140 137
457950.56250000 4298162.50000000 939.02001953 157 146 142
457950.56250000 4298163.00000000 939.00097656 161 150 146
457950.56250000 4298163.50000000 938.90802002 152 141 137
457950.56250000 4298164.00000000 938.77301025 145 134 130
457950.56250000 4298164.50000000 938.64898682 142 131 127
457951.06250000 4298155.50000000 938.61700439 136 126 124
457951.06250000 4298156.00000000 938.66601563 135 124 122
457951.06250000 4298156.50000000 938.68798828 136 125 123
457951.06250000 4298157.00000000 938.62200928 135 124 122
457951.06250000 4298157.50000000 938.52600098 136 125 123
457951.06250000 4298158.00000000 938.43499756 135 124 121
457951.06250000 4298158.50000000 938.46301270 138 127 123
457951.06250000 4298159.00000000 938.58801270 140 129 125
457951.06250000 4298159.50000000 938.67797852 141 130 126
457951.06250000 4298160.00000000 938.70898438 145 134 130
457951.06250000 4298160.50000000 938.71002197 148 137 133
457951.06250000 4298161.00000000 938.72302246 148 137 133
457951.06250000 4298161.50000000 938.74200439 146 135 131
457951.06250000 4298162.00000000 938.69897461 147 136 132
457951.06250000 4298162.50000000 938.60998535 149 138 134
457951.06250000 4298163.00000000 938.50598145 148 137 133
457951.06250000 4298163.50000000 938.38201904 143 132 128
457951.06250000 4298164.00000000 938.25201416 143 132 128
457951.06250000 4298164.50000000 938.12597656 144 133 129
457951.56250000 4298155.50000000 938.09802246 134 124 122
457951.56250000 4298156.00000000 938.10699463 136 125 123
457951.56250000 4298156.50000000 938.12200928 138 127 125
457951.56250000 4298157.00000000 938.10797119 139 128 126
457951.56250000 4298157.50000000 938.08197021 140 129 127
457951.56250000 4298158.00000000 938.06201172 142 131 129
457951.56250000 4298158.50000000 938.12500000 137 126 123
457951.56250000 4298159.00000000 938.26202393 139 128 124
457951.56250000 4298159.50000000 938.36700439 143 132 128
457951.56250000 4298160.00000000 938.42498779 145 134 130
457951.56250000 4298160.50000000 938.43701172 143 132 129
457951.56250000 4298161.00000000 938.43701172 145 134 130
457951.56250000 4298161.50000000 938.44598389 143 132 129
457951.56250000 4298162.00000000 938.35498047 144 133 129
457951.56250000 4298162.50000000 938.14898682 147 136 133
457951.56250000 4298163.00000000 937.99401855 140 129 126
457951.56250000 4298163.50000000 937.90502930 136 125 121
457951.56250000 4298164.00000000 937.78100586 138 127 123
457951.56250000 4298164.50000000 937.61401367 143 132 129
457952.06250000 4298155.50000000 937.65002441 140 129 127
457952.06250000 4298156.00000000 937.64898682 145 134 131
457952.06250000 4298156.50000000 937.63897705 146 135 131
457952.06250000 4298157.00000000 937.61602783 145 134 130
457952.06250000 4298157.50000000 937.60198975 145 134 132
457952.06250000 4298158.00000000 937.62500000 146 135 133
457952.06250000 4298158.50000000 937.67401123 142 131 129
457952.06250000 4298159.00000000 937.71997070 139 128 126
457952.06250000 4298159.50000000 937.78698730 143 132 130
457952.06250000 4298160.00000000 937.86700439 145 134 132
457952.06250000 4298160.50000000 937.91101074 141 130 128
457952.06250000 4298161.00000000 937.90100098 142 131 129
457952.06250000 4298161.50000000 937.84100342 141 130 128
457952.06250000 4298162.00000000 937.76800537 143 132 130
457952.06250000 4298162.50000000 937.67401123 142 132 130
457952.06250000 4298163.00000000 937.60400391 137 127 125
457952.06250000 4298163.50000000 937.51800537 131 121 119
457952.06250000 4298164.00000000 937.35699463 133 123 121
457952.06250000 4298164.50000000 937.14801025 132 122 120
457952.56250000 4298155.50000000 937.21099854 152 141 137
457952.56250000 4298156.00000000 937.17901611 155 144 140
457952.56250000 4298156.50000000 937.16802979 157 146 142
457952.56250000 4298157.00000000 937.17602539 155 144 140
457952.56250000 4298157.50000000 937.18200684 151 140 136
457952.56250000 4298158.00000000 937.22601318 149 138 136
457952.56250000 4298158.50000000 937.25201416 147 136 134
457952.56250000 4298159.00000000 937.24102783 145 134 132
457952.56250000 4298159.50000000 937.25201416 144 134 132
457952.56250000 4298160.00000000 937.25598145 147 137 135
457952.56250000 4298160.50000000 937.28698730 145 135 133
457952.56250000 4298161.00000000 937.26000977 142 132 130
457952.56250000 4298161.50000000 937.10900879 141 131 129
457952.56250000 4298162.00000000 937.06500244 142 132 130
457952.56250000 4298162.50000000 937.06298828 140 130 128
457952.56250000 4298163.00000000 937.04199219 135 125 123
457952.56250000 4298163.50000000 936.96301270 131 121 119
457952.56250000 4298164.00000000 936.81201172 132 122 120
457952.56250000 4298164.50000000 936.66400146 133 123 121
457953.06250000 4298155.50000000 936.87597656 156 145 139
457953.06250000 4298156.00000000 936.78497314 155 144 138
457953.06250000 4298156.50000000 936.76800537 153 142 138
457953.06250000 4298157.00000000 936.80297852 150 139 135
457953.06250000 4298157.50000000 936.81896973 150 139 135
457953.06250000 4298158.00000000 936.84997559 146 135 133
457953.06250000 4298158.50000000 936.89202881 145 134 132
457953.06250000 4298159.00000000 936.86700439 147 136 134
457953.06250000 4298159.50000000 936.80401611 146 136 134
457953.06250000 4298160.00000000 936.74298096 145 135 133
457953.06250000 4298160.50000000 936.70300293 145 135 133
457953.06250000 4298161.00000000 936.66302490 140 130 128
457953.06250000 4298161.50000000 936.54901123 139 129 127
457953.06250000 4298162.00000000 936.50402832 141 131 129
457953.06250000 4298162.50000000 936.48901367 138 128 126
457953.06250000 4298163.00000000 936.42199707 136 126 124
457953.06250000 4298163.50000000 936.29199219 135 125 123
457953.06250000 4298164.00000000 936.17999268 135 125 123
457953.06250000 4298164.50000000 936.17102051 133 123 121
457953.56250000 4298155.50000000 936.41699219 159 146 140
457953.56250000 4298156.00000000 936.28198242 152 142 136
457953.56250000 4298156.50000000 936.32800293 146 137 132
457953.56250000 4298157.00000000 936.47399902 144 135 130
457953.56250000 4298157.50000000 936.48602295 141 132 127
457953.56250000 4298158.00000000 936.34802246 139 130 125
457953.56250000 4298158.50000000 936.26300049 139 130 125
457953.56250000 4298159.00000000 936.24401855 139 130 125
457953.56250000 4298159.50000000 936.16101074 143 132 130
457953.56250000 4298160.00000000 936.11901855 145 134 132
457953.56250000 4298160.50000000 936.10498047 145 134 132
457953.56250000 4298161.00000000 936.10302734 144 133 129
457974.56250000 4298163.50000000 936.57702637 156 149 143
457974.56250000 4298164.00000000 937.02801514 145 138 132
457974.56250000 4298164.50000000 937.22198486 144 138 134
457975.06250000 4298162.00000000 936.12402344 186 177 171
457975.06250000 4298162.50000000 936.80603027 190 181 174
457975.06250000 4298163.00000000 937.61499023 179 170 163
457975.06250000 4298163.50000000 938.20501709 168 158 151
457975.06250000 4298164.00000000 938.77697754 163 156 149
457975.06250000 4298164.50000000 939.23297119 157 150 144
457975.56250000 4298161.50000000 936.78002930 154 143 137
457975.56250000 4298162.00000000 937.48699951 161 150 144
457975.56250000 4298162.50000000 938.15997314 176 167 158
457975.56250000 4298163.00000000 938.90600586 184 175 166
457975.56250000 4298163.50000000 939.53802490 180 171 162
457975.56250000 4298164.00000000 940.03100586 164 155 148
457975.56250000 4298164.50000000 940.56597900 161 154 147
457976.06250000 4298160.50000000 936.24200439 185 174 168
457976.06250000 4298161.00000000 936.92797852 176 166 159
457976.06250000 4298161.50000000 937.63500977 190 179 173
457976.06250000 4298162.00000000 938.33300781 169 158 152
457976.06250000 4298162.50000000 939.04498291 180 170 164
457976.06250000 4298163.00000000 939.88897705 196 187 180
457976.06250000 4298163.50000000 940.66400146 184 175 168
457976.06250000 4298164.00000000 941.15600586 190 181 174
457976.06250000 4298164.50000000 941.55297852 201 192 185
457976.56250000 4298160.00000000 936.42498779 181 171 162
457976.56250000 4298160.50000000 936.94299316 173 163 154
457976.56250000 4298161.00000000 937.58197021 179 169 160
457976.56250000 4298161.50000000 938.25299072 225 215 206
457976.56250000 4298162.00000000 938.95898438 179 168 159
457976.56250000 4298162.50000000 939.81597900 179 168 161
457976.56250000 4298163.00000000 940.67999268 186 175 170
457976.56250000 4298163.50000000 941.33300781 201 190 184
457976.56250000 4298164.00000000 941.73498535 224 213 207
457976.56250000 4298164.50000000 942.12402344 202 191 185
457977.06250000 4298159.00000000 936.19799805 171 158 149
457977.06250000 4298159.50000000 936.57702637 183 169 161
457977.06250000 4298160.00000000 937.03100586 168 155 147
457977.06250000 4298160.50000000 937.52001953 168 155 147
457977.06250000 4298161.00000000 938.09600830 170 157 149
457977.06250000 4298161.50000000 938.72100830 185 172 164
457977.06250000 4298162.00000000 939.48602295 189 176 168
457977.06250000 4298162.50000000 940.34997559 179 168 159
457977.06250000 4298163.00000000 941.12902832 194 184 177
457977.06250000 4298163.50000000 941.75897217 210 199 193
457977.06250000 4298164.00000000 942.19000244 216 205 199
457977.06250000 4298164.50000000 942.57000732 219 208 202
457977.56250000 4298158.00000000 936.19201660 186 173 164
457977.56250000 4298158.50000000 936.41900635 187 173 164
457977.56250000 4298159.00000000 936.74499512 179 166 156
457977.56250000 4298159.50000000 937.17297363 179 166 156
457977.56250000 4298160.00000000 937.61499023 175 162 153
457977.56250000 4298160.50000000 938.01397705 177 164 155
457977.56250000 4298161.00000000 938.49597168 187 174 165
457977.56250000 4298161.50000000 939.15600586 185 172 163
457977.56250000 4298162.00000000 940.00701904 184 170 161
457977.56250000 4298162.50000000 940.80401611 170 160 151
457977.56250000 4298163.00000000 941.52001953 192 183 173
457977.56250000 4298163.50000000 942.21502686 204 194 185
457977.56250000 4298164.00000000 942.60601807 213 203 194
457977.56250000 4298164.50000000 942.91101074 216 206 197
457978.06250000 4298157.00000000 936.11700439 164 151 142
457978.06250000 4298157.50000000 936.41900635 168 153 144
457978.06250000 4298158.00000000 936.65197754 171 157 148
457978.06250000 4298158.50000000 936.91400146 166 151 142
457978.06250000 4298159.00000000 937.27600098 176 161 152
457978.06250000 4298159.50000000 937.68902588 187 175 164
457978.06250000 4298160.00000000 938.05297852 193 180 170
457978.06250000 4298160.50000000 938.41699219 195 184 172
457978.06250000 4298161.00000000 938.95501709 195 184 172
457978.06250000 4298161.50000000 939.69299316 191 179 168
457978.06250000 4298162.00000000 940.53802490 176 164 153
457978.06250000 4298162.50000000 941.32202148 173 161 153
457978.06250000 4298163.00000000 942.04400635 184 171 163
457978.06250000 4298163.50000000 942.60900879 197 185 177
457978.06250000 4298164.00000000 942.94799805 217 205 196
457978.06250000 4298164.50000000 943.28198242 215 203 194
457978.56250000 4298156.00000000 936.08801270 180 168 158
457978.56250000 4298156.50000000 936.39001465 176 163 154
457978.56250000 4298157.00000000 936.72198486 176 163 154
457978.56250000 4298157.50000000 937.02600098 173 159 150
457978.56250000 4298158.00000000 937.30603027 170 156 147
457978.56250000 4298158.50000000 937.55401611 161 145 136
457978.56250000 4298159.00000000 937.79797363 179 161 153
457978.56250000 4298159.50000000 938.12597656 190 179 166
457978.56250000 4298160.00000000 938.43402100 191 179 167
457978.56250000 4298160.50000000 938.83398438 195 184 171
457978.56250000 4298161.00000000 939.43798828 199 187 175
457978.56250000 4298161.50000000 940.19000244 198 186 174
457978.56250000 4298162.00000000 941.10101318 190 179 166
457978.56250000 4298162.50000000 941.98400879 193 180 171
457978.56250000 4298163.00000000 942.62799072 191 179 171
457978.56250000 4298163.50000000 943.07397461 206 193 185
457978.56250000 4298164.00000000 943.41302490 217 204 196
457978.56250000 4298164.50000000 943.76098633 204 191 183
457979.06250000 4298155.50000000 936.35400391 177 163 152
457979.06250000 4298156.00000000 936.60601807 181 168 156
457979.06250000 4298156.50000000 936.88397217 189 175 163
457979.06250000 4298157.00000000 937.24401855 198 184 172
457979.06250000 4298157.50000000 937.60198975 202 186 174
457979.06250000 4298158.00000000 937.87597656 183 166 153
457979.06250000 4298158.50000000 938.07397461 171 153 142
457979.06250000 4298159.00000000 938.26800537 172 154 142
457979.06250000 4298159.50000000 938.53601074 181 166 152
457979.06250000 4298160.00000000 938.91900635 181 164 152
457979.06250000 4298160.50000000 939.47302246 192 179 167
457979.06250000 4298161.00000000 940.11999512 197 184 172
457979.06250000 4298161.50000000 940.92901611 198 184 175
457979.06250000 4298162.00000000 941.84100342 195 183 173
457979.06250000 4298162.50000000 942.62200928 195 185 174
457979.06250000 4298163.00000000 943.16699219 188 179 166
457979.06250000 4298163.50000000 943.62902832 208 198 186
457979.06250000 4298164.00000000 943.97399902 199 186 176
457979.06250000 4298164.50000000 944.25000000 196 184 174
457979.56250000 4298155.50000000 936.81597900 168 154 143
457979.56250000 4298156.00000000 937.05401611 172 158 147
457979.56250000 4298156.50000000 937.30700684 185 171 158
457979.56250000 4298157.00000000 937.64099121 198 184 171
457979.56250000 4298157.50000000 937.98199463 191 175 162
457979.56250000 4298158.00000000 938.25598145 187 171 158
457979.56250000 4298158.50000000 938.52197266 179 161 149
457979.56250000 4298159.00000000 938.81402588 173 155 143
457979.56250000 4298159.50000000 939.12902832 176 160 147
457979.56250000 4298160.00000000 939.64398193 179 163 150
457979.56250000 4298160.50000000 940.29901123 195 181 170
457979.56250000 4298161.00000000 940.96697998 200 186 175
457979.56250000 4298161.50000000 941.82098389 200 186 175
457979.56250000 4298162.00000000 942.67602539 197 184 174
457979.56250000 4298162.50000000 943.29498291 195 184 171
457979.56250000 4298163.00000000 943.75500488 194 183 171
457979.56250000 4298163.50000000 944.20800781 197 185 173
457979.56250000 4298164.00000000 944.51098633 194 183 171
457979.56250000 4298164.50000000 944.71197510 195 181 168
457980.06250000 4298155.50000000 937.27099609 166 151 140
457980.06250000 4298156.00000000 937.64697266 176 162 150
457980.06250000 4298156.50000000 938.01501465 180 167 153
457980.06250000 4298157.00000000 938.30297852 187 173 160
457980.06250000 4298157.50000000 938.51098633 187 172 159
457980.06250000 4298158.00000000 938.75299072 190 175 162
457980.06250000 4298158.50000000 939.19097900 183 167 153
457980.06250000 4298159.00000000 939.71600342 184 168 154
457980.06250000 4298159.50000000 940.19201660 190 176 163
457980.06250000 4298160.00000000 940.68798828 197 183 170
457980.06250000 4298160.50000000 941.31500244 203 189 176
457980.06250000 4298161.00000000 942.08300781 201 187 176
457980.06250000 4298161.50000000 942.85998535 199 185 174
457980.06250000 4298162.00000000 943.53802490 199 185 174
457980.06250000 4298162.50000000 944.04699707 198 184 173
457980.06250000 4298163.00000000 944.36401367 194 180 168
457980.06250000 4298163.50000000 944.67401123 198 184 171
457980.06250000 4298164.00000000 944.91497803 205 190 175
457980.06250000 4298164.50000000 945.01501465 209 194 178
457980.56250000 4298155.50000000 937.81896973 180 167 155
457980.56250000 4298156.00000000 938.24700928 181 168 154
457980.56250000 4298156.50000000 938.63702393 180 167 153
457980.56250000 4298157.00000000 938.99298096 189 175 162
457980.56250000 4298157.50000000 939.34100342 188 174 161
457980.56250000 4298158.00000000 939.72198486 188 174 161
457980.56250000 4298158.50000000 940.30999756 196 183 170
457980.56250000 4298159.00000000 941.01098633 198 184 171
457980.56250000 4298159.50000000 941.60797119 197 184 171
457980.56250000 4298160.00000000 942.10498047 199 185 172
457980.56250000 4298160.50000000 942.71697998 201 187 174
457980.56250000 4298161.00000000 943.38702393 198 184 171
457980.56250000 4298161.50000000 943.91198730 198 184 171
457980.56250000 4298162.00000000 944.32702637 196 183 170
457980.56250000 4298162.50000000 944.62902832 201 185 172
457980.56250000 4298163.00000000 944.85900879 207 191 178
457980.56250000 4298163.50000000 945.05401611 215 199 184
457981.06250000 4298155.50000000 938.49298096 195 181 171
457981.06250000 4298156.00000000 938.96002197 188 174 163
457981.06250000 4298156.50000000 939.39099121 189 175 162
457981.06250000 4298157.00000000 939.92700195 196 183 170
457981.06250000 4298157.50000000 940.50201416 195 181 168
457981.06250000 4298158.00000000 941.09698486 195 181 168
457981.06250000 4298158.50000000 941.79302979 196 184 171
457981.06250000 4298159.00000000 942.49700928 201 189 175
457981.06250000 4298159.50000000 943.05200195 198 184 173
457981.06250000 4298160.00000000 943.51599121 198 184 171
457981.06250000 4298160.50000000 943.94500732 196 183 170
457981.06250000 4298161.00000000 944.29699707 197 184 171
457981.06250000 4298161.50000000 944.58197021 204 188 175
457981.06250000 4298162.00000000 944.87701416 211 195 181
457981.06250000 4298162.50000000 945.08898926 216 203 187
457981.56250000 4298155.50000000 939.42602539 202 188 177
457981.56250000 4298156.00000000 940.10998535 201 187 176
457981.56250000 4298156.50000000 940.77697754 201 187 174
457981.56250000 4298157.00000000 941.46801758 201 187 174
457981.56250000 4298157.50000000 942.05102539 201 187 174
457981.56250000 4298158.00000000 942.60302734 196 183 170
457981.56250000 4298158.50000000 943.19000244 196 184 171
457981.56250000 4298159.00000000 943.72900391 199 187 173
457981.56250000 4298159.50000000 944.13598633 198 186 174
457981.56250000 4298160.00000000 944.46697998 199 186 173
457981.56250000 4298160.50000000 944.67297363 204 190 177
457981.56250000 4298161.00000000 944.83502197 209 195 182
457981.56250000 4298161.50000000 945.00402832 218 202 187
457982.06250000 4298155.50000000 940.63201904 201 188 176
457982.06250000 4298156.00000000 941.50201416 202 189 177
457982.06250000 4298156.50000000 942.25000000 205 192 180
457982.06250000 4298157.00000000 942.90301514 206 193 179
457982.06250000 4298157.50000000 943.45397949 207 193 180
457982.06250000 4298158.00000000 943.86199951 202 189 176
457982.06250000 4298158.50000000 944.17401123 203 189 174
457982.06250000 4298159.00000000 944.47998047 209 194 180
457982.06250000 4298159.50000000 944.74102783 208 193 179
457982.06250000 4298160.00000000 944.92999268 213 197 183
457982.06250000 4298160.50000000 945.01898193 216 201 187
457982.06250000 4298161.00000000 945.11297607 219 204 190
457982.56250000 4298155.50000000 941.69702148 204 192 180
457982.56250000 4298156.00000000 942.49902344 205 194 182
457982.56250000 4298156.50000000 943.20001221 204 192 179
457982.56250000 4298157.00000000 943.76702881 207 195 181
457982.56250000 4298157.50000000 944.20599365 213 199 186
457982.56250000 4298158.00000000 944.50500488 215 201 187
457982.56250000 4298158.50000000 944.70098877 223 207 192
457982.56250000 4298159.00000000 944.86999512 216 200 185
457982.56250000 4298159.50000000 945.02099609 215 199 184
457983.06250000 4298155.50000000 942.49902344 213 201 187
457983.06250000 4298156.00000000 943.14599609 206 194 180
457983.06250000 4298156.50000000 943.72900391 201 189 175
457983.06250000 4298157.00000000 944.21697998 211 199 185
457983.06250000 4298157.50000000 944.55102539 218 204 191
457983.06250000 4298158.00000000 944.76898193 218 204 190
457983.06250000 4298158.50000000 944.92797852 215 199 184
457983.06250000 4298159.00000000 945.05999756 209 193 178
457983.56250000 4298155.50000000 943.02600098 214 202 188
457983.56250000 4298156.00000000 943.57098389 203 191 177
457983.56250000 4298156.50000000 944.01800537 191 179 165
457983.56250000 4298157.00000000 944.43597412 208 195 182
457983.56250000 4298157.50000000 944.74298096 211 197 184
457983.56250000 4298158.00000000 944.92297363 217 204 188
457983.56250000 4298158.50000000 945.06298828 209 194 179
457984.06250000 4298155.50000000 943.30798340 203 190 177
457984.06250000 4298156.00000000 943.78302002 191 179 164
457984.06250000 4298156.50000000 944.18298340 189 176 161
457984.06250000 4298157.00000000 944.53601074 209 196 181
457984.06250000 4298157.50000000 944.82098389 218 205 189
457984.06250000 4298158.00000000 944.99298096 215 202 186
457984.56250000 4298155.50000000 943.51800537 203 190 174
457984.56250000 4298156.00000000 943.94702148 194 181 165
457984.56250000 4298156.50000000 944.30102539 197 184 168
457984.56250000 4298157.00000000 944.57897949 215 202 186
457984.56250000 4298157.50000000 944.82397461 218 205 189
457984.56250000 4298158.00000000 944.99700928 210 197 181
457985.06250000 4298155.50000000 943.75701904 202 189 173
457985.06250000 4298156.00000000 944.14398193 193 180 164
457985.06250000 4298156.50000000 944.42498779 211 198 182
457985.06250000 4298157.00000000 944.62597656 221 208 192
457985.06250000 4298157.50000000 944.82000732 215 202 186
457985.06250000 4298158.00000000 944.97497559 214 201 184
457985.06250000 4298158.50000000 945.08398438 212 199 182
457985.56250000 4298155.50000000 943.93798828 200 184 170
457985.56250000 4298156.00000000 944.28802490 202 186 171
457985.56250000 4298156.50000000 944.50799561 222 209 192
457985.56250000 4298157.00000000 944.65399170 223 210 193
457985.56250000 4298157.50000000 944.81500244 221 208 191
457985.56250000 4298158.00000000 944.94000244 221 208 192
457985.56250000 4298158.50000000 945.04498291 220 207 191
457986.06250000 4298155.50000000 944.10400391 213 197 182
457986.06250000 4298156.00000000 944.36297607 217 202 186
457986.06250000 4298156.50000000 944.51702881 222 209 192
457986.06250000 4298157.00000000 944.63702393 222 209 192
457986.06250000 4298157.50000000 944.78997803 226 213 196
457986.06250000 4298158.00000000 944.89801025 225 212 196
457986.06250000 4298158.50000000 945.00598145 224 211 195
457986.56250000 4298155.50000000 944.22100830 221 205 189
457986.56250000 4298156.00000000 944.40698242 222 207 191
457986.56250000 4298156.50000000 944.51202393 220 207 190
457986.56250000 4298157.00000000 944.61499023 223 210 193
457986.56250000 4298157.50000000 944.76599121 225 212 195
457986.56250000 4298158.00000000 944.86798096 226 213 197
457986.56250000 4298158.50000000 944.96002197 227 215 199
457987.06250000 4298155.50000000 944.23199463 221 205 189
457987.06250000 4298156.00000000 944.39599609 221 205 189
457987.06250000 4298156.50000000 944.48999023 219 203 187
457987.06250000 4298157.00000000 944.59197998 218 205 188
457987.06250000 4298157.50000000 944.72802734 221 208 191
457987.06250000 4298158.00000000 944.82800293 226 213 197
457987.06250000 4298158.50000000 944.92498779 230 217 201
457987.06250000 4298159.00000000 945.08197021 230 217 201
457987.56250000 4298155.50000000 944.21600342 219 203 187
457987.56250000 4298156.00000000 944.34802246 217 201 185
457987.56250000 4298156.50000000 944.43103027 214 198 182
457987.56250000 4298157.00000000 944.54101563 219 203 187
457987.56250000 4298157.50000000 944.67700195 220 207 190
457987.56250000 4298158.00000000 944.80297852 228 215 199
457987.56250000 4298158.50000000 944.93402100 231 218 202
457987.56250000 4298159.00000000 945.08099365 230 218 202
457988.06250000 4298155.50000000 944.20898438 220 204 188
457988.06250000 4298156.00000000 944.32098389 215 200 182
457988.06250000 4298156.50000000 944.39202881 213 197 181
457988.06250000 4298157.00000000 944.49798584 219 203 187
457988.06250000 4298157.50000000 944.63598633 225 212 195
457988.06250000 4298158.00000000 944.78900146 231 217 201
457988.06250000 4298158.50000000 944.94201660 228 217 201
457988.06250000 4298159.00000000 945.09399414 226 217 200
457988.56250000 4298155.50000000 944.18499756 217 204 188
457988.56250000 4298156.00000000 944.30297852 214 201 185
457988.56250000 4298156.50000000 944.37902832 215 202 186
457988.56250000 4298157.00000000 944.47998047 223 210 194
457988.56250000 4298157.50000000 944.62597656 228 216 200
457988.56250000 4298158.00000000 944.80200195 228 216 200
457988.56250000 4298158.50000000 944.97302246 224 215 198
457989.06250000 4298155.50000000 944.15197754 210 197 181
457989.06250000 4298156.00000000 944.28100586 218 206 190
457989.06250000 4298156.50000000 944.38500977 223 211 195
457989.06250000 4298157.00000000 944.50097656 227 215 199
457989.06250000 4298157.50000000 944.64599609 231 218 202
457989.06250000 4298158.00000000 944.82000732 224 215 198
457989.06250000 4298158.50000000 945.00598145 224 215 198
457989.56250000 4298155.50000000 944.13397217 207 195 181
457989.56250000 4298156.00000000 944.25201416 221 209 195
457989.56250000 4298156.50000000 944.38000488 227 215 201
457989.56250000 4298157.00000000 944.51599121 227 215 201
457989.56250000 4298157.50000000 944.67498779 230 217 204
457989.56250000 4298158.00000000 944.85601807 223 214 199
457989.56250000 4298158.50000000 945.06097412 223 214 199
457990.06250000 4298155.50000000 944.12597656 201 190 177
457990.06250000 4298156.00000000 944.23498535 207 196 184
457990.06250000 4298156.50000000 944.37799072 213 202 189
457990.06250000 4298157.00000000 944.55902100 214 204 191
457990.06250000 4298157.50000000 944.75897217 218 208 195
457990.06250000 4298158.00000000 944.95599365 221 212 198
457990.56250000 4298155.50000000 944.11401367 197 187 175
457990.56250000 4298156.00000000 944.24102783 197 187 175
457990.56250000 4298156.50000000 944.40100098 198 188 176
457990.56250000 4298157.00000000 944.56201172 204 194 182
457990.56250000 4298157.50000000 944.76397705 216 206 194
457990.56250000 4298158.00000000 945.02801514 222 214 201
457991.06250000 4298155.50000000 944.09997559 196 188 177
457991.06250000 4298156.00000000 944.23901367 192 184 173
457991.06250000 4298156.50000000 944.41802979 195 185 175
457991.06250000 4298157.00000000 944.59301758 203 193 183
457991.06250000 4298157.50000000 944.85498047 214 204 194
457991.56250000 4298155.50000000 944.11602783 193 185 173
457991.56250000 4298156.00000000 944.29400635 198 190 179
457991.56250000 4298156.50000000 944.47302246 196 186 176
457991.56250000 4298157.00000000 944.64599609 199 189 179
457991.56250000 4298157.50000000 944.95800781 208 200 189
457992.06250000 4298155.50000000 944.08599854 190 184 170
457992.06250000 4298156.00000000 944.31701660 189 180 167
457992.06250000 4298156.50000000 944.54699707 188 179 168
457992.06250000 4298157.00000000 944.75201416 189 179 170
457992.06250000 4298157.50000000 945.10302734 194 186 176
457992.56250000 4298155.50000000 944.07702637 195 185 173
457992.56250000 4298156.00000000 944.39001465 187 179 167
457992.56250000 4298156.50000000 944.68402100 171 161 152
457992.56250000 4298157.00000000 944.91302490 188 179 171
457993.06250000 4298155.50000000 944.09197998 195 185 175
457993.06250000 4298156.00000000 944.43798828 188 179 168
457993.06250000 4298156.50000000 944.76898193 184 173 164
457993.06250000 4298157.00000000 945.01300049 187 179 171
457993.56250000 4298155.50000000 944.17797852 204 192 179
457993.56250000 4298156.00000000 944.47497559 197 186 177
457993.56250000 4298156.50000000 944.78497314 189 179 172
457994.06250000 4298155.50000000 944.22302246 206 193 179
457994.06250000 4298156.00000000 944.48999023 201 190 178
457994.56250000 4298155.50000000 944.23199463 207 194 177
457994.56250000 4298156.00000000 944.50000000 200 189 175
457995.06250000 4298155.50000000 944.26397705 204 191 175
457995.06250000 4298156.00000000 944.52600098 201 188 174
457995.56250000 4298155.50000000 944.27197266 202 189 173
457995.56250000 4298156.00000000 944.52801514 200 188 173
457996.06250000 4298155.50000000 944.26898193 198 185 170
457996.06250000 4298156.00000000 944.52301025 199 185 172
457996.06250000 4298156.50000000 944.91302490 196 184 173
457996.56250000 4298155.50000000 944.25799561 200 184 170
457996.56250000 4298156.00000000 944.53698730 200 186 173
457996.56250000 4298156.50000000 944.87799072 190 179 166
457997.06250000 4298155.50000000 944.24401855 204 188 173
457997.06250000 4298156.00000000 944.53100586 193 179 166
457997.06250000 4298156.50000000 944.90002441 185 173 161
457997.56250000 4298155.50000000 944.25097656 211 195 182
457997.56250000 4298156.00000000 944.52600098 194 180 167
457997.56250000 4298156.50000000 944.87402344 190 179 165
457998.06250000 4298155.50000000 944.31402588 206 189 178
457998.06250000 4298156.00000000 944.52398682 195 181 171
457998.06250000 4298156.50000000 944.87799072 193 180 171
457998.56250000 4298155.50000000 944.39501953 196 183 173
457998.56250000 4298156.00000000 944.55603027 197 184 175
457998.56250000 4298156.50000000 944.88299561 193 184 173
457999.06250000 4298155.50000000 944.49401855 189 179 168
457999.06250000 4298156.00000000 944.64202881 191 181 171
457999.06250000 4298156.50000000 944.90502930 192 183 172
457999.56250000 4298155.50000000 944.54901123 173 163 153
457999.56250000 4298156.00000000 944.69097900 177 168 157
457999.56250000 4298156.50000000 944.93103027 173 163 152
458000.06250000 4298155.50000000 944.57397461 185 173 164
458000.06250000 4298156.00000000 944.72100830 184 172 162
458000.06250000 4298156.50000000 944.96197510 179 168 154
458000.56250000 4298155.50000000 944.58099365 175 158 148
458000.56250000 4298156.00000000 944.76202393 177 160 150
458000.56250000 4298156.50000000 945.00299072 188 174 161
458001.06250000 4298155.50000000 944.59997559 168 150 138
458001.06250000 4298156.00000000 944.81597900 158 140 129
458001.06250000 4298156.50000000 945.05401611 168 152 139
458001.56250000 4298155.50000000 944.63098145 161 145 132
458001.56250000 4298156.00000000 944.85498047 151 135 121
458001.56250000 4298156.50000000 945.10198975 161 145 130
458002.06250000 4298155.50000000 944.65002441 160 144 133
458002.06250000 4298156.00000000 944.90600586 149 135 124
458002.56250000 4298155.50000000 944.69598389 161 147 136
458002.56250000 4298156.00000000 944.95898438 162 149 141
458003.06250000 4298155.50000000 944.77301025 171 157 148
458003.06250000 4298156.00000000 945.01397705 173 160 153
458003.56250000 4298155.50000000 944.92602539 153 140 132
458004.06250000 4298155.50000000 945.08099365 146 135 129
457940.56250000 4298165.00000000 945.09197998 204 187 170
457940.56250000 4298165.50000000 945.09600830 209 192 174
457940.56250000 4298166.00000000 945.09997559 210 193 177
457940.56250000 4298166.50000000 945.06201172 211 194 178
457940.56250000 4298167.00000000 945.02600098 211 194 178
457940.56250000 4298167.50000000 945.04797363 213 196 180
457940.56250000 4298168.00000000 945.05798340 211 194 178
457940.56250000 4298168.50000000 945.11401367 212 195 179
457941.06250000 4298165.00000000 944.79797363 208 191 173
457941.06250000 4298165.50000000 944.83599854 208 191 173
457941.06250000 4298166.00000000 944.88201904 207 190 174
457941.06250000 4298166.50000000 944.88702393 210 193 177
457941.06250000 4298167.00000000 944.85797119 210 193 177
457941.06250000 4298167.50000000 944.83502197 212 195 179
457941.06250000 4298168.00000000 944.80798340 210 193 177
457941.06250000 4298168.50000000 944.85601807 210 193 177
457941.06250000 4298169.00000000 944.98498535 211 194 176
457941.06250000 4298169.50000000 945.03399658 209 192 174
457941.06250000 4298170.00000000 945.04602051 209 192 174
457941.06250000 4298170.50000000 945.09899902 212 195 177
457941.56250000 4298165.00000000 944.53997803 206 189 171
457941.56250000 4298165.50000000 944.59399414 208 191 173
457941.56250000 4298166.00000000 944.65502930 206 189 173
457941.56250000 4298166.50000000 944.64801025 205 188 172
457941.56250000 4298167.00000000 944.60400391 207 190 174
457941.56250000 4298167.50000000 944.55999756 210 193 177
457941.56250000 4298168.00000000 944.53002930 210 193 177
457941.56250000 4298168.50000000 944.57800293 211 194 178
457941.56250000 4298169.00000000 944.69702148 210 193 175
457941.56250000 4298169.50000000 944.75402832 209 192 174
457941.56250000 4298170.00000000 944.85498047 209 192 174
457941.56250000 4298170.50000000 944.95202637 211 194 176
457941.56250000 4298171.00000000 944.97698975 209 192 174
457941.56250000 4298171.50000000 944.99597168 209 192 174
457941.56250000 4298172.00000000 945.04199219 209 192 174
457941.56250000 4298173.50000000 945.09997559 215 198 180
457941.56250000 4298174.00000000 945.06402588 215 198 180
457942.06250000 4298165.00000000 944.25598145 210 193 176
457942.06250000 4298165.50000000 944.28698730 209 192 176
457942.06250000 4298166.00000000 944.35101318 204 187 171
457942.06250000 4298166.50000000 944.35101318 200 184 167
457942.06250000 4298167.00000000 944.37701416 202 185 170
457942.06250000 4298167.50000000 944.35699463 208 191 175
457942.06250000 4298168.00000000 944.34002686 210 193 177
457942.06250000 4298168.50000000 944.38800049 209 192 176
457942.06250000 4298169.00000000 944.46502686 208 191 173
457942.06250000 4298169.50000000 944.54302979 208 191 173
457942.06250000 4298170.00000000 944.59899902 208 191 173
457942.06250000 4298170.50000000 944.69097900 209 192 174
457942.06250000 4298171.00000000 944.82000732 207 190 172
457942.06250000 4298171.50000000 944.87701416 206 189 171
457942.06250000 4298172.00000000 944.89300537 207 190 172
457942.06250000 4298172.50000000 944.93298340 212 195 177
457942.06250000 4298173.00000000 944.94897461 213 196 178
457942.06250000 4298173.50000000 944.91601563 213 196 178
457942.06250000 4298174.00000000 944.87902832 214 197 179
457942.56250000 4298165.00000000 943.97100830 210 193 177
457942.56250000 4298165.50000000 943.96002197 208 191 175
457942.56250000 4298166.00000000 944.03100586 207 190 174
457942.56250000 4298166.50000000 944.09399414 208 191 175
457942.56250000 4298167.00000000 944.10601807 209 192 176
457942.56250000 4298167.50000000 944.09997559 209 192 176
457942.56250000 4298168.00000000 944.13000488 211 194 178
457942.56250000 4298168.50000000 944.20501709 211 194 178
457942.56250000 4298169.00000000 944.25201416 210 193 175
457942.56250000 4298169.50000000 944.29797363 208 191 173
457942.56250000 4298170.00000000 944.35900879 207 190 172
457942.56250000 4298170.50000000 944.42999268 208 191 173
457942.56250000 4298171.00000000 944.50897217 207 190 172
457942.56250000 4298171.50000000 944.58697510 207 190 172
457942.56250000 4298172.00000000 944.64801025 208 191 173
457942.56250000 4298172.50000000 944.68701172 211 194 176
457942.56250000 4298173.00000000 944.69702148 209 192 174
457942.56250000 4298173.50000000 944.71502686 212 195 177
457942.56250000 4298174.00000000 944.71697998 211 194 176
457943.06250000 4298165.00000000 943.66601563 195 179 162
457943.06250000 4298165.50000000 943.62799072 192 175 159
457943.06250000 4298166.00000000 943.62701416 189 172 156
457943.06250000 4298166.50000000 943.65197754 199 183 166
457943.06250000 4298167.00000000 943.73101807 205 188 172
457943.06250000 4298167.50000000 943.82598877 206 189 173
457943.06250000 4298168.00000000 943.89801025 211 194 178
457943.06250000 4298168.50000000 943.96197510 212 195 179
457943.06250000 4298169.00000000 943.98699951 212 195 177
457943.06250000 4298169.50000000 944.03198242 210 193 175
457943.06250000 4298170.00000000 944.10699463 210 193 175
457943.06250000 4298170.50000000 944.16198730 209 192 174
457943.06250000 4298171.00000000 944.25201416 209 192 174
457943.06250000 4298171.50000000 944.34997559 209 192 174
457943.06250000 4298172.00000000 944.39697266 209 192 174
457943.06250000 4298172.50000000 944.44097900 210 193 175
457943.06250000 4298173.00000000 944.46502686 207 190 172
457943.06250000 4298173.50000000 944.49298096 210 193 175
457943.06250000 4298174.00000000 944.51300049 208 191 173
457943.56250000 4298165.00000000 943.41198730 190 173 157
457943.56250000 4298165.50000000 943.33599854 190 173 157
457943.56250000 4298166.00000000 943.31500244 185 168 153
457943.56250000 4298166.50000000 943.35699463 187 171 155
457943.56250000 4298167.00000000 943.46600342 191 174 158
457943.56250000 4298167.50000000 943.54699707 193 176 160
457943.56250000 4298168.00000000 943.59600830 200 184 167
457943.56250000 4298168.50000000 943.61602783 203 186 171
457943.56250000 4298169.00000000 943.62597656 207 190 172
457943.56250000 4298169.50000000 943.69500732 210 193 175
457943.56250000 4298170.00000000 943.78100586 211 194 176
457943.56250000 4298170.50000000 943.86999512 209 192 174
457943.56250000 4298171.00000000 943.98602295 209 192 174
457943.56250000 4298171.50000000 944.08398438 209 192 174
457943.56250000 4298172.00000000 944.14801025 210 193 175
457943.56250000 4298172.50000000 944.18902588 209 192 174
457943.56250000 4298173.00000000 944.21997070 209 192 174
457943.56250000 4298173.50000000 944.24700928 208 191 173
457943.56250000 4298174.00000000 944.26397705 208 191 173
457944.06250000 4298165.00000000 943.14300537 187 170 154
457944.06250000 4298165.50000000 943.10302734 191 175 159
457944.06250000 4298166.00000000 943.09600830 183 168 153
457944.06250000 4298166.50000000 943.17199707 179 166 149
457944.06250000 4298167.00000000 943.27502441 184 169 153
457944.06250000 4298167.50000000 943.31402588 188 174 158
457944.06250000 4298168.00000000 943.34997559 189 175 158
457944.06250000 4298168.50000000 943.36102295 191 177 160
457944.06250000 4298169.00000000 943.38397217 195 179 163
457944.06250000 4298169.50000000 943.43902588 200 184 168
457944.06250000 4298170.00000000 943.50500488 207 191 175
457944.06250000 4298170.50000000 943.57098389 207 191 174
457944.06250000 4298171.00000000 943.67401123 210 193 175
457944.06250000 4298171.50000000 943.78802490 211 194 176
457944.06250000 4298172.00000000 943.86901855 211 194 176
457944.06250000 4298172.50000000 943.93597412 208 191 173
457944.06250000 4298173.00000000 943.98602295 210 193 175
457944.06250000 4298173.50000000 944.03497314 210 193 175
457944.06250000 4298174.00000000 944.07702637 209 192 174
457944.56250000 4298165.00000000 942.96099854 186 170 155
457944.56250000 4298165.50000000 942.91601563 189 173 158
457944.56250000 4298166.00000000 942.86602783 181 168 154
457944.56250000 4298166.50000000 942.89599609 176 162 149
457944.56250000 4298167.00000000 942.96697998 179 167 150
457944.56250000 4298167.50000000 943.00299072 185 172 156
457944.56250000 4298168.00000000 943.06298828 189 176 160
457944.56250000 4298168.50000000 943.11700439 190 177 161
457944.56250000 4298169.00000000 943.14501953 188 175 159
457944.56250000 4298169.50000000 943.16699219 189 176 160
457944.56250000 4298170.00000000 943.28302002 195 179 163
457944.56250000 4298170.50000000 943.40002441 198 183 166
457944.56250000 4298171.00000000 943.46002197 203 187 171
457944.56250000 4298171.50000000 943.51397705 210 193 175
457944.56250000 4298172.00000000 943.56298828 212 195 177
457944.56250000 4298172.50000000 943.63702393 209 192 174
457944.56250000 4298173.00000000 943.70397949 211 194 176
457944.56250000 4298173.50000000 943.77001953 210 193 175
457944.56250000 4298174.00000000 943.86102295 211 194 176
457945.06250000 4298165.00000000 942.69500732 190 174 159
457945.06250000 4298165.50000000 942.69500732 191 175 160
457945.06250000 4298166.00000000 942.67199707 183 168 155
457945.06250000 4298166.50000000 942.66400146 179 164 151
457945.06250000 4298167.00000000 942.68298340 179 166 152
457945.06250000 4298167.50000000 942.72198486 185 171 158
457945.06250000 4298168.00000000 942.80700684 187 174 158
457945.06250000 4298168.50000000 942.91601563 184 171 155
457945.06250000 4298169.00000000 942.94000244 185 172 156
457945.06250000 4298169.50000000 942.94799805 190 177 161
457945.06250000 4298170.00000000 943.01202393 188 174 159
457945.06250000 4298170.50000000 943.09100342 188 172 156
457945.06250000 4298171.00000000 943.24597168 188 172 156
457945.06250000 4298171.50000000 943.38598633 195 179 163
457945.06250000 4298172.00000000 943.41497803 204 188 172
457945.06250000 4298172.50000000 943.45397949 207 190 174
457945.06250000 4298173.00000000 943.49700928 212 195 179
457945.06250000 4298173.50000000 943.55798340 211 194 178
457945.06250000 4298174.00000000 943.65399170 210 193 177
457945.56250000 4298165.00000000 942.48400879 179 166 152
457945.56250000 4298165.50000000 942.49401855 183 169 155
457945.56250000 4298166.00000000 942.48699951 185 171 160
457945.56250000 4298166.50000000 942.48498535 189 175 164
457945.56250000 4298167.00000000 942.48699951 189 175 162
457945.56250000 4298167.50000000 942.53997803 186 172 159
457945.56250000 4298168.00000000 942.63598633 183 168 155
457945.56250000 4298168.50000000 942.73999023 166 152 138
457945.56250000 4298169.00000000 942.79302979 175 161 148
457945.56250000 4298169.50000000 942.82098389 188 174 161
457945.56250000 4298170.00000000 942.87402344 184 170 156
457945.56250000 4298170.50000000 942.91497803 177 162 147
457945.56250000 4298171.00000000 943.00897217 169 153 138
457945.56250000 4298171.50000000 943.13201904 172 156 141
457945.56250000 4298172.00000000 943.21801758 188 171 155
457945.56250000 4298172.50000000 943.26501465 202 185 170
457945.56250000 4298173.00000000 943.34600830 210 193 177
457945.56250000 4298173.50000000 943.44000244 210 193 177
457945.56250000 4298174.00000000 943.50598145 204 187 171
457946.06250000 4298165.00000000 942.17602539 175 163 151
457946.06250000 4298165.50000000 942.17102051 179 167 153
457946.06250000 4298166.00000000 942.21600342 179 167 155
457946.06250000 4298166.50000000 942.23498535 181 169 159
457946.06250000 4298167.00000000 942.22900391 185 173 161
457946.06250000 4298167.50000000 942.24700928 188 176 164
457946.06250000 4298168.00000000 942.34002686 191 179 166
457946.06250000 4298168.50000000 942.45898438 189 177 164
457946.06250000 4298169.00000000 942.55499268 189 176 164
457946.06250000 4298169.50000000 942.61401367 188 176 163
457946.06250000 4298170.00000000 942.67700195 190 176 163
457946.06250000 4298170.50000000 942.79199219 184 170 157
457946.06250000 4298171.00000000 942.85400391 175 161 147
457946.06250000 4298171.50000000 942.90802002 168 152 137
457946.06250000 4298172.00000000 942.98699951 179 163 148
457946.06250000 4298172.50000000 943.05798340 189 172 156
457946.06250000 4298173.00000000 943.14801025 204 187 171
457946.06250000 4298173.50000000 943.27502441 207 190 174
457946.06250000 4298174.00000000 943.37298584 202 185 170
457946.56250000 4298165.00000000 941.84002686 170 158 146
457946.56250000 4298165.50000000 941.83001709 170 158 147
457946.56250000 4298166.00000000 941.90100098 167 153 144
457946.56250000 4298166.50000000 941.93200684 168 155 146
457946.56250000 4298167.00000000 941.93597412 176 163 154
457946.56250000 4298167.50000000 941.97302246 179 167 154
457946.56250000 4298168.00000000 942.04400635 179 168 155
457946.56250000 4298168.50000000 942.12097168 184 172 160
457946.56250000 4298169.00000000 942.26098633 186 174 162
457946.56250000 4298169.50000000 942.36700439 193 181 170
457946.56250000 4298170.00000000 942.40802002 194 180 170
457946.56250000 4298170.50000000 942.51000977 189 175 162
457946.56250000 4298171.00000000 942.61102295 192 179 165
457946.56250000 4298171.50000000 942.72198486 186 170 157
457946.56250000 4298172.00000000 942.81597900 188 172 157
457946.56250000 4298172.50000000 942.86401367 187 170 154
457946.56250000 4298173.00000000 942.93103027 199 183 166
457946.56250000 4298173.50000000 943.02801514 202 185 170
457946.56250000 4298174.00000000 943.12200928 195 179 162
457947.06250000 4298165.00000000 941.51501465 156 146 137
457947.06250000 4298165.50000000 941.49798584 154 144 135
457947.06250000 4298166.00000000 941.51202393 153 143 134
457947.06250000 4298166.50000000 941.53802490 160 148 139
457947.06250000 4298167.00000000 941.58300781 168 154 145
457947.06250000 4298167.50000000 941.66198730 168 155 146
457947.06250000 4298168.00000000 941.75097656 167 153 143
457947.06250000 4298168.50000000 941.86499023 168 153 142
457947.06250000 4298169.00000000 942.00701904 169 156 147
457947.06250000 4298169.50000000 942.08398438 168 155 143
457947.06250000 4298170.00000000 942.17797852 168 156 144
457947.06250000 4298170.50000000 942.30102539 180 167 155
457947.06250000 4298171.00000000 942.41302490 195 181 168
457947.06250000 4298171.50000000 942.55499268 200 186 173
