458041.56250000 4298217.50000000 955.24700928 143 134 128
458041.56250000 4298218.00000000 954.91101074 139 129 127
458041.56250000 4298218.50000000 954.50000000 138 129 125
458042.06250000 4298214.00000000 956.63397217 170 157 148
458042.06250000 4298214.50000000 956.45202637 154 141 132
458042.06250000 4298215.00000000 956.24499512 140 127 120
458042.06250000 4298215.50000000 956.04101563 136 123 117
458042.06250000 4298216.00000000 955.78601074 137 124 118
458042.06250000 4298216.50000000 955.53997803 144 131 125
458042.06250000 4298217.00000000 955.29901123 148 137 132
458042.06250000 4298217.50000000 954.96899414 143 132 127
458042.06250000 4298218.00000000 954.60498047 140 129 125
458042.06250000 4298218.50000000 954.19799805 144 133 128
458042.56250000 4298214.00000000 956.42901611 174 161 153
458042.56250000 4298214.50000000 956.17700195 173 160 152
458042.56250000 4298215.00000000 955.97998047 151 138 131
458042.56250000 4298215.50000000 955.79797363 144 131 125
458042.56250000 4298216.00000000 955.55102539 146 133 127
458042.56250000 4298216.50000000 955.30401611 147 134 127
458042.56250000 4298217.00000000 955.01501465 144 133 128
458042.56250000 4298217.50000000 954.64099121 144 133 128
458042.56250000 4298218.00000000 954.32702637 140 129 125
458043.06250000 4298214.00000000 956.06097412 161 148 139
458043.06250000 4298214.50000000 955.83697510 168 154 144
458043.06250000 4298215.00000000 955.73199463 157 143 131
458043.06250000 4298215.50000000 955.51898193 147 133 124
458043.06250000 4298216.00000000 955.26702881 145 131 124
458043.06250000 4298216.50000000 955.02301025 143 130 124
458043.06250000 4298217.00000000 954.67401123 136 125 119
458043.06250000 4298217.50000000 954.34997559 137 126 119
458043.56250000 4298214.00000000 955.78802490 164 151 143
458043.56250000 4298214.50000000 955.58502197 162 148 139
458043.56250000 4298215.00000000 955.42199707 169 152 142
458043.56250000 4298215.50000000 955.21099854 174 157 146
458043.56250000 4298216.00000000 954.96600342 169 155 145
458043.56250000 4298216.50000000 954.65600586 158 145 136
458043.56250000 4298217.00000000 954.31500244 139 126 118
458044.06250000 4298214.00000000 955.55499268 167 153 146
458044.06250000 4298214.50000000 955.29199219 156 141 131
458044.06250000 4298215.00000000 954.98999023 171 154 143
458044.06250000 4298215.50000000 954.68103027 196 179 164
458044.06250000 4298216.00000000 954.39697266 205 190 175
458044.56250000 4298214.50000000 954.93597412 156 140 131
458044.56250000 4298215.00000000 954.52398682 174 156 144
458045.06250000 4298214.50000000 954.51702881 167 150 141
458036.06250000 4298221.00000000 955.85797119 173 160 151
458036.06250000 4298221.50000000 955.70898438 174 161 152
458036.06250000 4298222.00000000 955.57598877 174 161 152
458036.06250000 4298222.50000000 955.46697998 164 151 142
458036.06250000 4298223.00000000 955.39697266 168 154 144
458036.06250000 4298223.50000000 955.33502197 179 167 157
458036.06250000 4298224.00000000 955.28698730 175 162 153
458036.06250000 4298224.50000000 955.19598389 157 144 135
458036.06250000 4298225.00000000 955.12902832 167 156 145
458036.06250000 4298225.50000000 955.09399414 203 193 183
458036.06250000 4298226.00000000 955.05999756 212 202 192
458036.06250000 4298226.50000000 955.04797363 216 208 196
458036.06250000 4298227.00000000 955.04400635 218 210 199
458036.06250000 4298227.50000000 955.04699707 220 214 202
458036.06250000 4298228.00000000 955.07800293 223 218 206
458036.06250000 4298228.50000000 955.15197754 226 222 209
458036.06250000 4298229.00000000 955.20300293 226 224 210
458036.06250000 4298229.50000000 955.21398926 226 223 210
458036.06250000 4298230.00000000 955.23602295 227 221 208
458036.56250000 4298221.00000000 955.63500977 173 160 152
458036.56250000 4298221.50000000 955.46099854 179 166 156
458036.56250000 4298222.00000000 955.31500244 181 168 159
458036.56250000 4298222.50000000 955.19201660 186 174 161
458036.56250000 4298223.00000000 955.12597656 196 184 172
458036.56250000 4298223.50000000 955.05603027 199 187 175
458036.56250000 4298224.00000000 954.99102783 199 187 175
458036.56250000 4298224.50000000 954.91302490 185 175 162
458036.56250000 4298225.00000000 954.84698486 181 171 160
458036.56250000 4298225.50000000 954.78302002 193 184 173
458036.56250000 4298226.00000000 954.72601318 195 187 175
458036.56250000 4298226.50000000 954.72601318 208 199 189
458036.56250000 4298227.00000000 954.74798584 218 210 199
458036.56250000 4298227.50000000 954.76898193 212 204 193
458036.56250000 4298228.00000000 954.79199219 208 200 189
458036.56250000 4298228.50000000 954.83801270 219 211 199
458036.56250000 4298229.00000000 954.89697266 223 217 204
458036.56250000 4298229.50000000 954.93103027 225 219 206
458036.56250000 4298230.00000000 954.95300293 222 217 207
458037.06250000 4298221.00000000 955.40100098 155 142 133
458037.06250000 4298221.50000000 955.19000244 163 150 141
458037.06250000 4298222.00000000 955.05700684 180 168 158
458037.06250000 4298222.50000000 954.91802979 189 177 164
458037.06250000 4298223.00000000 954.81597900 187 175 162
458037.06250000 4298223.50000000 954.73297119 188 176 163
458037.06250000 4298224.00000000 954.67700195 186 175 162
458037.06250000 4298224.50000000 954.61297607 176 167 154
458037.06250000 4298225.00000000 954.55102539 183 172 161
458037.06250000 4298225.50000000 954.48400879 193 184 173
458037.06250000 4298226.00000000 954.42901611 197 189 177
458037.06250000 4298226.50000000 954.43701172 190 181 171
458037.06250000 4298227.00000000 954.46600342 188 180 170
458037.06250000 4298227.50000000 954.48297119 206 198 187
458037.06250000 4298228.00000000 954.49902344 194 186 175
458037.06250000 4298228.50000000 954.54901123 194 186 173
458037.06250000 4298229.00000000 954.61700439 215 207 194
458037.06250000 4298229.50000000 954.65197754 218 210 197
458037.06250000 4298230.00000000 954.65899658 218 211 201
458037.56250000 4298221.00000000 955.12500000 158 145 137
458037.56250000 4298221.50000000 954.90197754 163 150 142
458037.56250000 4298222.00000000 954.79998779 157 144 135
458037.56250000 4298222.50000000 954.64398193 167 154 142
458037.56250000 4298223.00000000 954.48199463 174 162 149
458037.56250000 4298223.50000000 954.38702393 172 160 147
458037.56250000 4298224.00000000 954.35302734 184 172 159
458037.56250000 4298224.50000000 954.30902100 179 169 157
458037.56250000 4298225.00000000 954.25402832 179 168 158
458037.56250000 4298225.50000000 954.19201660 186 176 165
458037.56250000 4298227.00000000 954.15802002 196 188 176
458037.56250000 4298227.50000000 954.19598389 201 193 182
458037.56250000 4298228.00000000 954.23498535 202 194 183
458037.56250000 4298228.50000000 954.29199219 202 194 181
458037.56250000 4298229.00000000 954.34497070 207 199 186
458037.56250000 4298229.50000000 954.35400391 201 193 180
458037.56250000 4298230.00000000 954.34301758 201 195 184
458038.06250000 4298221.00000000 954.81799316 158 146 139
458038.06250000 4298221.50000000 954.60699463 156 145 136
458038.06250000 4298222.00000000 954.48101807 141 130 120
458038.06250000 4298222.50000000 954.35400391 152 141 130
458038.06250000 4298223.00000000 954.21502686 177 167 154
458038.56250000 4298221.00000000 954.48797607 143 132 126
458038.56250000 4298221.50000000 954.25000000 149 139 129
458090.06250000 4298230.00000000 954.16400146 174 159 148
458090.56250000 4298230.00000000 954.50000000 169 155 145
458091.06250000 4298229.50000000 954.45697021 168 153 143
458091.06250000 4298230.00000000 954.76501465 148 135 127
458091.56250000 4298229.00000000 954.39599609 161 148 139
458091.56250000 4298229.50000000 954.72900391 144 131 121
458091.56250000 4298230.00000000 955.01800537 141 128 119
458092.06250000 4298228.50000000 954.31500244 158 145 136
458092.06250000 4298229.00000000 954.63098145 142 129 119
458092.06250000 4298229.50000000 954.94702148 141 128 119
458092.06250000 4298230.00000000 955.26599121 152 139 129
458092.56250000 4298228.00000000 954.16101074 166 152 143
458092.56250000 4298228.50000000 954.54797363 152 139 129
458092.56250000 4298229.00000000 954.85797119 148 135 127
458092.56250000 4298229.50000000 955.18902588 156 143 133
458092.56250000 4298230.00000000 955.54400635 184 170 159
458093.06250000 4298228.00000000 954.34002686 163 150 141
458093.06250000 4298228.50000000 954.73797607 159 146 137
458093.06250000 4298229.00000000 955.12799072 163 150 142
458093.06250000 4298229.50000000 955.51397705 166 154 143
458093.06250000 4298230.00000000 955.84399414 191 177 165
458093.56250000 4298228.00000000 954.51000977 161 148 140
458093.56250000 4298228.50000000 954.92602539 159 146 138
458093.56250000 4298229.00000000 955.36700439 161 151 142
458093.56250000 4298229.50000000 955.77197266 159 148 139
458093.56250000 4298230.00000000 956.08001709 189 175 161
458094.06250000 4298227.50000000 954.33398438 172 160 148
458094.06250000 4298228.00000000 954.72998047 160 148 137
458094.06250000 4298228.50000000 955.20397949 155 143 133
458094.06250000 4298229.00000000 955.65100098 162 150 140
458094.06250000 4298229.50000000 956.00500488 172 160 148
458094.06250000 4298230.00000000 956.28302002 186 172 159
458094.56250000 4298227.50000000 954.50799561 168 156 143
458094.56250000 4298228.00000000 954.95098877 160 148 136
458094.56250000 4298228.50000000 955.47698975 164 152 140
458094.56250000 4298229.00000000 955.88098145 181 169 157
458094.56250000 4298229.50000000 956.17102051 188 176 163
458094.56250000 4298230.00000000 956.42102051 179 166 152
458095.06250000 4298227.00000000 954.23901367 188 176 163
458095.06250000 4298227.50000000 954.62701416 179 168 155
458095.06250000 4298228.00000000 955.09997559 171 159 146
458095.06250000 4298228.50000000 955.64398193 179 168 155
458095.06250000 4298229.00000000 956.03802490 189 177 164
458095.06250000 4298229.50000000 956.28997803 179 168 154
458095.06250000 4298230.00000000 956.52001953 171 158 142
458095.56250000 4298227.00000000 954.35400391 194 183 171
458095.56250000 4298227.50000000 954.78698730 190 179 165
458095.56250000 4298228.00000000 955.30700684 181 169 157
458095.56250000 4298228.50000000 955.79901123 188 176 163
458095.56250000 4298229.00000000 956.15600586 181 169 157
458095.56250000 4298229.50000000 956.38702393 170 158 144
458095.56250000 4298230.00000000 956.60797119 176 163 146
458096.06250000 4298227.00000000 954.50000000 199 187 174
458096.06250000 4298227.50000000 954.97900391 199 187 173
458096.06250000 4298228.00000000 955.48400879 192 180 167
458096.06250000 4298228.50000000 955.90698242 188 176 161
458096.06250000 4298229.00000000 956.24499512 179 168 154
458096.06250000 4298229.50000000 956.46899414 184 171 157
458096.06250000 4298230.00000000 956.65997314 201 187 173
458096.56250000 4298226.50000000 954.30200195 190 177 163
458096.56250000 4298227.00000000 954.72302246 197 185 171
458096.56250000 4298227.50000000 955.20300293 196 184 171
458096.56250000 4298228.00000000 955.63800049 192 180 165
458096.56250000 4298228.50000000 955.96502686 187 175 160
458096.56250000 4298229.00000000 956.28002930 188 176 161
458096.56250000 4298229.50000000 956.50000000 204 192 177
458096.56250000 4298230.00000000 956.65997314 208 194 183
458097.06250000 4298226.50000000 954.57501221 194 181 167
458097.06250000 4298227.00000000 955.00799561 195 184 170
458097.06250000 4298227.50000000 955.43902588 193 181 167
458097.06250000 4298228.00000000 955.75897217 191 179 164
458097.06250000 4298228.50000000 956.00402832 189 177 162
458097.06250000 4298229.00000000 956.26702881 187 175 160
458097.06250000 4298229.50000000 956.48999023 183 170 157
458097.06250000 4298230.00000000 956.65301514 173 159 149
458097.56250000 4298226.00000000 954.38201904 197 184 171
458097.56250000 4298226.50000000 954.92602539 195 183 170
458097.56250000 4298227.00000000 955.35498047 195 183 170
458097.56250000 4298227.50000000 955.63598633 193 181 167
458097.56250000 4298228.00000000 955.84497070 191 179 167
458097.56250000 4298228.50000000 956.03997803 180 168 158
458097.56250000 4298229.00000000 956.22302246 162 149 140
458097.56250000 4298229.50000000 956.40600586 147 135 127
458097.56250000 4298230.00000000 956.58398438 150 138 130
458098.06250000 4298225.50000000 954.22302246 196 183 171
458098.06250000 4298226.00000000 954.66198730 197 184 171
458098.06250000 4298226.50000000 955.18902588 189 176 160
458098.06250000 4298227.00000000 955.59197998 194 183 168
458098.06250000 4298227.50000000 955.79498291 193 183 170
458098.06250000 4298228.00000000 955.94799805 187 177 165
458098.06250000 4298228.50000000 956.07202148 161 150 143
458098.06250000 4298229.00000000 956.17901611 132 122 117
458098.06250000 4298229.50000000 956.30401611 128 119 116
458098.06250000 4298230.00000000 956.45300293 138 128 125
458098.56250000 4298225.50000000 954.51599121 196 183 170
458098.56250000 4298226.00000000 954.98297119 197 184 171
458098.56250000 4298226.50000000 955.42700195 191 179 162
458098.56250000 4298227.00000000 955.76599121 194 183 168
458098.56250000 4298227.50000000 955.92401123 193 184 171
458098.56250000 4298228.00000000 956.02899170 173 163 153
458098.56250000 4298228.50000000 956.09600830 127 119 112
458098.56250000 4298229.00000000 956.14099121 117 106 105
458098.56250000 4298229.50000000 956.23199463 119 109 110
458098.56250000 4298230.00000000 956.37902832 131 122 121
458099.06250000 4298224.50000000 954.44299316 159 145 133
458099.06250000 4298225.00000000 954.72802734 181 168 154
458099.06250000 4298225.50000000 954.96697998 194 180 167
458099.06250000 4298226.00000000 955.31701660 194 181 164
458099.06250000 4298226.50000000 955.68499756 192 180 163
458099.06250000 4298227.00000000 955.91802979 197 185 171
458099.06250000 4298227.50000000 956.02899170 192 183 171
458099.06250000 4298228.00000000 956.11499023 160 150 142
458099.06250000 4298228.50000000 956.15100098 112 102 100
458099.06250000 4298229.00000000 956.15802002 107 99 96
458099.06250000 4298229.50000000 956.23602295 112 103 104
458099.06250000 4298230.00000000 956.38000488 129 120 120
458099.56250000 4298224.00000000 954.53601074 168 154 143
458099.56250000 4298224.50000000 954.91302490 164 150 138
458099.56250000 4298225.00000000 955.17498779 189 175 161
458099.56250000 4298225.50000000 955.43701172 195 181 168
458099.56250000 4298226.00000000 955.71197510 194 181 164
458099.56250000 4298226.50000000 955.93200684 198 185 170
458099.56250000 4298227.00000000 956.07598877 198 184 171
458099.56250000 4298227.50000000 956.17999268 192 180 168
458099.56250000 4298228.00000000 956.26202393 157 147 137
458099.56250000 4298228.50000000 956.28997803 118 108 103
458099.56250000 4298229.00000000 956.29901123 110 102 99
458099.56250000 4298229.50000000 956.35101318 117 108 105
458099.56250000 4298230.00000000 956.48797607 133 125 123
458036.06250000 4298230.50000000 955.28002930 226 220 207
458036.06250000 4298231.00000000 955.31097412 226 220 207
458036.06250000 4298231.50000000 955.31402588 227 221 208
458036.06250000 4298232.00000000 955.31799316 226 220 207
458036.06250000 4298232.50000000 955.29901123 224 218 206
458036.06250000 4298233.00000000 955.25598145 223 215 202
458036.06250000 4298233.50000000 955.21899414 206 198 185
458036.06250000 4298234.00000000 955.19201660 180 172 159
458036.06250000 4298234.50000000 955.21997070 174 167 153
458036.06250000 4298235.00000000 955.29797363 181 173 159
458036.06250000 4298235.50000000 955.32800293 203 195 181
458036.06250000 4298236.00000000 955.30999756 210 203 190
458036.06250000 4298236.50000000 955.32702637 206 200 188
458036.06250000 4298237.00000000 955.38000488 221 215 204
458036.06250000 4298237.50000000 955.42700195 222 214 204
458036.06250000 4298238.00000000 955.46197510 220 212 201
458036.06250000 4298238.50000000 955.46899414 208 200 189
458036.06250000 4298239.00000000 955.43798828 192 183 172
458036.56250000 4298230.50000000 954.98999023 222 215 205
458036.56250000 4298231.00000000 955.02001953 223 217 205
458036.56250000 4298231.50000000 955.00598145 227 221 208
458036.56250000 4298232.00000000 954.96600342 225 217 206
458036.56250000 4298232.50000000 954.95300293 227 219 207
458036.56250000 4298233.00000000 954.97302246 216 206 195
458036.56250000 4298233.50000000 954.97399902 188 179 168
458036.56250000 4298234.00000000 954.94897461 171 161 151
458036.56250000 4298234.50000000 954.93402100 177 168 157
458036.56250000 4298235.00000000 954.96301270 185 175 164
458036.56250000 4298235.50000000 955.01202393 198 188 177
458036.56250000 4298236.00000000 955.04101563 207 198 188
458036.56250000 4298236.50000000 955.07299805 201 193 181
458036.56250000 4298237.00000000 955.10998535 208 200 187
458036.56250000 4298237.50000000 955.12402344 212 202 190
458036.56250000 4298238.00000000 955.13098145 216 206 193
458036.56250000 4298238.50000000 955.10699463 210 200 188
458036.56250000 4298239.00000000 955.04199219 196 187 174
458037.06250000 4298230.50000000 954.67602539 217 210 199
458037.06250000 4298231.00000000 954.70098877 212 206 193
458037.06250000 4298231.50000000 954.70300293 210 204 191
458037.06250000 4298232.00000000 954.65698242 206 198 187
458037.06250000 4298232.50000000 954.63299561 202 194 180
458037.06250000 4298233.00000000 954.68902588 208 200 189
458037.06250000 4298233.50000000 954.74700928 189 181 171
458037.06250000 4298234.00000000 954.74700928 184 176 164
458037.06250000 4298234.50000000 954.71502686 197 189 177
458037.06250000 4298235.00000000 954.70599365 205 197 186
458037.06250000 4298235.50000000 954.73999023 210 202 191
458037.06250000 4298236.00000000 954.77502441 209 201 190
458037.06250000 4298236.50000000 954.78497314 201 193 181
458037.06250000 4298237.00000000 954.78100586 196 188 175
458037.06250000 4298237.50000000 954.77502441 204 194 181
458037.06250000 4298238.00000000 954.70599365 213 203 191
458037.06250000 4298238.50000000 954.57897949 214 204 190
458037.06250000 4298239.00000000 954.49700928 197 188 173
458037.56250000 4298230.50000000 954.34997559 205 199 187
458037.56250000 4298231.00000000 954.39697266 177 171 159
458037.56250000 4298231.50000000 954.43597412 173 166 154
458037.56250000 4298232.00000000 954.41699219 179 170 157
458037.56250000 4298232.50000000 954.37701416 195 187 174
458037.56250000 4298233.00000000 954.38500977 203 195 184
458037.56250000 4298233.50000000 954.44000244 217 209 197
458037.56250000 4298234.00000000 954.47802734 220 212 201
458037.56250000 4298234.50000000 954.48101807 217 209 197
458037.56250000 4298235.00000000 954.48400879 215 207 195
458037.56250000 4298235.50000000 954.49597168 225 217 206
458037.56250000 4298236.00000000 954.47998047 211 203 191
458037.56250000 4298236.50000000 954.41998291 198 190 176
458037.56250000 4298237.00000000 954.33001709 205 195 183
458037.56250000 4298237.50000000 954.24298096 199 189 176
458038.06250000 4298231.50000000 954.17700195 195 187 175
458038.06250000 4298232.00000000 954.16900635 204 196 183
458038.06250000 4298233.50000000 954.15997314 208 200 187
458038.06250000 4298234.00000000 954.19396973 219 211 197
458038.06250000 4298234.50000000 954.21002197 218 210 196
458038.06250000 4298235.00000000 954.22802734 219 211 197
458038.06250000 4298235.50000000 954.24401855 224 216 204
458038.06250000 4298236.00000000 954.19702148 214 206 192
458047.56250000 4298238.50000000 954.21997070 195 183 171
458047.56250000 4298239.00000000 954.38500977 177 166 153
458048.06250000 4298237.50000000 954.20501709 167 153 143
458048.06250000 4298238.00000000 954.41900635 177 164 155
458048.06250000 4298238.50000000 954.65600586 184 170 160
458048.06250000 4298239.00000000 954.80297852 174 161 152
458048.56250000 4298236.50000000 954.21899414 156 143 135
458048.56250000 4298237.00000000 954.35498047 156 143 135
458048.56250000 4298237.50000000 954.47601318 167 153 144
458048.56250000 4298238.00000000 954.64898682 171 158 148
458048.56250000 4298238.50000000 954.85601807 172 159 149
458048.56250000 4298239.00000000 955.03302002 172 159 149
458049.06250000 4298236.00000000 954.30297852 146 135 126
458049.06250000 4298236.50000000 954.41900635 146 133 126
458049.06250000 4298237.00000000 954.55102539 146 133 125
458049.06250000 4298237.50000000 954.73498535 144 131 123
458049.06250000 4298238.00000000 954.90002441 149 136 127
458049.06250000 4298238.50000000 955.08398438 168 154 144
458049.06250000 4298239.00000000 955.28900146 166 152 143
458049.56250000 4298235.00000000 954.23602295 176 164 152
458049.56250000 4298235.50000000 954.39300537 173 161 148
458049.56250000 4298236.00000000 954.54400635 166 152 141
458049.56250000 4298236.50000000 954.68499756 173 160 151
458049.56250000 4298237.00000000 954.85198975 170 157 147
458049.56250000 4298237.50000000 955.06298828 166 152 143
458049.56250000 4298238.00000000 955.28698730 160 147 138
458049.56250000 4298238.50000000 955.46099854 171 158 148
458049.56250000 4298239.00000000 955.61102295 171 158 148
458050.06250000 4298234.00000000 954.24798584 181 168 154
458050.06250000 4298234.50000000 954.39001465 184 171 159
458050.06250000 4298235.00000000 954.51898193 183 170 158
458050.06250000 4298235.50000000 954.64697266 176 164 152
458050.06250000 4298236.00000000 954.77099609 172 160 147
458050.06250000 4298236.50000000 954.94702148 161 148 139
458050.06250000 4298237.00000000 955.17602539 168 154 144
458050.06250000 4298237.50000000 955.38702393 184 171 161
458050.06250000 4298238.00000000 955.58001709 179 166 156
458050.06250000 4298238.50000000 955.74401855 176 163 154
458050.06250000 4298239.00000000 955.84301758 183 169 159
458050.56250000 4298233.50000000 954.33001709 185 171 158
458050.56250000 4298234.00000000 954.51599121 181 168 155
458050.56250000 4298234.50000000 954.69396973 184 170 158
458050.56250000 4298235.00000000 954.87902832 176 164 152
458050.56250000 4298235.50000000 954.97399902 169 157 144
458050.56250000 4298236.00000000 955.05200195 166 153 142
458050.56250000 4298236.50000000 955.22601318 175 162 153
458050.56250000 4298237.00000000 955.43402100 183 169 159
458050.56250000 4298237.50000000 955.62701416 180 168 158
458050.56250000 4298238.00000000 955.82897949 183 169 159
458050.56250000 4298238.50000000 955.97302246 177 164 155
458050.56250000 4298239.00000000 956.09698486 175 162 153
458051.06250000 4298233.00000000 954.34197998 194 180 167
458051.06250000 4298233.50000000 954.59301758 193 179 165
458051.06250000 4298234.00000000 954.81097412 186 172 159
458051.06250000 4298234.50000000 954.98199463 174 162 149
458051.06250000 4298235.00000000 955.11999512 159 147 135
458051.06250000 4298235.50000000 955.23999023 164 152 140
458051.06250000 4298236.00000000 955.36199951 181 169 158
458051.06250000 4298236.50000000 955.47802734 187 174 164
458051.06250000 4298237.00000000 955.63702393 185 172 162
458051.06250000 4298237.50000000 955.85797119 180 168 158
458051.06250000 4298238.00000000 956.06500244 186 173 163
458051.06250000 4298238.50000000 956.21301270 184 171 161
458051.06250000 4298239.00000000 956.34197998 179 167 157
458051.56250000 4298232.50000000 954.20001221 192 176 162
458051.56250000 4298233.00000000 954.47802734 193 179 165
458051.56250000 4298233.50000000 954.76397705 191 177 163
458051.56250000 4298234.00000000 954.98901367 184 170 158
458051.56250000 4298234.50000000 955.14202881 184 171 159
458051.56250000 4298235.00000000 955.27600098 181 169 157
458051.56250000 4298235.50000000 955.44799805 183 170 158
458051.56250000 4298236.00000000 955.59100342 183 170 159
458051.56250000 4298236.50000000 955.70501709 180 168 158
458051.56250000 4298237.00000000 955.86901855 179 166 156
458051.56250000 4298237.50000000 956.06298828 177 164 155
458051.56250000 4298238.00000000 956.25402832 175 162 153
458051.56250000 4298238.50000000 956.40399170 171 158 148
458051.56250000 4298239.00000000 956.54602051 179 166 156
458052.06250000 4298232.50000000 954.36199951 190 173 162
458052.06250000 4298233.00000000 954.61602783 185 171 158
458052.06250000 4298233.50000000 954.89202881 189 175 161
458052.06250000 4298234.00000000 955.10797119 187 173 160
458052.06250000 4298234.50000000 955.25799561 187 174 162
458052.06250000 4298235.00000000 955.42700195 188 176 163
458052.06250000 4298235.50000000 955.62701416 184 171 159
458052.06250000 4298236.00000000 955.79101563 175 163 152
458052.06250000 4298236.50000000 955.94799805 180 168 158
458052.06250000 4298237.00000000 956.11999512 179 166 156
458052.06250000 4298237.50000000 956.28497314 174 161 152
458052.06250000 4298238.00000000 956.44500732 164 151 142
458052.06250000 4298238.50000000 956.58197021 167 153 143
458052.06250000 4298239.00000000 956.74401855 179 166 156
458052.56250000 4298232.00000000 954.24102783 189 175 161
458052.56250000 4298232.50000000 954.48498535 193 179 164
458052.56250000 4298233.00000000 954.73199463 184 169 156
458052.56250000 4298233.50000000 954.97302246 184 170 157
458052.56250000 4298234.00000000 955.19097900 188 176 161
458052.56250000 4298234.50000000 955.38500977 190 179 164
458052.56250000 4298235.00000000 955.58300781 189 177 164
458052.56250000 4298235.50000000 955.77801514 185 175 162
458052.56250000 4298236.00000000 955.92297363 175 166 154
458052.56250000 4298236.50000000 956.07098389 172 162 152
458052.56250000 4298237.00000000 956.23901367 170 160 149
458052.56250000 4298237.50000000 956.40399170 172 162 152
458052.56250000 4298238.00000000 956.57397461 169 159 148
458052.56250000 4298238.50000000 956.74401855 170 160 149
458052.56250000 4298239.00000000 956.89599609 179 168 158
458053.06250000 4298232.00000000 954.28997803 190 177 160
458053.06250000 4298232.50000000 954.51599121 195 183 165
458053.06250000 4298233.00000000 954.75201416 187 173 159
458053.06250000 4298233.50000000 955.02801514 180 167 153
458053.06250000 4298234.00000000 955.30401611 184 171 157
458053.06250000 4298234.50000000 955.52197266 189 177 164
458053.06250000 4298235.00000000 955.72399902 188 176 163
458053.06250000 4298235.50000000 955.90301514 183 172 159
458053.06250000 4298236.00000000 956.03497314 179 169 158
458053.06250000 4298236.50000000 956.17901611 179 168 158
458053.06250000 4298237.00000000 956.32897949 164 154 143
458053.06250000 4298237.50000000 956.48297119 156 146 136
458053.06250000 4298238.00000000 956.66101074 163 153 143
458053.06250000 4298238.50000000 956.83697510 168 157 146
458053.06250000 4298239.00000000 957.00799561 171 161 151
458053.56250000 4298232.00000000 954.31298828 190 177 161
458053.56250000 4298232.50000000 954.53497314 193 180 163
458053.56250000 4298233.00000000 954.78100586 189 177 162
458053.56250000 4298233.50000000 955.06896973 188 176 161
458053.56250000 4298234.00000000 955.35302734 188 176 163
458053.56250000 4298234.50000000 955.58801270 186 174 162
458053.56250000 4298235.00000000 955.80999756 175 166 153
458053.56250000 4298235.50000000 955.97900391 179 169 159
458053.56250000 4298236.00000000 956.10699463 185 175 164
458053.56250000 4298236.50000000 956.26098633 179 169 159
458053.56250000 4298237.00000000 956.42102051 173 163 153
458053.56250000 4298237.50000000 956.60400391 160 150 140
458053.56250000 4298238.00000000 956.79602051 161 151 141
458053.56250000 4298238.50000000 956.95098877 172 162 152
458053.56250000 4298239.00000000 957.10400391 171 161 151
458054.06250000 4298232.00000000 954.32702637 192 179 164
458054.06250000 4298232.50000000 954.57098389 191 179 164
458054.06250000 4298233.00000000 954.85101318 192 180 168
458054.06250000 4298233.50000000 955.11999512 184 171 160
458054.06250000 4298234.00000000 955.35998535 177 166 155
458054.06250000 4298234.50000000 955.59301758 181 171 160
458054.06250000 4298235.00000000 955.82397461 177 168 158
458054.06250000 4298235.50000000 956.01300049 176 167 156
458054.06250000 4298236.00000000 956.16699219 172 162 153
458054.06250000 4298236.50000000 956.31799316 176 167 157
458054.06250000 4298237.00000000 956.48297119 180 170 160
458054.06250000 4298237.50000000 956.70800781 177 168 158
458054.06250000 4298238.00000000 956.90802002 179 169 159
458054.06250000 4298238.50000000 957.03002930 180 170 160
458054.06250000 4298239.00000000 957.17498779 177 168 158
458054.56250000 4298232.00000000 954.33398438 191 179 170
458054.56250000 4298232.50000000 954.59100342 191 179 170
458054.56250000 4298233.00000000 954.89099121 187 174 164
458054.56250000 4298233.50000000 955.14001465 180 168 158
458054.56250000 4298234.00000000 955.34301758 175 166 155
458054.56250000 4298234.50000000 955.57202148 172 162 153
458054.56250000 4298235.00000000 955.81298828 168 157 147
458054.56250000 4298235.50000000 956.01898193 167 157 147
458054.56250000 4298236.00000000 956.20001221 171 162 153
458054.56250000 4298236.50000000 956.37902832 181 172 162
458054.56250000 4298237.00000000 956.59002686 185 176 167
458054.56250000 4298237.50000000 956.82397461 184 174 164
458054.56250000 4298238.00000000 956.96997070 181 172 162
458054.56250000 4298238.50000000 957.08697510 184 175 165
458054.56250000 4298239.00000000 957.25799561 180 171 161
458055.06250000 4298232.00000000 954.34997559 179 167 158
458055.06250000 4298232.50000000 954.61297607 184 171 162
458055.06250000 4298233.00000000 954.88702393 179 168 158
458055.06250000 4298233.50000000 955.11700439 177 168 157
458055.06250000 4298234.00000000 955.31201172 171 161 152
458055.06250000 4298234.50000000 955.56799316 169 159 149
458055.06250000 4298235.00000000 955.84399414 169 160 151
458055.06250000 4298235.50000000 956.03399658 166 156 148
458055.06250000 4298236.00000000 956.20599365 168 158 149
458055.06250000 4298236.50000000 956.39801025 172 163 154
458055.06250000 4298237.00000000 956.61401367 177 168 159
458055.06250000 4298237.50000000 956.85302734 179 169 159
458055.06250000 4298238.00000000 957.03497314 179 169 159
458055.06250000 4298238.50000000 957.19897461 184 174 164
458055.06250000 4298239.00000000 957.37500000 180 171 161
458055.56250000 4298232.00000000 954.34301758 162 151 144
458055.56250000 4298232.50000000 954.59399414 169 159 152
458055.56250000 4298233.00000000 954.83599854 172 162 153
458055.56250000 4298233.50000000 955.07598877 188 179 170
458055.56250000 4298234.00000000 955.30603027 168 159 149
458055.56250000 4298234.50000000 955.58197021 171 161 152
458055.56250000 4298235.00000000 955.86999512 174 166 158
458055.56250000 4298235.50000000 956.05297852 175 167 159
458055.56250000 4298236.00000000 956.22302246 186 177 171
458055.56250000 4298236.50000000 956.41802979 196 187 177
458055.56250000 4298237.00000000 956.63500977 187 179 171
458055.56250000 4298237.50000000 956.90002441 185 176 167
458055.56250000 4298238.00000000 957.13397217 183 173 163
458055.56250000 4298238.50000000 957.30798340 185 176 167
458055.56250000 4298239.00000000 957.44799805 184 174 164
458056.06250000 4298232.00000000 954.34301758 168 159 152
458056.06250000 4298232.50000000 954.59301758 162 153 143
458056.06250000 4298233.00000000 954.81701660 168 159 149
458056.06250000 4298233.50000000 955.05603027 184 175 165
458056.06250000 4298234.00000000 955.32000732 184 177 167
458056.06250000 4298234.50000000 955.60498047 179 170 161
458056.06250000 4298235.00000000 955.88397217 203 196 188
458056.06250000 4298235.50000000 956.09197998 216 210 202
458056.06250000 4298236.00000000 956.28601074 220 215 206
458056.06250000 4298236.50000000 956.49200439 225 220 210
458056.06250000 4298237.00000000 956.69702148 226 221 211
458056.06250000 4298237.50000000 956.94702148 226 219 210
458056.06250000 4298238.00000000 957.19598389 216 209 199
458056.06250000 4298238.50000000 957.38201904 202 194 185
458056.06250000 4298239.00000000 957.52600098 188 180 171
458056.56250000 4298232.00000000 954.31201172 171 162 154
458056.56250000 4298232.50000000 954.60699463 160 151 142
458056.56250000 4298233.00000000 954.86401367 168 161 151
458056.56250000 4298233.50000000 955.08599854 190 184 173
458056.56250000 4298234.00000000 955.33898926 220 213 204
458056.56250000 4298234.50000000 955.60198975 219 215 205
458056.56250000 4298235.00000000 955.87902832 218 214 205
458056.56250000 4298235.50000000 956.13598633 225 221 211
458056.56250000 4298236.00000000 956.35699463 230 226 217
458056.56250000 4298236.50000000 956.57501221 226 223 213
458056.56250000 4298237.00000000 956.79199219 218 214 205
458056.56250000 4298237.50000000 957.00201416 228 224 215
458056.56250000 4298238.00000000 957.23999023 218 214 204
458056.56250000 4298238.50000000 957.45300293 194 188 176
458056.56250000 4298239.00000000 957.61602783 198 191 180
458057.06250000 4298232.00000000 954.30499268 166 156 148
458057.06250000 4298232.50000000 954.63000488 166 156 146
458057.06250000 4298233.00000000 954.92297363 184 179 165
458057.06250000 4298233.50000000 955.15502930 214 207 196
458057.06250000 4298234.00000000 955.39001465 230 225 213
458057.06250000 4298234.50000000 955.63598633 226 222 210
458057.06250000 4298235.00000000 955.91302490 207 203 193
458057.06250000 4298235.50000000 956.20300293 216 213 205
458057.06250000 4298236.00000000 956.44396973 227 224 215
458057.06250000 4298236.50000000 956.66198730 223 220 210
458057.06250000 4298237.00000000 956.88897705 203 200 191
458057.06250000 4298237.50000000 957.06500244 214 212 200
458057.06250000 4298238.00000000 957.30499268 185 181 171
458057.06250000 4298238.50000000 957.53399658 179 174 162
458057.06250000 4298239.00000000 957.67797852 203 199 187
458057.56250000 4298232.00000000 954.28399658 197 190 180
458057.56250000 4298232.50000000 954.63500977 196 189 178
458057.56250000 4298233.00000000 954.95697021 209 203 191
458057.56250000 4298233.50000000 955.22198486 216 210 197
458057.56250000 4298234.00000000 955.45697021 228 224 211
458057.56250000 4298234.50000000 955.70098877 225 221 209
458057.56250000 4298235.00000000 955.98101807 213 209 197
458057.56250000 4298235.50000000 956.27502441 221 219 207
458057.56250000 4298236.00000000 956.49700928 230 226 216
458057.56250000 4298236.50000000 956.70599365 228 226 215
458057.56250000 4298237.00000000 956.95800781 224 221 209
458057.56250000 4298237.50000000 957.15600586 220 218 206
458057.56250000 4298238.00000000 957.38299561 185 181 171
458057.56250000 4298238.50000000 957.59002686 170 167 154
458057.56250000 4298239.00000000 957.73999023 195 191 178
458058.06250000 4298232.00000000 954.25201416 219 212 205
458058.06250000 4298232.50000000 954.64697266 213 206 195
458058.06250000 4298233.00000000 954.97399902 209 202 191
458058.06250000 4298233.50000000 955.26000977 203 196 184
458058.06250000 4298234.00000000 955.54400635 208 202 190
458058.06250000 4298234.50000000 955.82098389 202 196 185
458058.06250000 4298235.00000000 956.08197021 217 211 201
458058.06250000 4298235.50000000 956.35400391 227 223 211
458058.06250000 4298236.00000000 956.57202148 234 231 219
458058.06250000 4298236.50000000 956.79699707 233 231 218
458058.06250000 4298237.00000000 957.08001709 232 227 216
458058.06250000 4298237.50000000 957.31298828 226 220 209
458058.06250000 4298238.00000000 957.49798584 184 179 167
458058.06250000 4298238.50000000 957.66198730 174 168 156
458058.06250000 4298239.00000000 957.83300781 207 201 189
458058.56250000 4298232.00000000 954.24298096 219 212 204
458058.56250000 4298232.50000000 954.70397949 212 205 194
458058.56250000 4298233.00000000 955.05200195 215 207 195
458058.56250000 4298233.50000000 955.33197021 216 208 196
458058.56250000 4298234.00000000 955.62200928 206 198 187
458058.56250000 4298234.50000000 955.90002441 187 181 170
458058.56250000 4298235.00000000 956.15802002 203 196 186
458058.56250000 4298235.50000000 956.44598389 222 215 205
458058.56250000 4298236.00000000 956.70300293 233 226 216
458058.56250000 4298236.50000000 956.96398926 233 226 216
458058.56250000 4298237.00000000 957.23797607 232 224 213
458058.56250000 4298237.50000000 957.43597412 221 215 204
458058.56250000 4298238.00000000 957.57598877 184 179 165
458058.56250000 4298238.50000000 957.74200439 196 188 176
458058.56250000 4298239.00000000 957.91900635 223 216 205
458059.06250000 4298232.00000000 954.29998779 217 210 200
458059.06250000 4298232.50000000 954.82897949 207 198 189
458059.06250000 4298233.00000000 955.20001221 198 190 178
458059.06250000 4298233.50000000 955.45202637 197 189 177
458059.06250000 4298234.00000000 955.72802734 184 175 163
458059.06250000 4298234.50000000 956.01202393 177 169 158
458059.06250000 4298235.00000000 956.27502441 181 173 161
458059.06250000 4298235.50000000 956.55401611 200 192 180
458059.06250000 4298236.00000000 956.81097412 217 209 197
458059.06250000 4298236.50000000 957.05700684 230 221 209
458059.06250000 4298237.00000000 957.30200195 225 217 206
458059.06250000 4298237.50000000 957.48797607 218 210 199
458059.06250000 4298238.00000000 957.62500000 195 187 174
458059.06250000 4298238.50000000 957.80603027 206 198 185
458059.06250000 4298239.00000000 957.97698975 225 217 205
458059.56250000 4298232.00000000 954.38897705 210 202 192
458059.56250000 4298232.50000000 954.90399170 198 189 179
458059.56250000 4298233.00000000 955.28002930 186 179 167
458059.56250000 4298233.50000000 955.56402588 183 174 162
458059.56250000 4298234.00000000 955.84899902 180 172 160
458059.56250000 4298234.50000000 956.14501953 168 160 148
458059.56250000 4298235.00000000 956.42401123 166 157 145
458059.56250000 4298235.50000000 956.65899658 180 172 160
458059.56250000 4298236.00000000 956.87200928 198 190 178
458059.56250000 4298236.50000000 957.08898926 212 204 192
458059.56250000 4298237.00000000 957.31097412 204 196 185
458059.56250000 4298237.50000000 957.50897217 214 206 194
458059.56250000 4298238.00000000 957.67401123 200 192 178
458059.56250000 4298238.50000000 957.85998535 210 202 189
458059.56250000 4298239.00000000 958.02197266 225 217 205
458060.06250000 4298232.00000000 954.47302246 201 194 183
458060.06250000 4298232.50000000 954.96997070 188 179 170
458060.06250000 4298233.00000000 955.36297607 175 166 155
458060.06250000 4298233.50000000 955.67999268 179 168 158
458060.06250000 4298234.00000000 955.95001221 189 179 170
458060.06250000 4298234.50000000 956.23602295 176 167 156
458060.06250000 4298235.00000000 956.49798584 171 161 151
458060.06250000 4298235.50000000 956.70800781 170 160 149
458060.06250000 4298236.00000000 956.91601563 170 161 149
458060.06250000 4298236.50000000 957.12597656 181 173 161
458060.06250000 4298237.00000000 957.34698486 199 191 179
458060.06250000 4298237.50000000 957.54901123 208 200 189
458060.06250000 4298238.00000000 957.72100830 204 196 183
458060.06250000 4298238.50000000 957.88897705 219 211 197
458060.06250000 4298239.00000000 958.04498291 222 214 201
458060.56250000 4298232.00000000 954.50701904 195 187 175
458060.56250000 4298232.50000000 955.02697754 180 170 159
458060.56250000 4298233.00000000 955.45001221 168 158 147
458060.56250000 4298233.50000000 955.76098633 179 169 159
458060.56250000 4298234.00000000 956.02502441 185 175 164
458060.56250000 4298234.50000000 956.31701660 175 166 155
458060.56250000 4298235.00000000 956.56402588 177 168 157
458060.56250000 4298235.50000000 956.76898193 176 167 156
458060.56250000 4298236.00000000 956.97698975 171 162 152
458060.56250000 4298236.50000000 957.19396973 174 167 155
458060.56250000 4298237.00000000 957.40997314 192 184 173
458060.56250000 4298237.50000000 957.60198975 212 204 192
458060.56250000 4298238.00000000 957.76202393 212 204 191
458060.56250000 4298238.50000000 957.90100098 215 207 193
458060.56250000 4298239.00000000 958.06799316 206 198 185
458061.06250000 4298232.00000000 954.53002930 186 179 167
458061.06250000 4298232.50000000 955.05999756 174 164 154
458061.06250000 4298233.00000000 955.48602295 176 167 156
458061.06250000 4298233.50000000 955.79998779 183 172 161
458061.06250000 4298234.00000000 956.07397461 188 179 168
458061.06250000 4298234.50000000 956.36798096 185 175 164
458061.06250000 4298235.00000000 956.62902832 186 176 165
458061.06250000 4298235.50000000 956.85797119 181 171 160
458061.06250000 4298236.00000000 957.07299805 179 169 159
458061.06250000 4298236.50000000 957.28698730 180 170 159
458061.06250000 4298237.00000000 957.46197510 198 188 177
458061.06250000 4298237.50000000 957.63201904 213 203 192
458061.06250000 4298238.00000000 957.79998779 213 203 191
458061.06250000 4298238.50000000 957.93902588 204 194 181
458061.06250000 4298239.00000000 958.12902832 194 184 172
458061.56250000 4298232.00000000 954.53802490 183 173 162
458061.56250000 4298232.50000000 955.05603027 179 167 157
458061.56250000 4298233.00000000 955.48400879 186 173 163
458061.56250000 4298233.50000000 955.81500244 191 179 170
458061.56250000 4298234.00000000 956.09698486 188 175 165
458061.56250000 4298234.50000000 956.38897705 184 170 160
458061.56250000 4298235.00000000 956.65899658 177 164 155
458061.56250000 4298235.50000000 956.90802002 180 168 158
458061.56250000 4298236.00000000 957.13397217 172 160 151
458061.56250000 4298236.50000000 957.34197998 162 152 142
458061.56250000 4298237.00000000 957.48999023 179 168 158
458061.56250000 4298237.50000000 957.65100098 208 198 188
458061.56250000 4298238.00000000 957.83697510 208 198 186
458061.56250000 4298238.50000000 957.98999023 202 192 179
458061.56250000 4298239.00000000 958.20098877 189 179 167
458062.06250000 4298232.00000000 954.51000977 181 173 161
458062.06250000 4298232.50000000 954.99499512 179 168 159
458062.06250000 4298233.00000000 955.42797852 179 168 158
458062.06250000 4298233.50000000 955.79699707 188 177 167
458062.06250000 4298234.00000000 956.08697510 179 168 157
458062.06250000 4298234.50000000 956.37902832 171 159 149
458062.06250000 4298235.00000000 956.65502930 173 162 152
458062.06250000 4298235.50000000 956.88702393 176 166 155
458062.06250000 4298236.00000000 957.11199951 174 164 154
458062.06250000 4298236.50000000 957.33801270 175 167 155
458062.06250000 4298237.00000000 957.49499512 184 174 163
458062.06250000 4298237.50000000 957.66497803 204 194 184
458062.06250000 4298238.00000000 957.85699463 205 195 183
458062.06250000 4298238.50000000 958.00799561 199 189 176
458062.06250000 4298239.00000000 958.22998047 195 185 173
458062.56250000 4298232.00000000 954.42797852 194 186 175
458062.56250000 4298232.50000000 954.85998535 181 172 162
458062.56250000 4298233.00000000 955.30102539 175 166 155
458062.56250000 4298233.50000000 955.71801758 184 173 162
458062.56250000 4298234.00000000 956.01702881 179 169 159
458062.56250000 4298234.50000000 956.30798340 171 161 151
458062.56250000 4298235.00000000 956.60601807 173 163 153
458062.56250000 4298235.50000000 956.82897949 175 166 155
458062.56250000 4298236.00000000 957.06298828 175 166 155
458062.56250000 4298236.50000000 957.32397461 179 170 159
458062.56250000 4298237.00000000 957.50701904 191 184 172
458062.56250000 4298237.50000000 957.68402100 184 174 163
458062.56250000 4298238.00000000 957.86602783 189 179 167
458062.56250000 4298238.50000000 958.00799561 199 189 176
458062.56250000 4298239.00000000 958.22198486 190 180 168
458063.06250000 4298232.00000000 954.27899170 192 183 172
458063.06250000 4298232.50000000 954.72900391 192 183 172
458063.06250000 4298233.00000000 955.18798828 173 163 153
458063.06250000 4298233.50000000 955.59899902 186 176 165
458063.06250000 4298234.00000000 955.91101074 180 170 159
458063.06250000 4298234.50000000 956.21301270 172 162 152
458063.06250000 4298235.00000000 956.53698730 174 164 154
458063.06250000 4298235.50000000 956.77502441 175 166 155
458063.06250000 4298236.00000000 956.99700928 175 167 156
458063.06250000 4298236.50000000 957.26397705 179 171 159
458063.06250000 4298237.00000000 957.49499512 188 179 168
458063.06250000 4298237.50000000 957.67999268 166 155 144
458063.06250000 4298238.00000000 957.85998535 176 167 154
458063.06250000 4298238.50000000 958.00701904 199 188 175
458063.06250000 4298239.00000000 958.19897461 190 179 165
458063.56250000 4298232.50000000 954.62298584 188 179 168
458063.56250000 4298233.00000000 955.09399414 172 162 152
458063.56250000 4298233.50000000 955.48797607 176 167 156
458063.56250000 4298234.00000000 955.83099365 190 180 171
458063.56250000 4298234.50000000 956.14099121 174 164 154
458063.56250000 4298235.00000000 956.45501709 173 163 153
458063.56250000 4298235.50000000 956.70599365 174 164 154
458063.56250000 4298236.00000000 956.91400146 179 168 158
458063.56250000 4298236.50000000 957.17401123 177 168 157
458063.56250000 4298237.00000000 957.44897461 183 172 161
458063.56250000 4298237.50000000 957.65997314 171 161 151
458063.56250000 4298238.00000000 957.85498047 173 162 149
458063.56250000 4298238.50000000 958.00701904 195 184 171
458063.56250000 4298239.00000000 958.17797852 197 185 173
458064.06250000 4298232.50000000 954.53802490 160 150 141
458064.06250000 4298233.00000000 955.00500488 184 173 162
458064.06250000 4298233.50000000 955.40502930 174 164 154
458064.06250000 4298234.00000000 955.74700928 191 181 171
458064.06250000 4298234.50000000 956.05297852 189 179 170
458064.06250000 4298235.00000000 956.35302734 179 168 158
458064.06250000 4298235.50000000 956.61401367 175 166 155
458064.06250000 4298236.00000000 956.85797119 176 167 156
458064.06250000 4298236.50000000 957.12500000 174 164 154
458064.06250000 4298237.00000000 957.39898682 179 168 158
458064.06250000 4298237.50000000 957.63598633 174 162 153
458064.06250000 4298238.00000000 957.84802246 177 166 153
458064.06250000 4298238.50000000 957.99298096 194 183 171
458064.06250000 4298239.00000000 958.15899658 199 187 175
458064.56250000 4298232.50000000 954.52099609 153 140 131
458064.56250000 4298233.00000000 954.92797852 166 155 144
458064.56250000 4298233.50000000 955.29400635 179 169 159
458064.56250000 4298234.00000000 955.65301514 193 184 173
458064.56250000 4298234.50000000 955.98199463 198 188 177
458064.56250000 4298235.00000000 956.27099609 184 174 163
458064.56250000 4298235.50000000 956.54199219 179 168 158
458064.56250000 4298236.00000000 956.83697510 174 164 154
458064.56250000 4298236.50000000 957.11401367 169 159 148
458064.56250000 4298237.00000000 957.36297607 176 163 154
458064.56250000 4298237.50000000 957.59002686 168 154 144
458064.56250000 4298238.00000000 957.81500244 173 161 148
458064.56250000 4298238.50000000 957.97399902 200 186 175
458064.56250000 4298239.00000000 958.17199707 202 188 176
458065.06250000 4298232.50000000 954.52502441 155 142 133
458065.06250000 4298233.00000000 954.87701416 163 153 143
458065.06250000 4298233.50000000 955.19799805 180 170 159
458065.06250000 4298234.00000000 955.58001709 186 176 165
458065.06250000 4298234.50000000 955.94299316 196 186 175
458065.06250000 4298235.00000000 956.22399902 184 173 162
458065.06250000 4298235.50000000 956.50897217 179 168 157
458065.06250000 4298236.00000000 956.82598877 174 164 154
458065.06250000 4298236.50000000 957.10101318 172 162 152
458065.06250000 4298237.00000000 957.35601807 176 163 154
458065.06250000 4298237.50000000 957.57598877 176 163 154
458065.06250000 4298238.00000000 957.78497314 180 168 156
458065.06250000 4298238.50000000 957.94702148 202 188 176
458065.06250000 4298239.00000000 958.13201904 206 192 180
458065.56250000 4298232.00000000 954.18402100 166 152 143
458065.56250000 4298232.50000000 954.57299805 159 146 140
458065.56250000 4298233.00000000 954.90002441 174 164 155
458065.56250000 4298233.50000000 955.18597412 164 154 144
458065.56250000 4298234.00000000 955.55603027 172 162 152
458065.56250000 4298234.50000000 955.90802002 186 174 162
458065.56250000 4298235.00000000 956.18597412 184 171 159
458065.56250000 4298235.50000000 956.50402832 181 169 155
458065.56250000 4298236.00000000 956.81597900 179 168 154
458065.56250000 4298236.50000000 957.06701660 174 162 149
458065.56250000 4298237.00000000 957.34399414 172 159 149
458065.56250000 4298237.50000000 957.57397461 174 161 152
458065.56250000 4298238.00000000 957.76300049 185 172 161
458065.56250000 4298238.50000000 957.93499756 195 181 170
458065.56250000 4298239.00000000 958.09497070 206 192 178
458066.06250000 4298232.00000000 954.22100830 166 152 143
458066.06250000 4298232.50000000 954.60498047 162 149 142
