457874.56250000 4298234.00000000 963.69702148 187 167 147
457874.56250000 4298234.50000000 963.55999756 186 166 146
457874.56250000 4298235.00000000 963.44598389 192 171 152
457874.56250000 4298235.50000000 963.33502197 193 172 153
457874.56250000 4298236.00000000 963.25402832 187 167 147
457875.06250000 4298232.00000000 963.83801270 198 177 158
457875.06250000 4298232.50000000 963.76098633 189 168 149
457875.06250000 4298233.00000000 963.69598389 188 168 148
457875.06250000 4298233.50000000 963.60498047 185 164 145
457875.06250000 4298234.00000000 963.47302246 185 164 145
457875.06250000 4298234.50000000 963.33599854 185 164 145
457875.06250000 4298235.00000000 963.22399902 189 168 149
457875.56250000 4298232.00000000 963.63500977 196 175 156
457875.56250000 4298232.50000000 963.58099365 188 168 148
457875.56250000 4298233.00000000 963.49902344 186 166 146
457875.56250000 4298233.50000000 963.38201904 186 166 146
457875.56250000 4298234.00000000 963.26000977 185 164 145
457876.06250000 4298232.00000000 963.46997070 194 173 154
457876.06250000 4298232.50000000 963.42797852 190 169 150
457876.06250000 4298233.00000000 963.33001709 186 166 146
457876.06250000 4298233.50000000 963.20202637 184 163 144
457876.56250000 4298232.00000000 963.26898193 195 174 155
457876.56250000 4298232.50000000 963.22399902 189 168 149
457871.06250000 4298239.50000000 963.90301514 186 166 146
457871.06250000 4298240.00000000 963.75402832 184 163 144
457871.06250000 4298240.50000000 963.58801270 185 164 145
457871.06250000 4298241.00000000 963.44396973 188 168 148
457871.06250000 4298241.50000000 963.27301025 187 167 147
457871.56250000 4298239.50000000 963.64801025 184 163 144
457871.56250000 4298240.00000000 963.52301025 186 166 146
457871.56250000 4298240.50000000 963.34698486 187 167 147
457872.06250000 4298239.50000000 963.40301514 188 168 148
457872.06250000 4298240.00000000 963.23199463 186 166 146
457884.06250000 4298248.50000000 963.34100342 167 148 134
457884.56250000 4298247.50000000 963.33697510 190 172 158
457884.56250000 4298248.00000000 963.45599365 198 180 166
457884.56250000 4298248.50000000 963.60699463 192 174 160
457885.06250000 4298246.50000000 963.21099854 177 159 145
457885.06250000 4298247.00000000 963.41302490 181 163 149
457885.06250000 4298247.50000000 963.55297852 207 190 174
457885.06250000 4298248.00000000 963.70501709 215 198 182
457885.06250000 4298248.50000000 963.84497070 215 198 182
457885.56250000 4298246.00000000 963.23400879 188 170 156
457885.56250000 4298246.50000000 963.44500732 198 181 165
457885.56250000 4298247.00000000 963.59600830 210 193 177
457885.56250000 4298247.50000000 963.75097656 219 202 186
457885.56250000 4298248.00000000 963.89898682 222 205 187
457885.56250000 4298248.50000000 964.01898193 224 207 188
457886.06250000 4298245.50000000 963.21398926 189 173 158
457886.06250000 4298246.00000000 963.40399170 204 188 172
457886.06250000 4298246.50000000 963.58001709 216 200 184
457886.06250000 4298247.00000000 963.74499512 219 203 186
457886.06250000 4298247.50000000 963.90399170 225 209 190
457886.06250000 4298248.00000000 964.02197266 224 209 190
457886.06250000 4298248.50000000 964.13000488 224 208 189
457886.56250000 4298245.00000000 963.20098877 189 173 158
457886.56250000 4298245.50000000 963.35302734 207 191 176
457886.56250000 4298246.00000000 963.48999023 216 200 184
457886.56250000 4298246.50000000 963.65100098 220 204 188
457886.56250000 4298247.00000000 963.83697510 225 209 193
457886.56250000 4298247.50000000 963.99597168 225 210 191
457886.56250000 4298248.00000000 964.09802246 222 207 188
457886.56250000 4298248.50000000 964.17901611 221 206 187
457887.06250000 4298245.00000000 963.28900146 208 192 177
457887.06250000 4298245.50000000 963.44000244 212 196 180
457887.06250000 4298246.00000000 963.54199219 219 203 187
457887.06250000 4298246.50000000 963.69396973 224 208 192
457887.06250000 4298247.00000000 963.88598633 224 208 192
457887.06250000 4298247.50000000 964.02899170 223 208 189
457887.06250000 4298248.00000000 964.10601807 221 206 187
457887.06250000 4298248.50000000 964.16802979 221 206 187
457887.56250000 4298245.00000000 963.34600830 220 204 188
457887.56250000 4298245.50000000 963.48602295 221 205 189
457887.56250000 4298246.00000000 963.58300781 223 207 191
457887.56250000 4298246.50000000 963.71502686 223 207 191
457887.56250000 4298247.00000000 963.90899658 223 207 191
457887.56250000 4298247.50000000 964.02301025 221 206 187
457887.56250000 4298248.00000000 964.08001709 222 207 188
457887.56250000 4298248.50000000 964.14202881 221 206 187
457888.06250000 4298244.50000000 963.20098877 202 186 172
457888.06250000 4298245.00000000 963.36798096 220 204 188
457888.06250000 4298245.50000000 963.47802734 222 207 189
457888.06250000 4298246.00000000 963.61499023 224 208 192
457888.06250000 4298246.50000000 963.79400635 223 207 191
457888.06250000 4298247.00000000 963.93298340 222 206 190
457888.06250000 4298247.50000000 964.00897217 221 206 187
457888.06250000 4298248.00000000 964.05102539 222 207 188
457888.06250000 4298248.50000000 964.10302734 221 206 187
457888.56250000 4298244.50000000 963.21697998 222 206 192
457888.56250000 4298245.00000000 963.37097168 219 203 187
457888.56250000 4298245.50000000 963.48699951 223 208 189
457888.56250000 4298246.00000000 963.64599609 223 207 191
457888.56250000 4298246.50000000 963.81097412 221 205 189
457888.56250000 4298247.00000000 963.89398193 220 204 188
457888.56250000 4298247.50000000 963.96600342 221 206 187
457888.56250000 4298248.00000000 964.00701904 222 207 188
457888.56250000 4298248.50000000 964.03002930 221 206 187
457889.06250000 4298244.50000000 963.22302246 223 207 193
457889.06250000 4298245.00000000 963.38598633 223 208 191
457889.06250000 4298245.50000000 963.51397705 224 209 190
457889.06250000 4298246.00000000 963.63598633 222 206 190
457889.06250000 4298246.50000000 963.76702881 220 204 188
457889.06250000 4298247.00000000 963.84802246 221 205 189
457889.06250000 4298247.50000000 963.91601563 222 207 188
457889.06250000 4298248.00000000 963.95599365 223 208 189
457889.06250000 4298248.50000000 963.97198486 222 207 188
457889.56250000 4298244.50000000 963.22900391 223 207 191
457889.56250000 4298245.00000000 963.38897705 223 207 191
457889.56250000 4298245.50000000 963.51599121 223 207 191
457889.56250000 4298246.00000000 963.60601807 221 206 187
457889.56250000 4298246.50000000 963.71197510 222 207 188
457889.56250000 4298247.00000000 963.80603027 222 207 188
457889.56250000 4298247.50000000 963.87298584 223 208 189
457889.56250000 4298248.00000000 963.91699219 223 208 189
457889.56250000 4298248.50000000 963.94396973 222 207 188
457890.06250000 4298244.50000000 963.19897461 223 207 191
457890.06250000 4298245.00000000 963.34600830 223 207 191
457890.06250000 4298245.50000000 963.46801758 223 207 191
457890.06250000 4298246.00000000 963.55902100 222 207 188
457890.06250000 4298246.50000000 963.67797852 222 207 188
457890.06250000 4298247.00000000 963.76000977 222 207 188
457890.06250000 4298247.50000000 963.82000732 222 207 188
457890.06250000 4298248.00000000 963.85699463 223 208 189
457890.06250000 4298248.50000000 963.90100098 223 208 189
457890.56250000 4298245.00000000 963.30999756 223 206 190
457890.56250000 4298245.50000000 963.40997314 224 207 191
457890.56250000 4298246.00000000 963.46899414 223 206 188
457890.56250000 4298246.50000000 963.58099365 222 205 187
457890.56250000 4298247.00000000 963.67797852 222 205 187
457890.56250000 4298247.50000000 963.73498535 223 206 188
457890.56250000 4298248.00000000 963.80102539 224 207 189
457890.56250000 4298248.50000000 963.86297607 225 208 190
457891.06250000 4298245.00000000 963.22998047 224 207 189
457891.06250000 4298245.50000000 963.35601807 223 206 188
457891.06250000 4298246.00000000 963.40899658 222 205 187
457891.06250000 4298246.50000000 963.51300049 222 205 187
457891.06250000 4298247.00000000 963.63000488 222 205 187
457891.06250000 4298247.50000000 963.69897461 223 206 188
457891.06250000 4298248.00000000 963.78302002 225 208 190
457891.06250000 4298248.50000000 963.84497070 226 209 191
457891.56250000 4298245.50000000 963.29699707 224 207 189
457891.56250000 4298246.00000000 963.35302734 223 206 188
457891.56250000 4298246.50000000 963.41998291 222 205 187
457891.56250000 4298247.00000000 963.53997803 223 206 188
457891.56250000 4298247.50000000 963.64801025 224 207 189
457891.56250000 4298248.00000000 963.72198486 225 208 190
457891.56250000 4298248.50000000 963.78601074 226 209 191
457892.06250000 4298245.50000000 963.18701172 224 207 189
457892.06250000 4298246.00000000 963.29699707 223 206 188
457892.06250000 4298246.50000000 963.36798096 224 207 189
457892.06250000 4298247.00000000 963.47497559 223 206 188
457892.06250000 4298247.50000000 963.59002686 224 207 189
457892.06250000 4298248.00000000 963.65899658 224 207 189
457892.06250000 4298248.50000000 963.70898438 225 208 190
457892.56250000 4298246.00000000 963.20697021 226 209 191
457892.56250000 4298246.50000000 963.32598877 226 209 191
457892.56250000 4298247.00000000 963.43402100 224 207 189
457892.56250000 4298247.50000000 963.54901123 224 207 189
457892.56250000 4298248.00000000 963.61499023 223 206 188
457892.56250000 4298248.50000000 963.66198730 225 208 190
457893.06250000 4298246.50000000 963.21197510 228 211 193
457893.06250000 4298247.00000000 963.36602783 226 209 191
457893.06250000 4298247.50000000 963.48400879 225 208 190
457893.06250000 4298248.00000000 963.55999756 224 207 189
457893.06250000 4298248.50000000 963.61602783 225 208 190
457893.56250000 4298247.00000000 963.24401855 225 208 190
457893.56250000 4298247.50000000 963.42401123 225 208 190
457893.56250000 4298248.00000000 963.51397705 225 208 190
457893.56250000 4298248.50000000 963.57000732 225 208 190
457894.06250000 4298247.50000000 963.36602783 225 208 190
457894.06250000 4298248.00000000 963.47698975 225 208 190
457894.06250000 4298248.50000000 963.53302002 225 208 190
457894.56250000 4298247.50000000 963.29302979 224 207 189
457894.56250000 4298248.00000000 963.42102051 225 208 190
457894.56250000 4298248.50000000 963.49401855 226 209 191
457895.06250000 4298247.50000000 963.22802734 224 207 189
457895.06250000 4298248.00000000 963.36901855 225 208 190
457895.06250000 4298248.50000000 963.46398926 226 209 191
457895.56250000 4298248.00000000 963.31500244 225 208 190
457895.56250000 4298248.50000000 963.42297363 225 208 190
457896.06250000 4298248.00000000 963.29998779 225 208 190
457896.06250000 4298248.50000000 963.42602539 225 208 190
457896.56250000 4298248.00000000 963.29699707 226 209 191
457896.56250000 4298248.50000000 963.42901611 225 208 190
457897.06250000 4298248.00000000 963.27899170 225 208 190
457897.06250000 4298248.50000000 963.42700195 225 208 190
457897.56250000 4298248.00000000 963.23498535 223 206 188
457897.56250000 4298248.50000000 963.40002441 224 207 189
457898.06250000 4298248.00000000 963.20001221 222 205 187
457898.06250000 4298248.50000000 963.36700439 223 206 188
457898.56250000 4298248.00000000 963.19201660 223 206 188
457898.56250000 4298248.50000000 963.35400391 223 206 188
457899.06250000 4298248.50000000 963.34100342 222 207 188
457899.56250000 4298248.50000000 963.34600830 223 206 188
457900.06250000 4298248.50000000 963.32202148 221 204 186
457900.56250000 4298248.50000000 963.32397461 221 204 184
457901.06250000 4298248.00000000 963.19000244 221 203 183
457901.06250000 4298248.50000000 963.35601807 222 204 184
457901.56250000 4298248.00000000 963.25701904 221 203 183
457901.56250000 4298248.50000000 963.43298340 222 204 184
457902.06250000 4298247.50000000 963.20599365 215 195 175
457902.06250000 4298248.00000000 963.35998535 216 196 177
457902.06250000 4298248.50000000 963.54901123 216 196 177
457902.56250000 4298247.00000000 963.18798828 215 194 175
457902.56250000 4298247.50000000 963.30499268 214 193 174
457902.56250000 4298248.00000000 963.47302246 215 194 175
457902.56250000 4298248.50000000 963.67401123 216 195 176
457903.06250000 4298247.00000000 963.29302979 214 193 174
457903.06250000 4298247.50000000 963.42199707 215 194 175
457903.06250000 4298248.00000000 963.57897949 216 195 176
457903.06250000 4298248.50000000 963.78399658 217 196 177
457903.56250000 4298246.50000000 963.24597168 217 196 176
457903.56250000 4298247.00000000 963.39099121 215 194 174
457903.56250000 4298247.50000000 963.53802490 215 194 175
457903.56250000 4298248.00000000 963.69500732 216 195 175
457903.56250000 4298248.50000000 963.90002441 216 195 175
457904.06250000 4298246.00000000 963.21301270 214 193 172
457904.06250000 4298246.50000000 963.31402588 216 195 174
457904.06250000 4298247.00000000 963.46697998 215 194 173
457904.06250000 4298247.50000000 963.62902832 214 193 172
457904.06250000 4298248.00000000 963.80200195 216 195 174
457904.06250000 4298248.50000000 963.99401855 216 195 174
457904.56250000 4298246.00000000 963.25299072 214 193 172
457904.56250000 4298246.50000000 963.37902832 215 194 173
457904.56250000 4298247.00000000 963.52197266 216 195 174
457904.56250000 4298247.50000000 963.69000244 214 193 172
457904.56250000 4298248.00000000 963.87402344 216 195 174
457904.56250000 4298248.50000000 964.04998779 216 195 174
457905.06250000 4298246.00000000 963.30603027 214 193 172
457905.06250000 4298246.50000000 963.44598389 215 194 173
457905.06250000 4298247.00000000 963.57000732 216 195 174
457905.06250000 4298247.50000000 963.73699951 215 194 173
457905.06250000 4298248.00000000 963.93597412 215 194 173
457905.06250000 4298248.50000000 964.11297607 216 195 174
457905.56250000 4298245.50000000 963.20202637 213 192 171
457905.56250000 4298246.00000000 963.36700439 214 193 172
457905.56250000 4298246.50000000 963.50799561 214 193 172
457905.56250000 4298247.00000000 963.64300537 215 194 173
457905.56250000 4298247.50000000 963.81896973 216 195 174
457905.56250000 4298248.00000000 964.00799561 216 195 174
457905.56250000 4298248.50000000 964.17401123 217 196 175
457906.06250000 4298245.50000000 963.29101563 214 193 172
457906.06250000 4298246.00000000 963.44500732 214 193 172
457906.06250000 4298246.50000000 963.58001709 215 194 173
457906.06250000 4298247.00000000 963.75598145 215 194 173
457906.06250000 4298247.50000000 963.93200684 217 196 175
457906.06250000 4298248.00000000 964.07098389 217 196 175
457906.06250000 4298248.50000000 964.24200439 219 198 177
457906.56250000 4298245.00000000 963.21398926 216 195 174
457906.56250000 4298245.50000000 963.38000488 216 195 174
457906.56250000 4298246.00000000 963.52398682 215 194 173
457906.56250000 4298246.50000000 963.65002441 216 195 174
457906.56250000 4298247.00000000 963.84301758 215 194 173
457906.56250000 4298247.50000000 964.02099609 216 195 174
457906.56250000 4298248.00000000 964.14898682 218 197 176
457906.56250000 4298248.50000000 964.34600830 218 197 176
457907.06250000 4298245.00000000 963.28997803 218 197 176
457907.06250000 4298245.50000000 963.45001221 217 196 175
457907.06250000 4298246.00000000 963.58300781 216 195 174
457907.06250000 4298246.50000000 963.73101807 215 194 173
457907.06250000 4298247.00000000 963.92102051 215 194 173
457907.06250000 4298247.50000000 964.07202148 216 195 174
457907.06250000 4298248.00000000 964.22601318 217 196 175
457907.06250000 4298248.50000000 964.42498779 219 198 177
457907.56250000 4298244.50000000 963.25299072 217 196 175
457907.56250000 4298245.00000000 963.39300537 218 197 176
457907.56250000 4298245.50000000 963.52099609 216 195 174
457907.56250000 4298246.00000000 963.64099121 216 195 174
457907.56250000 4298246.50000000 963.81201172 215 194 173
457907.56250000 4298247.00000000 963.97698975 215 194 173
457907.56250000 4298247.50000000 964.11297607 217 196 175
457907.56250000 4298248.00000000 964.28900146 218 197 176
457907.56250000 4298248.50000000 964.45300293 219 198 177
457908.06250000 4298244.50000000 963.33697510 217 196 175
457908.06250000 4298245.00000000 963.48400879 218 197 176
457908.06250000 4298245.50000000 963.59698486 218 197 176
457908.06250000 4298246.00000000 963.74798584 217 196 175
457908.06250000 4298246.50000000 963.90301514 217 196 175
457908.06250000 4298247.00000000 964.03601074 216 195 174
457908.06250000 4298247.50000000 964.18597412 217 196 175
457908.06250000 4298248.00000000 964.35699463 218 197 176
457908.06250000 4298248.50000000 964.49298096 219 198 177
457908.56250000 4298244.50000000 963.38299561 217 196 175
457908.56250000 4298245.00000000 963.53997803 218 197 176
457908.56250000 4298245.50000000 963.66198730 219 198 177
457908.56250000 4298246.00000000 963.84197998 219 199 175
457908.56250000 4298246.50000000 963.98101807 219 199 175
457908.56250000 4298247.00000000 964.10400391 217 196 175
457908.56250000 4298247.50000000 964.25799561 216 195 174
457908.56250000 4298248.00000000 964.41998291 216 195 174
457908.56250000 4298248.50000000 964.55401611 219 197 176
457909.06250000 4298244.50000000 963.41998291 217 196 175
457909.06250000 4298245.00000000 963.59497070 218 197 176
457909.06250000 4298245.50000000 963.74102783 219 198 177
457909.06250000 4298246.00000000 963.89099121 219 199 175
457909.06250000 4298246.50000000 964.03002930 219 198 176
457909.06250000 4298247.00000000 964.14898682 217 196 175
457909.06250000 4298247.50000000 964.28698730 216 195 174
457909.06250000 4298248.00000000 964.45202637 216 195 174
457909.06250000 4298248.50000000 964.60498047 218 197 178
457909.56250000 4298244.00000000 963.23602295 217 196 175
457909.56250000 4298244.50000000 963.45300293 218 197 176
457909.56250000 4298245.00000000 963.65399170 219 198 177
457909.56250000 4298245.50000000 963.82800293 219 198 177
457909.56250000 4298246.00000000 963.95599365 219 198 175
457909.56250000 4298246.50000000 964.07000732 219 198 177
457909.56250000 4298247.00000000 964.19500732 218 197 176
457909.56250000 4298247.50000000 964.34301758 218 197 176
457909.56250000 4298248.00000000 964.49597168 216 196 177
457909.56250000 4298248.50000000 964.62500000 218 197 178
457910.06250000 4298244.00000000 963.30499268 217 196 175
457910.06250000 4298244.50000000 963.48400879 217 196 175
457910.06250000 4298245.00000000 963.67498779 218 197 176
457910.06250000 4298245.50000000 963.86700439 218 197 176
457910.06250000 4298246.00000000 964.01599121 219 198 177
457910.06250000 4298246.50000000 964.14300537 219 198 177
457910.06250000 4298247.00000000 964.27502441 218 197 178
457910.06250000 4298247.50000000 964.40399170 218 198 178
457910.06250000 4298248.00000000 964.52197266 216 198 178
457910.06250000 4298248.50000000 964.61199951 215 197 177
457910.56250000 4298244.00000000 963.36499023 217 196 175
457910.56250000 4298244.50000000 963.49200439 217 196 175
457910.56250000 4298245.00000000 963.69702148 219 198 177
457910.56250000 4298245.50000000 963.91601563 218 197 176
457910.56250000 4298246.00000000 964.04602051 219 198 177
457910.56250000 4298246.50000000 964.20202637 220 199 178
457910.56250000 4298247.00000000 964.32299805 218 200 180
457910.56250000 4298247.50000000 964.42797852 217 199 179
457910.56250000 4298248.00000000 964.52398682 217 199 179
457910.56250000 4298248.50000000 964.60198975 214 197 178
457911.06250000 4298243.50000000 963.21600342 219 198 177
457911.06250000 4298244.00000000 963.38800049 218 197 176
457911.06250000 4298244.50000000 963.48602295 218 197 176
457911.06250000 4298245.00000000 963.70397949 219 198 177
457911.06250000 4298245.50000000 963.92999268 220 199 178
457911.06250000 4298246.00000000 964.04400635 220 199 178
457911.06250000 4298246.50000000 964.20300293 220 199 179
457911.06250000 4298247.00000000 964.31097412 218 200 180
457911.06250000 4298247.50000000 964.41998291 218 200 180
457911.06250000 4298248.00000000 964.51501465 215 198 178
457911.06250000 4298248.50000000 964.62200928 212 195 177
457911.56250000 4298243.50000000 963.20300293 220 199 178
457911.56250000 4298244.00000000 963.36901855 218 197 177
457911.56250000 4298244.50000000 963.49597168 218 197 177
457911.56250000 4298245.00000000 963.69897461 219 198 177
457911.56250000 4298245.50000000 963.90002441 221 200 179
457911.56250000 4298246.00000000 964.00897217 219 197 179
457911.56250000 4298246.50000000 964.14398193 219 199 180
457911.56250000 4298247.00000000 964.27697754 217 199 180
457911.56250000 4298247.50000000 964.41302490 212 195 175
457911.56250000 4298248.00000000 964.50500488 204 189 171
457911.56250000 4298248.50000000 964.62799072 203 188 170
457912.06250000 4298243.50000000 963.19299316 220 199 178
457912.06250000 4298244.00000000 963.34802246 219 198 179
457912.06250000 4298244.50000000 963.48901367 218 198 179
457912.06250000 4298245.00000000 963.67999268 217 199 179
457912.06250000 4298245.50000000 963.86499023 218 200 180
457912.06250000 4298246.00000000 963.96301270 219 199 181
457912.06250000 4298246.50000000 964.08898926 216 197 180
457912.06250000 4298247.00000000 964.26000977 210 193 175
457912.06250000 4298247.50000000 964.39202881 202 187 168
457912.06250000 4298248.00000000 964.47698975 197 184 167
457912.06250000 4298248.50000000 964.59698486 193 183 164
457912.56250000 4298244.00000000 963.32299805 221 200 181
457912.56250000 4298244.50000000 963.47900391 218 199 180
457912.56250000 4298245.00000000 963.62799072 217 199 179
457912.56250000 4298245.50000000 963.80401611 217 198 181
457912.56250000 4298246.00000000 963.94000244 215 196 179
457912.56250000 4298246.50000000 964.04699707 206 189 171
457912.56250000 4298247.00000000 964.20599365 197 180 164
457912.56250000 4298247.50000000 964.34197998 198 183 166
457912.56250000 4298248.00000000 964.44897461 193 180 163
457912.56250000 4298248.50000000 964.54602051 192 180 163
457913.06250000 4298244.00000000 963.28002930 220 200 181
457913.06250000 4298244.50000000 963.43200684 218 199 181
457913.06250000 4298245.00000000 963.57098389 217 198 181
457913.06250000 4298245.50000000 963.73999023 218 199 182
457913.06250000 4298246.00000000 963.91601563 207 189 173
457913.06250000 4298246.50000000 964.02801514 192 175 159
457913.06250000 4298247.00000000 964.13897705 186 170 154
457913.06250000 4298247.50000000 964.27697754 194 179 162
457913.06250000 4298248.00000000 964.41601563 192 179 163
457913.06250000 4298248.50000000 964.52301025 189 176 160
457913.56250000 4298244.00000000 963.24700928 220 202 183
457913.56250000 4298244.50000000 963.39801025 219 201 184
457913.56250000 4298245.00000000 963.54101563 218 200 182
457913.56250000 4298245.50000000 963.71899414 209 192 174
457913.56250000 4298246.00000000 963.90502930 202 185 170
457913.56250000 4298246.50000000 964.02001953 193 176 160
457913.56250000 4298247.00000000 964.09100342 186 170 155
457913.56250000 4298247.50000000 964.21099854 189 174 159
457913.56250000 4298248.00000000 964.36297607 188 175 159
457913.56250000 4298248.50000000 964.48498535 180 167 151
457914.06250000 4298244.00000000 963.21502686 221 202 185
457914.06250000 4298244.50000000 963.36401367 219 202 184
457914.06250000 4298245.00000000 963.49597168 211 194 176
457914.06250000 4298245.50000000 963.68499756 195 179 161
457914.06250000 4298246.00000000 963.85601807 183 167 151
457914.06250000 4298246.50000000 963.94598389 184 168 152
457914.06250000 4298247.00000000 964.04199219 179 162 148
457914.06250000 4298247.50000000 964.12097168 184 169 155
457914.06250000 4298248.00000000 964.25097656 179 166 152
457914.06250000 4298248.50000000 964.41198730 175 161 148
457914.56250000 4298244.50000000 963.31701660 222 205 187
457914.56250000 4298245.00000000 963.44000244 201 184 168
457914.56250000 4298245.50000000 963.58001709 184 168 151
457914.56250000 4298246.00000000 963.73699951 175 159 144
457914.56250000 4298246.50000000 963.85498047 179 162 147
457914.56250000 4298247.00000000 963.94897461 173 159 146
457914.56250000 4298247.50000000 964.04998779 175 161 148
457914.56250000 4298248.00000000 964.17199707 175 161 148
457914.56250000 4298248.50000000 964.35797119 174 160 148
457915.06250000 4298244.50000000 963.26898193 216 199 183
457915.06250000 4298245.00000000 963.39202881 203 187 173
457915.06250000 4298245.50000000 963.51202393 190 174 161
457915.06250000 4298246.00000000 963.59899902 176 162 151
457915.06250000 4298246.50000000 963.73297119 179 164 153
457915.06250000 4298247.00000000 963.88800049 179 164 153
457915.06250000 4298247.50000000 963.99499512 176 162 149
457915.06250000 4298248.00000000 964.07598877 177 163 150
457915.06250000 4298248.50000000 964.22698975 176 162 149
457915.56250000 4298244.50000000 963.20800781 198 183 166
457915.56250000 4298245.00000000 963.33197021 194 179 165
457915.56250000 4298245.50000000 963.46099854 183 166 155
457915.56250000 4298246.00000000 963.51397705 173 159 148
457915.56250000 4298246.50000000 963.58398438 177 163 152
457915.56250000 4298247.00000000 963.73699951 176 162 151
457915.56250000 4298247.50000000 963.90997314 176 162 151
457915.56250000 4298248.00000000 964.00598145 176 162 149
457915.56250000 4298248.50000000 964.08898926 177 163 150
457916.06250000 4298245.00000000 963.27600098 174 159 146
457916.06250000 4298245.50000000 963.40600586 157 142 133
457916.06250000 4298246.00000000 963.46502686 155 142 134
457916.06250000 4298246.50000000 963.51397705 156 143 134
457916.06250000 4298247.00000000 963.64300537 167 153 143
457916.06250000 4298247.50000000 963.80902100 173 160 148
457916.06250000 4298248.00000000 963.92401123 172 158 147
457916.06250000 4298248.50000000 964.01702881 179 164 152
457916.56250000 4298245.00000000 963.21197510 154 140 129
457916.56250000 4298245.50000000 963.34399414 145 132 124
457916.56250000 4298246.00000000 963.41400146 144 133 127
457916.56250000 4298246.50000000 963.46801758 142 131 123
457916.56250000 4298247.00000000 963.54901123 150 137 128
457916.56250000 4298247.50000000 963.68499756 166 152 143
457916.56250000 4298248.00000000 963.81701660 173 159 148
457916.56250000 4298248.50000000 963.89300537 176 162 151
457917.06250000 4298245.50000000 963.28997803 142 131 122
457917.06250000 4298246.00000000 963.35699463 143 132 128
457917.06250000 4298246.50000000 963.41400146 137 126 120
457917.06250000 4298247.00000000 963.47998047 139 126 118
457917.06250000 4298247.50000000 963.60998535 146 133 124
457917.06250000 4298248.00000000 963.74200439 160 147 137
457917.06250000 4298248.50000000 963.81097412 174 160 149
457917.56250000 4298245.50000000 963.19396973 139 128 122
457917.56250000 4298246.00000000 963.30902100 139 130 125
457917.56250000 4298246.50000000 963.35998535 139 129 123
457917.56250000 4298247.00000000 963.42401123 139 129 120
457917.56250000 4298247.50000000 963.50701904 149 136 128
457917.56250000 4298248.00000000 963.59600830 164 150 141
457917.56250000 4298248.50000000 963.70397949 186 172 161
457918.06250000 4298246.00000000 963.21099854 148 139 131
457918.06250000 4298246.50000000 963.31500244 145 136 127
457918.06250000 4298247.00000000 963.38000488 140 128 121
457918.06250000 4298247.50000000 963.44598389 143 129 120
457918.06250000 4298248.00000000 963.50598145 162 146 135
457918.06250000 4298248.50000000 963.58398438 192 177 163
457918.56250000 4298247.00000000 963.22698975 151 137 128
457918.56250000 4298247.50000000 963.32800293 164 150 139
457918.56250000 4298248.00000000 963.42999268 180 164 150
457918.56250000 4298248.50000000 963.48797607 189 173 157
457919.06250000 4298247.50000000 963.19299316 179 166 153
457919.06250000 4298248.00000000 963.28002930 186 170 157
457919.06250000 4298248.50000000 963.35699463 196 180 165
457919.56250000 4298248.50000000 963.24700928 173 155 141
457878.06250000 4298258.00000000 963.23199463 196 180 165
457878.56250000 4298257.00000000 963.37902832 200 183 168
457878.56250000 4298257.50000000 963.54101563 198 183 167
457878.56250000 4298258.00000000 963.74902344 192 176 161
457879.06250000 4298256.00000000 963.28302002 185 168 153
457879.06250000 4298256.50000000 963.62298584 191 173 159
457879.06250000 4298257.00000000 963.92602539 200 183 168
457879.06250000 4298257.50000000 964.09301758 194 179 163
457879.06250000 4298258.00000000 964.22198486 185 169 154
457879.56250000 4298255.50000000 963.40802002 185 168 153
457879.56250000 4298256.00000000 963.75299072 184 167 152
457879.56250000 4298256.50000000 964.11199951 188 171 156
457879.56250000 4298257.00000000 964.40698242 188 170 156
457879.56250000 4298257.50000000 964.56402588 184 168 153
457879.56250000 4298258.00000000 964.62902832 180 164 149
457880.06250000 4298254.50000000 963.20300293 168 151 138
457880.06250000 4298255.00000000 963.50701904 188 172 159
457880.06250000 4298255.50000000 963.83898926 188 172 157
457880.06250000 4298256.00000000 964.19097900 177 161 146
457880.06250000 4298256.50000000 964.50799561 179 163 148
457880.06250000 4298257.00000000 964.75201416 187 171 156
457880.06250000 4298257.50000000 964.90197754 193 177 162
457880.06250000 4298258.00000000 964.97100830 186 170 155
457880.56250000 4298254.00000000 963.29998779 179 163 150
457880.56250000 4298254.50000000 963.53198242 175 159 146
457880.56250000 4298255.00000000 963.86499023 190 174 161
457880.56250000 4298255.50000000 964.21301270 199 184 168
457880.56250000 4298256.00000000 964.53002930 196 180 165
457880.56250000 4298256.50000000 964.78497314 198 183 167
457880.56250000 4298257.00000000 964.96600342 199 184 168
457880.56250000 4298257.50000000 965.10699463 204 188 173
457880.56250000 4298258.00000000 965.21398926 197 181 166
457881.06250000 4298253.00000000 963.37799072 193 177 164
457881.06250000 4298253.50000000 963.54602051 188 172 159
457881.06250000 4298254.00000000 963.68902588 176 160 147
457881.06250000 4298254.50000000 963.91900635 170 154 141
457881.06250000 4298255.00000000 964.22100830 185 169 156
457881.06250000 4298255.50000000 964.51202393 203 187 172
457881.06250000 4298256.00000000 964.76202393 210 194 179
457881.06250000 4298256.50000000 964.94702148 202 186 171
457881.06250000 4298257.00000000 965.10900879 196 180 165
457881.06250000 4298257.50000000 965.26800537 207 191 176
457881.06250000 4298258.00000000 965.37701416 209 193 178
457881.56250000 4298252.50000000 963.45697021 190 174 161
457881.56250000 4298253.00000000 963.71099854 194 179 165
457881.56250000 4298253.50000000 963.92797852 186 170 157
457881.56250000 4298254.00000000 964.11297607 177 161 148
457881.56250000 4298254.50000000 964.29998779 176 160 147
457881.56250000 4298255.00000000 964.52502441 181 166 152
457881.56250000 4298255.50000000 964.75402832 190 174 159
457881.56250000 4298256.00000000 964.93701172 204 188 173
457881.56250000 4298256.50000000 965.09698486 195 179 164
457881.56250000 4298257.00000000 965.26800537 186 170 155
457881.56250000 4298257.50000000 965.40997314 198 183 167
457881.56250000 4298258.00000000 965.47399902 210 194 179
457882.06250000 4298252.00000000 963.47399902 208 192 178
457882.06250000 4298252.50000000 963.75799561 196 180 167
457882.06250000 4298253.00000000 964.01898193 192 176 163
457882.06250000 4298253.50000000 964.22900391 187 171 158
457882.06250000 4298254.00000000 964.37799072 180 164 151
457882.06250000 4298254.50000000 964.52801514 181 166 152
457882.06250000 4298255.00000000 964.71301270 187 171 158
457882.06250000 4298255.50000000 964.90399170 185 169 154
457882.06250000 4298256.00000000 965.06298828 188 172 157
457882.06250000 4298256.50000000 965.21801758 184 168 153
457882.06250000 4298257.00000000 965.36602783 175 159 144
457882.06250000 4298257.50000000 965.46398926 187 171 156
457882.06250000 4298258.00000000 965.50701904 208 192 177
457882.56250000 4298251.00000000 963.24102783 187 171 156
457882.56250000 4298251.50000000 963.47998047 196 180 165
457882.56250000 4298252.00000000 963.77197266 202 186 173
457882.56250000 4298252.50000000 964.02899170 208 192 179
457882.56250000 4298253.00000000 964.25201416 202 186 173
457882.56250000 4298253.50000000 964.42199707 192 176 163
457882.56250000 4298254.00000000 964.56799316 184 168 154
457882.56250000 4298254.50000000 964.72302246 190 174 161
457882.56250000 4298255.00000000 964.87298584 196 180 167
457882.56250000 4298255.50000000 965.02197266 198 183 167
457882.56250000 4298256.00000000 965.15301514 189 173 158
457882.56250000 4298256.50000000 965.28601074 184 168 152
457882.56250000 4298257.00000000 965.40502930 177 161 146
457882.56250000 4298257.50000000 965.47601318 188 172 157
457882.56250000 4298258.00000000 965.52099609 211 195 180
457883.06250000 4298250.50000000 963.33801270 172 156 143
457883.06250000 4298251.00000000 963.55297852 176 160 147
457883.06250000 4298251.50000000 963.78100586 176 160 147
457883.06250000 4298252.00000000 964.02398682 186 170 157
457883.06250000 4298252.50000000 964.22900391 205 189 174
457883.06250000 4298253.00000000 964.40698242 207 191 178
457883.06250000 4298253.50000000 964.57098389 183 167 153
457883.06250000 4298254.00000000 964.73797607 181 166 152
457883.06250000 4298254.50000000 964.88098145 191 175 161
457883.06250000 4298255.00000000 964.98199463 194 179 163
457883.06250000 4298255.50000000 965.08197021 203 187 172
457883.06250000 4298256.00000000 965.18798828 200 184 170
457883.06250000 4298256.50000000 965.29498291 194 179 165
457883.06250000 4298257.00000000 965.39202881 193 177 164
457883.06250000 4298257.50000000 965.46301270 191 175 162
457883.06250000 4298258.00000000 965.51501465 210 194 179
457883.56250000 4298249.50000000 963.26800537 180 164 149
457883.56250000 4298250.00000000 963.39501953 185 169 154
457883.56250000 4298250.50000000 963.58197021 197 181 166
457883.56250000 4298251.00000000 963.77001953 175 159 144
457883.56250000 4298251.50000000 963.97998047 164 148 133
457883.56250000 4298252.00000000 964.20001221 181 166 150
457883.56250000 4298252.50000000 964.38397217 196 180 165
457883.56250000 4298253.00000000 964.52197266 197 181 168
457883.56250000 4298253.50000000 964.67102051 186 170 157
457883.56250000 4298254.00000000 964.82501221 184 168 154
457883.56250000 4298254.50000000 964.94201660 184 168 154
457883.56250000 4298255.00000000 965.02899170 196 180 165
457883.56250000 4298255.50000000 965.11798096 203 187 171
457883.56250000 4298256.00000000 965.20599365 200 184 170
457883.56250000 4298256.50000000 965.28100586 208 192 179
457883.56250000 4298257.00000000 965.35900879 203 187 174
457883.56250000 4298257.50000000 965.44097900 197 181 166
457883.56250000 4298258.00000000 965.50402832 203 187 171
457884.06250000 4298249.00000000 963.49798584 180 164 149
457884.06250000 4298249.50000000 963.59802246 177 161 146
457884.06250000 4298250.00000000 963.69000244 171 155 140
457884.06250000 4298250.50000000 963.82000732 184 168 152
457884.06250000 4298251.00000000 963.96398926 187 171 156
457884.06250000 4298251.50000000 964.15197754 164 148 133
457884.06250000 4298252.00000000 964.32598877 192 176 161
457884.06250000 4298252.50000000 964.47998047 201 185 171
457884.06250000 4298253.00000000 964.60998535 185 169 156
457884.06250000 4298253.50000000 964.74200439 172 156 143
457884.06250000 4298254.00000000 964.87701416 180 164 151
457884.06250000 4298254.50000000 964.97100830 179 163 149
457884.06250000 4298255.00000000 965.04199219 196 180 165
457884.06250000 4298255.50000000 965.12799072 212 198 181
457884.06250000 4298256.00000000 965.20898438 209 195 179
457884.06250000 4298256.50000000 965.27301025 209 194 180
457884.06250000 4298257.00000000 965.33502197 205 190 177
457884.06250000 4298257.50000000 965.40399170 200 185 172
457884.06250000 4298258.00000000 965.47100830 199 185 170
457884.56250000 4298249.00000000 963.76300049 200 184 170
457884.56250000 4298249.50000000 963.85900879 179 163 148
457884.56250000 4298250.00000000 963.90899658 157 141 126
457884.56250000 4298250.50000000 964.01000977 163 147 132
457884.56250000 4298251.00000000 964.15399170 193 177 162
457884.56250000 4298251.50000000 964.31097412 201 185 171
457884.56250000 4298252.00000000 964.43200684 187 171 156
457884.56250000 4298252.50000000 964.54400635 176 160 145
457884.56250000 4298253.00000000 964.66497803 179 162 149
457884.56250000 4298253.50000000 964.79302979 173 157 144
457884.56250000 4298254.00000000 964.90899658 180 164 151
457884.56250000 4298254.50000000 964.98498535 193 177 162
457884.56250000 4298255.00000000 965.03997803 199 184 168
457884.56250000 4298255.50000000 965.10797119 208 195 178
457884.56250000 4298256.00000000 965.17999268 209 196 180
457884.56250000 4298256.50000000 965.24798584 191 179 164
457884.56250000 4298257.00000000 965.30902100 191 177 164
457884.56250000 4298257.50000000 965.36999512 187 173 160
457884.56250000 4298258.00000000 965.43103027 188 174 161
457885.06250000 4298249.00000000 963.95397949 213 197 181
457885.06250000 4298249.50000000 964.03698730 198 183 166
457885.06250000 4298250.00000000 964.07702637 179 163 147
457885.06250000 4298250.50000000 964.15197754 191 175 159
457885.06250000 4298251.00000000 964.28802490 210 194 178
457885.06250000 4298251.50000000 964.40802002 218 202 186
457885.06250000 4298252.00000000 964.48699951 211 195 179
457885.06250000 4298252.50000000 964.57098389 184 168 153
457885.06250000 4298253.00000000 964.67401123 179 162 149
457885.06250000 4298253.50000000 964.78997803 170 154 141
457885.06250000 4298254.00000000 964.89300537 177 161 148
457885.06250000 4298254.50000000 964.96398926 193 177 163
457885.06250000 4298255.00000000 965.02001953 201 185 171
457885.06250000 4298255.50000000 965.07202148 196 184 166
457885.06250000 4298256.00000000 965.12799072 184 171 156
457885.06250000 4298256.50000000 965.19299316 174 160 149
457885.06250000 4298257.00000000 965.25897217 184 169 159
457885.06250000 4298257.50000000 965.32598877 164 150 140
457885.06250000 4298258.00000000 965.39300537 163 149 138
457885.56250000 4298249.00000000 964.11401367 223 207 191
457885.56250000 4298249.50000000 964.17297363 219 203 187
457885.56250000 4298250.00000000 964.22497559 215 199 183
457885.56250000 4298250.50000000 964.28302002 221 205 189
457885.56250000 4298251.00000000 964.36999512 223 207 191
457885.56250000 4298251.50000000 964.46002197 223 207 191
457885.56250000 4298252.00000000 964.51702881 220 204 188
457885.56250000 4298252.50000000 964.58398438 206 190 175
457885.56250000 4298253.00000000 964.67700195 181 166 152
457885.56250000 4298253.50000000 964.77600098 176 160 147
457885.56250000 4298254.00000000 964.84997559 183 167 153
457885.56250000 4298254.50000000 964.91400146 192 176 161
457885.56250000 4298255.00000000 964.97900391 193 177 162
457885.56250000 4298255.50000000 965.03302002 199 186 171
457885.56250000 4298256.00000000 965.08099365 187 173 160
457885.56250000 4298256.50000000 965.14099121 163 149 140
457885.56250000 4298257.00000000 965.20300293 146 131 124
457885.56250000 4298257.50000000 965.26898193 158 143 136
457885.56250000 4298258.00000000 965.34497070 172 157 149
457886.06250000 4298249.00000000 964.20898438 221 205 187
457886.06250000 4298249.50000000 964.26098633 221 206 188
457886.06250000 4298250.00000000 964.30603027 222 206 189
457886.06250000 4298250.50000000 964.34997559 224 209 191
457886.06250000 4298251.00000000 964.40698242 224 208 190
457886.06250000 4298251.50000000 964.46301270 223 208 190
457886.06250000 4298252.00000000 964.50799561 221 206 188
457886.06250000 4298252.50000000 964.57202148 216 200 184
457886.06250000 4298253.00000000 964.65698242 206 190 175
457886.06250000 4298253.50000000 964.73400879 180 164 151
457886.06250000 4298254.00000000 964.79498291 195 179 166
457886.06250000 4298254.50000000 964.85400391 197 180 167
457886.06250000 4298255.00000000 964.91601563 194 177 163
457886.06250000 4298255.50000000 964.97601318 197 184 171
457886.06250000 4298256.00000000 965.03399658 190 176 165
457886.06250000 4298256.50000000 965.09399414 170 156 148
457886.06250000 4298257.00000000 965.14898682 141 127 121
457886.06250000 4298257.50000000 965.20300293 143 130 125
457886.06250000 4298258.00000000 965.27502441 154 142 137
457886.56250000 4298249.00000000 964.23699951 221 206 187
457886.56250000 4298249.50000000 964.29400635 223 208 189
457886.56250000 4298250.00000000 964.32800293 223 208 189
457886.56250000 4298250.50000000 964.34698486 223 208 189
457886.56250000 4298251.00000000 964.38598633 223 208 189
457886.56250000 4298251.50000000 964.43597412 224 209 190
457886.56250000 4298252.00000000 964.48699951 222 207 188
457886.56250000 4298252.50000000 964.54797363 217 201 184
457886.56250000 4298253.00000000 964.62097168 213 197 182
457886.56250000 4298253.50000000 964.69000244 209 193 180
457886.56250000 4298254.00000000 964.74597168 199 183 172
457886.56250000 4298254.50000000 964.80297852 201 185 173
457886.56250000 4298255.00000000 964.86700439 197 181 168
457886.56250000 4298255.50000000 964.92700195 197 184 171
457886.56250000 4298256.00000000 964.98199463 187 173 162
457886.56250000 4298256.50000000 965.04302979 181 168 161
457886.56250000 4298257.00000000 965.10400391 158 145 139
457886.56250000 4298257.50000000 965.16400146 147 136 132
457886.56250000 4298258.00000000 965.24102783 148 138 133
457887.06250000 4298249.00000000 964.21697998 221 206 187
457887.06250000 4298249.50000000 964.28100586 223 208 189
457887.06250000 4298250.00000000 964.32299805 223 208 189
457887.06250000 4298250.50000000 964.32800293 223 208 189
457887.06250000 4298251.00000000 964.34497070 223 208 189
457887.06250000 4298251.50000000 964.38897705 224 209 190
457887.06250000 4298252.00000000 964.44396973 221 206 188
457887.06250000 4298252.50000000 964.50201416 219 203 187
457887.06250000 4298253.00000000 964.56402588 210 194 179
457887.06250000 4298253.50000000 964.62902832 190 174 161
457887.06250000 4298254.00000000 964.68798828 180 163 153
457887.06250000 4298254.50000000 964.74401855 168 151 141
457887.06250000 4298255.00000000 964.81097412 188 171 161
457887.06250000 4298255.50000000 964.87799072 190 176 163
457887.06250000 4298256.00000000 964.93701172 191 177 167
457887.06250000 4298256.50000000 965.00201416 187 174 166
457887.06250000 4298257.00000000 965.07897949 177 164 157
457887.06250000 4298257.50000000 965.14801025 157 146 140
457887.06250000 4298258.00000000 965.21899414 142 131 125
457887.56250000 4298249.00000000 964.17498779 221 206 187
457887.56250000 4298249.50000000 964.21997070 222 207 188
457887.56250000 4298250.00000000 964.25897217 222 207 188
457887.56250000 4298250.50000000 964.26501465 223 208 189
457887.56250000 4298251.00000000 964.28601074 223 208 189
457887.56250000 4298251.50000000 964.33599854 223 208 189
457887.56250000 4298252.00000000 964.39697266 221 206 188
457887.56250000 4298252.50000000 964.45397949 216 200 185
457887.56250000 4298253.00000000 964.51397705 204 188 175
457887.56250000 4298253.50000000 964.57397461 172 155 145
457887.56250000 4298254.00000000 964.63500977 154 138 130
457887.56250000 4298254.50000000 964.69598389 156 142 134
457887.56250000 4298255.00000000 964.76800537 175 161 152
457887.56250000 4298255.50000000 964.85302734 185 171 160
457887.56250000 4298256.00000000 964.92401123 181 168 156
457887.56250000 4298256.50000000 964.98699951 186 172 162
457887.56250000 4298257.00000000 965.05798340 181 168 158
457887.56250000 4298257.50000000 965.12701416 176 163 155
457887.56250000 4298258.00000000 965.19500732 167 154 146
457888.06250000 4298249.00000000 964.13897705 221 206 187
457888.06250000 4298249.50000000 964.16802979 222 207 188
457888.06250000 4298250.00000000 964.20300293 223 208 189
457888.06250000 4298250.50000000 964.22698975 223 208 189
457888.06250000 4298251.00000000 964.25598145 223 208 189
457888.06250000 4298251.50000000 964.31701660 223 208 189
457888.06250000 4298252.00000000 964.38201904 222 207 189
457888.06250000 4298252.50000000 964.42498779 217 201 186
457888.06250000 4298253.00000000 964.47802734 196 180 167
457888.06250000 4298253.50000000 964.53698730 153 138 128
457888.06250000 4298254.00000000 964.59899902 138 123 116
457888.06250000 4298254.50000000 964.66497803 166 151 143
457888.06250000 4298255.00000000 964.73498535 181 168 159
457888.06250000 4298255.50000000 964.82598877 184 169 160
457888.06250000 4298256.00000000 964.91302490 190 176 166
457888.06250000 4298256.50000000 964.97601318 189 175 164
457888.06250000 4298257.00000000 965.03100586 175 161 149
457888.06250000 4298257.50000000 965.09899902 180 168 156
457888.06250000 4298258.00000000 965.17999268 185 171 161
457888.56250000 4298249.00000000 964.07202148 221 206 187
457888.56250000 4298249.50000000 964.12200928 222 207 188
457888.56250000 4298250.00000000 964.15802002 224 209 190
457888.56250000 4298250.50000000 964.19299316 223 208 189
457888.56250000 4298251.00000000 964.22802734 223 208 189
457888.56250000 4298251.50000000 964.29400635 224 209 190
457888.56250000 4298252.00000000 964.36602783 224 208 190
457888.56250000 4298252.50000000 964.40698242 218 202 187
457888.56250000 4298253.00000000 964.46301270 186 169 157
457888.56250000 4298253.50000000 964.52697754 143 129 120
457888.56250000 4298254.00000000 964.58099365 135 121 114
457888.56250000 4298254.50000000 964.64599609 142 129 123
457888.56250000 4298255.00000000 964.72497559 172 159 153
457888.56250000 4298255.50000000 964.81097412 179 163 156
457888.56250000 4298256.00000000 964.88800049 183 168 158
457888.56250000 4298256.50000000 964.95300293 191 177 164
457888.56250000 4298257.00000000 965.01397705 184 169 156
457888.56250000 4298257.50000000 965.08502197 184 170 157
457888.56250000 4298258.00000000 965.16699219 189 175 162
457889.06250000 4298249.00000000 963.99200439 220 205 186
457889.06250000 4298249.50000000 964.04199219 222 207 188
457889.06250000 4298250.00000000 964.11499023 224 209 190
457889.06250000 4298250.50000000 964.16900635 224 209 190
457889.06250000 4298251.00000000 964.20697021 224 209 190
457889.06250000 4298251.50000000 964.27697754 225 210 191
457889.06250000 4298252.00000000 964.33898926 225 209 191
457889.06250000 4298252.50000000 964.37597656 221 205 190
457889.06250000 4298253.00000000 964.44097900 191 174 163
457889.06250000 4298253.50000000 964.50701904 143 129 120
457889.06250000 4298254.00000000 964.55603027 133 119 113
457889.06250000 4298254.50000000 964.62799072 134 121 116
457889.06250000 4298255.00000000 964.71197510 173 161 155
457889.06250000 4298255.50000000 964.78399658 177 162 154
457889.06250000 4298256.00000000 964.85900879 177 163 153
457889.06250000 4298256.50000000 964.93701172 181 168 155
457889.06250000 4298257.00000000 965.01000977 193 180 164
457889.06250000 4298257.50000000 965.08300781 191 179 162
457889.06250000 4298258.00000000 965.17797852 192 179 165
457889.56250000 4298249.00000000 963.95898438 224 207 189
457889.56250000 4298249.50000000 963.99102783 223 206 188
457889.56250000 4298250.00000000 964.05401611 225 208 190
457889.56250000 4298250.50000000 964.12200928 226 209 191
457889.56250000 4298251.00000000 964.18402100 226 209 191
457889.56250000 4298251.50000000 964.24499512 226 209 191
457889.56250000 4298252.00000000 964.30700684 226 209 192
457889.56250000 4298252.50000000 964.36102295 225 209 193
457889.56250000 4298253.00000000 964.42401123 198 183 167
457889.56250000 4298253.50000000 964.47698975 146 132 119
457889.56250000 4298254.00000000 964.52600098 135 122 113
457889.56250000 4298254.50000000 964.59802246 127 115 106
457889.56250000 4298255.00000000 964.67602539 146 133 126
457889.56250000 4298255.50000000 964.75000000 183 168 158
457889.56250000 4298256.00000000 964.82800293 179 166 154
457889.56250000 4298256.50000000 964.91998291 181 166 154
457889.56250000 4298257.00000000 965.01202393 189 173 160
457889.56250000 4298257.50000000 965.09997559 200 184 171
457889.56250000 4298258.00000000 965.19000244 199 184 171
457890.06250000 4298249.00000000 963.93402100 223 206 188
457890.06250000 4298249.50000000 963.96002197 223 206 188
457890.06250000 4298250.00000000 964.00097656 224 207 189
457890.06250000 4298250.50000000 964.06097412 225 208 190
457890.06250000 4298251.00000000 964.13201904 226 209 191
457890.06250000 4298251.50000000 964.19799805 226 209 191
457890.06250000 4298252.00000000 964.27801514 225 208 191
457890.06250000 4298252.50000000 964.35900879 223 207 191
