458031.56250000 4298279.50000000 958.49200439 228 213 193
458031.56250000 4298280.00000000 958.56701660 228 213 193
458031.56250000 4298280.50000000 958.62500000 227 212 192
458031.56250000 4298281.00000000 958.68902588 227 210 191
458031.56250000 4298281.50000000 958.75799561 226 209 191
458031.56250000 4298282.00000000 958.82000732 225 208 190
458031.56250000 4298282.50000000 958.87097168 225 208 190
458031.56250000 4298283.00000000 958.91400146 225 208 190
458031.56250000 4298283.50000000 958.97497559 225 208 190
458031.56250000 4298284.00000000 959.03399658 224 208 190
458031.56250000 4298284.50000000 959.07299805 225 210 191
458031.56250000 4298285.00000000 959.10601807 225 210 191
458031.56250000 4298285.50000000 959.13800049 226 211 191
458031.56250000 4298286.00000000 959.17700195 228 213 193
458032.06250000 4298277.00000000 958.12902832 230 214 194
458032.06250000 4298277.50000000 958.20202637 230 214 194
458032.06250000 4298278.00000000 958.28100586 230 214 194
458032.06250000 4298278.50000000 958.36297607 230 214 194
458032.06250000 4298279.00000000 958.44702148 230 214 194
458032.06250000 4298279.50000000 958.53997803 228 213 193
458032.06250000 4298280.00000000 958.63201904 227 212 192
458032.06250000 4298280.50000000 958.69000244 227 212 192
458032.06250000 4298281.00000000 958.74499512 228 211 192
458032.06250000 4298281.50000000 958.80902100 228 211 192
458032.06250000 4298282.00000000 958.86499023 228 211 192
458032.06250000 4298282.50000000 958.90502930 227 210 191
458032.06250000 4298283.00000000 958.94299316 226 209 191
458032.06250000 4298283.50000000 959.00097656 224 207 189
458032.06250000 4298284.00000000 959.06597900 221 205 187
458032.06250000 4298284.50000000 959.11700439 221 206 187
458032.06250000 4298285.00000000 959.15600586 223 208 189
458032.06250000 4298285.50000000 959.18798828 226 211 191
458032.06250000 4298286.00000000 959.21899414 225 210 191
458032.56250000 4298277.00000000 958.16302490 228 213 193
458032.56250000 4298277.50000000 958.24700928 230 214 194
458032.56250000 4298278.00000000 958.33502197 230 214 194
458032.56250000 4298278.50000000 958.40997314 228 213 193
458032.56250000 4298279.00000000 958.48901367 228 213 193
458032.56250000 4298279.50000000 958.58697510 228 213 193
458032.56250000 4298280.00000000 958.67498779 227 212 192
458032.56250000 4298280.50000000 958.72998047 227 212 192
458032.56250000 4298281.00000000 958.78900146 230 212 193
458032.56250000 4298281.50000000 958.85699463 227 210 191
458032.56250000 4298282.00000000 958.90399170 226 209 191
458032.56250000 4298282.50000000 958.93298340 225 208 190
458032.56250000 4298283.00000000 958.97302246 226 209 191
458032.56250000 4298283.50000000 959.02801514 226 209 191
458032.56250000 4298284.00000000 959.09698486 224 208 190
458032.56250000 4298284.50000000 959.15802002 224 209 190
458032.56250000 4298285.00000000 959.19396973 224 209 190
458032.56250000 4298285.50000000 959.22399902 226 211 191
458032.56250000 4298286.00000000 959.25598145 225 210 191
458033.06250000 4298277.00000000 958.20800781 228 213 193
458033.06250000 4298277.50000000 958.28802490 228 213 193
458033.06250000 4298278.00000000 958.37298584 228 213 193
458033.06250000 4298278.50000000 958.44897461 227 212 192
458033.06250000 4298279.00000000 958.53601074 227 212 192
458033.06250000 4298279.50000000 958.63500977 227 212 192
458033.06250000 4298280.00000000 958.71801758 228 213 193
458033.06250000 4298280.50000000 958.77600098 228 213 193
458033.06250000 4298281.00000000 958.83599854 228 211 192
458033.06250000 4298281.50000000 958.89300537 227 210 191
458033.06250000 4298282.00000000 958.93402100 226 209 191
458033.06250000 4298282.50000000 958.96398926 225 208 190
458033.06250000 4298283.00000000 959.00897217 227 210 191
458033.06250000 4298283.50000000 959.06701660 227 210 191
458033.06250000 4298284.00000000 959.13299561 226 209 191
458033.06250000 4298284.50000000 959.18701172 225 210 191
458033.06250000 4298285.00000000 959.21801758 226 211 191
458033.06250000 4298285.50000000 959.24798584 227 212 192
458033.06250000 4298286.00000000 959.28601074 227 212 192
458033.56250000 4298277.00000000 958.24499512 228 211 192
458033.56250000 4298277.50000000 958.32299805 228 211 192
458033.56250000 4298278.00000000 958.40502930 228 211 192
458033.56250000 4298278.50000000 958.48699951 228 211 192
458033.56250000 4298279.00000000 958.58197021 228 211 192
458033.56250000 4298279.50000000 958.67797852 227 210 191
458033.56250000 4298280.00000000 958.76000977 227 210 191
458033.56250000 4298280.50000000 958.83398438 228 211 192
458033.56250000 4298281.00000000 958.89501953 227 212 192
458033.56250000 4298281.50000000 958.94000244 228 213 193
458033.56250000 4298282.00000000 958.97698975 227 212 192
458033.56250000 4298282.50000000 959.01300049 226 211 191
458033.56250000 4298283.00000000 959.05999756 226 211 191
458033.56250000 4298283.50000000 959.11499023 226 211 191
458033.56250000 4298284.00000000 959.16400146 226 211 191
458033.56250000 4298284.50000000 959.20397949 226 211 191
458033.56250000 4298285.00000000 959.23797607 226 211 191
458033.56250000 4298285.50000000 959.27600098 227 212 192
458033.56250000 4298286.00000000 959.31896973 226 211 191
458034.06250000 4298277.00000000 958.27099609 228 211 192
458034.06250000 4298277.50000000 958.34802246 228 211 192
458034.06250000 4298278.00000000 958.42797852 227 210 191
458034.06250000 4298278.50000000 958.52301025 228 211 192
458034.06250000 4298279.00000000 958.62701416 228 211 192
458034.06250000 4298279.50000000 958.72198486 226 209 191
458034.06250000 4298280.00000000 958.80297852 227 210 191
458034.06250000 4298280.50000000 958.88397217 228 211 192
458034.06250000 4298281.00000000 958.94201660 226 211 191
458034.06250000 4298281.50000000 958.98498535 228 213 193
458034.06250000 4298282.00000000 959.02197266 230 214 194
458034.06250000 4298282.50000000 959.05499268 228 213 193
458034.06250000 4298283.00000000 959.09997559 227 212 192
458034.06250000 4298283.50000000 959.14697266 226 211 191
458034.06250000 4298284.00000000 959.18298340 226 211 191
458034.06250000 4298284.50000000 959.21899414 226 211 191
458034.06250000 4298285.00000000 959.25799561 227 212 192
458034.06250000 4298285.50000000 959.30499268 227 212 192
458034.06250000 4298286.00000000 959.34600830 226 211 191
458034.56250000 4298277.00000000 958.29699707 230 212 193
458034.56250000 4298277.50000000 958.37298584 230 212 193
458034.56250000 4298278.00000000 958.46002197 228 211 192
458034.56250000 4298278.50000000 958.57098389 228 211 192
458034.56250000 4298279.00000000 958.66998291 228 211 192
458034.56250000 4298279.50000000 958.75598145 230 212 193
458034.56250000 4298280.00000000 958.84497070 230 212 193
458034.56250000 4298280.50000000 958.92297363 230 212 193
458034.56250000 4298281.00000000 958.97497559 228 213 193
458034.56250000 4298281.50000000 959.01599121 228 213 193
458034.56250000 4298282.00000000 959.04901123 228 213 193
458034.56250000 4298282.50000000 959.07897949 228 213 193
458034.56250000 4298283.00000000 959.11901855 228 213 193
458034.56250000 4298283.50000000 959.16699219 228 213 193
458034.56250000 4298284.00000000 959.20800781 227 212 192
458034.56250000 4298284.50000000 959.24298096 226 211 191
458034.56250000 4298285.00000000 959.28302002 226 211 191
458034.56250000 4298285.50000000 959.33001709 227 212 192
458034.56250000 4298286.00000000 959.36700439 227 212 192
458035.06250000 4298277.00000000 958.32299805 230 212 193
458035.06250000 4298277.50000000 958.40698242 230 212 193
458035.06250000 4298278.00000000 958.51000977 228 211 192
458035.06250000 4298278.50000000 958.62097168 228 211 192
458035.06250000 4298279.00000000 958.70300293 230 212 193
458035.06250000 4298279.50000000 958.77197266 231 213 194
458035.06250000 4298280.00000000 958.84802246 231 213 194
458035.06250000 4298280.50000000 958.92498779 231 213 194
458035.06250000 4298281.00000000 958.98400879 228 213 193
458035.06250000 4298281.50000000 959.02697754 228 213 193
458035.06250000 4298282.00000000 959.06201172 228 213 193
458035.06250000 4298282.50000000 959.09600830 228 213 193
458035.06250000 4298283.00000000 959.13702393 228 213 193
458035.06250000 4298283.50000000 959.18200684 228 213 193
458035.06250000 4298284.00000000 959.22497559 227 212 192
458035.06250000 4298284.50000000 959.26397705 226 211 191
458035.06250000 4298285.00000000 959.30603027 226 211 191
458035.06250000 4298285.50000000 959.34997559 226 211 191
458035.06250000 4298286.00000000 959.38397217 226 211 191
458035.56250000 4298277.00000000 958.36602783 231 213 194
458035.56250000 4298277.50000000 958.44799805 231 213 194
458035.56250000 4298278.00000000 958.55200195 230 212 193
458035.56250000 4298278.50000000 958.65399170 230 212 193
458035.56250000 4298279.00000000 958.72399902 231 213 194
458035.56250000 4298279.50000000 958.78100586 231 213 194
458035.56250000 4298280.00000000 958.84399414 231 213 194
458035.56250000 4298280.50000000 958.91699219 230 212 193
458035.56250000 4298281.00000000 958.97900391 227 212 192
458035.56250000 4298281.50000000 959.02502441 227 212 192
458035.56250000 4298282.00000000 959.06402588 227 212 192
458035.56250000 4298282.50000000 959.10498047 227 212 192
458035.56250000 4298283.00000000 959.15100098 227 212 192
458035.56250000 4298283.50000000 959.19201660 227 212 192
458035.56250000 4298284.00000000 959.22497559 227 212 192
458035.56250000 4298284.50000000 959.27197266 227 212 192
458035.56250000 4298285.00000000 959.32897949 225 210 191
458035.56250000 4298285.50000000 959.37200928 226 211 191
458035.56250000 4298286.00000000 959.40899658 225 210 191
458036.06250000 4298277.00000000 958.40502930 231 213 194
458036.06250000 4298277.50000000 958.47399902 231 213 194
458036.06250000 4298278.00000000 958.57501221 231 213 194
458036.06250000 4298278.50000000 958.66802979 231 213 194
458036.06250000 4298279.00000000 958.73199463 232 214 195
458036.06250000 4298279.50000000 958.78802490 232 214 195
458036.06250000 4298280.00000000 958.85400391 231 213 194
458036.06250000 4298280.50000000 958.91497803 230 212 193
458036.06250000 4298281.00000000 958.96899414 227 212 192
458036.06250000 4298281.50000000 959.02600098 227 212 192
458036.06250000 4298282.00000000 959.07397461 227 212 192
458036.06250000 4298282.50000000 959.11102295 227 212 192
458036.06250000 4298283.00000000 959.15301514 227 212 192
458036.06250000 4298283.50000000 959.19598389 227 212 192
458036.06250000 4298284.00000000 959.23498535 226 211 191
458036.06250000 4298284.50000000 959.28900146 226 211 191
458036.06250000 4298285.00000000 959.35302734 226 211 191
458036.06250000 4298285.50000000 959.40502930 226 211 191
458036.06250000 4298286.00000000 959.45599365 224 209 190
457949.56250000 4298286.50000000 963.04602051 166 153 141
457949.56250000 4298287.00000000 963.04797363 153 140 130
457949.56250000 4298287.50000000 963.05700684 147 134 127
457949.56250000 4298288.00000000 963.06500244 143 130 121
457949.56250000 4298288.50000000 963.08001709 144 131 123
457949.56250000 4298289.00000000 963.10198975 161 148 139
457949.56250000 4298289.50000000 963.13098145 169 156 146
457950.06250000 4298286.50000000 962.68103027 172 158 148
457950.06250000 4298287.00000000 962.69097900 163 149 140
457950.06250000 4298287.50000000 962.73297119 166 152 143
457950.06250000 4298288.00000000 962.73498535 166 152 143
457950.06250000 4298288.50000000 962.68798828 159 146 137
457950.06250000 4298289.00000000 962.70001221 153 140 130
457950.06250000 4298289.50000000 962.77099609 167 153 143
457950.06250000 4298290.00000000 962.83502197 170 157 146
457950.06250000 4298290.50000000 962.86700439 183 171 159
457950.06250000 4298291.00000000 962.87402344 179 168 157
457950.06250000 4298291.50000000 962.88098145 168 157 145
457950.06250000 4298292.00000000 962.90600586 170 157 146
457950.06250000 4298292.50000000 962.94201660 172 159 149
457950.06250000 4298293.00000000 962.95098877 168 154 145
457950.06250000 4298293.50000000 962.93597412 170 157 147
457950.06250000 4298294.00000000 962.92401123 172 158 145
457950.06250000 4298294.50000000 962.90100098 175 160 147
457950.06250000 4298295.00000000 962.89898682 171 155 143
457950.56250000 4298286.50000000 962.28302002 176 162 153
457950.56250000 4298287.00000000 962.25897217 177 163 154
457950.56250000 4298287.50000000 962.26599121 171 158 148
457950.56250000 4298288.00000000 962.31402588 183 169 159
457950.56250000 4298288.50000000 962.34899902 164 151 142
457950.56250000 4298289.00000000 962.37298584 155 142 132
457950.56250000 4298289.50000000 962.40100098 161 148 139
457950.56250000 4298290.00000000 962.40002441 162 149 140
457950.56250000 4298290.50000000 962.38500977 152 142 131
457950.56250000 4298291.00000000 962.39300537 142 132 121
457950.56250000 4298291.50000000 962.41101074 151 138 128
457950.56250000 4298292.00000000 962.43499756 168 155 145
457950.56250000 4298292.50000000 962.46099854 158 145 136
457950.56250000 4298293.00000000 962.46398926 152 138 128
457950.56250000 4298293.50000000 962.45501709 181 168 158
457950.56250000 4298294.00000000 962.45397949 184 169 158
457950.56250000 4298294.50000000 962.46801758 174 158 145
457950.56250000 4298295.00000000 962.50097656 166 149 136
457951.06250000 4298286.50000000 961.87298584 173 159 147
457951.06250000 4298287.00000000 961.86499023 160 146 135
457951.06250000 4298287.50000000 961.86199951 160 147 138
457951.06250000 4298288.00000000 961.91900635 179 167 157
457951.06250000 4298288.50000000 961.98602295 169 156 146
457951.06250000 4298289.00000000 962.01599121 166 152 143
457951.06250000 4298289.50000000 962.02398682 158 145 136
457951.06250000 4298290.00000000 961.99798584 169 156 146
457951.06250000 4298290.50000000 961.96899414 168 156 145
457951.06250000 4298291.00000000 961.97802734 157 144 135
457951.06250000 4298291.50000000 962.00897217 172 159 149
457951.06250000 4298292.00000000 962.03497314 161 148 139
457951.06250000 4298292.50000000 962.05700684 149 135 126
457951.06250000 4298293.00000000 962.05297852 163 149 140
457951.06250000 4298293.50000000 962.04602051 179 166 156
457951.06250000 4298294.00000000 962.04101563 176 162 151
457951.06250000 4298294.50000000 962.03698730 170 154 142
457951.06250000 4298295.00000000 962.05499268 183 167 153
457951.56250000 4298286.50000000 961.46600342 172 158 146
457951.56250000 4298287.00000000 961.50598145 162 148 137
457951.56250000 4298287.50000000 961.52801514 163 150 141
457951.56250000 4298288.00000000 961.56402588 176 163 154
457951.56250000 4298288.50000000 961.60797119 169 156 146
457951.56250000 4298289.00000000 961.63702393 168 154 144
457951.56250000 4298289.50000000 961.65002441 167 153 143
457951.56250000 4298290.00000000 961.67700195 166 152 143
457951.56250000 4298290.50000000 961.70397949 180 168 158
457951.56250000 4298291.00000000 961.69897461 179 166 156
457951.56250000 4298291.50000000 961.69702148 177 164 155
457951.56250000 4298292.00000000 961.72998047 150 137 127
457951.56250000 4298292.50000000 961.77502441 149 135 126
457951.56250000 4298293.00000000 961.77301025 164 150 141
457951.56250000 4298293.50000000 961.76000977 174 160 151
457951.56250000 4298294.00000000 961.72497559 170 156 144
457951.56250000 4298294.50000000 961.65899658 176 161 147
457951.56250000 4298295.00000000 961.66900635 193 177 163
457952.06250000 4298286.50000000 961.07800293 162 148 137
457952.06250000 4298287.00000000 961.13397217 168 153 142
457952.06250000 4298287.50000000 961.14801025 170 157 147
457952.06250000 4298288.00000000 961.14898682 188 175 165
457952.06250000 4298288.50000000 961.17401123 185 172 162
457952.06250000 4298289.00000000 961.22601318 177 164 155
457952.06250000 4298289.50000000 961.26501465 161 148 139
457952.06250000 4298290.00000000 961.32501221 160 147 138
457952.06250000 4298290.50000000 961.39398193 177 164 155
457952.06250000 4298291.00000000 961.40197754 177 164 155
457952.06250000 4298291.50000000 961.39202881 176 163 154
457952.06250000 4298292.00000000 961.40301514 162 148 139
457952.06250000 4298292.50000000 961.42199707 151 137 127
457952.06250000 4298293.00000000 961.40002441 161 147 138
457952.06250000 4298293.50000000 961.36700439 173 157 148
457952.06250000 4298294.00000000 961.34497070 177 163 152
457952.06250000 4298294.50000000 961.31701660 192 176 163
457952.06250000 4298295.00000000 961.30499268 179 162 148
457952.56250000 4298286.50000000 960.68200684 173 159 145
457952.56250000 4298287.00000000 960.72900391 187 173 159
457952.56250000 4298287.50000000 960.75299072 187 174 164
457952.56250000 4298288.00000000 960.74597168 172 159 149
457952.56250000 4298288.50000000 960.73199463 169 156 146
457952.56250000 4298289.00000000 960.76300049 161 148 139
457952.56250000 4298289.50000000 960.84002686 156 143 133
457952.56250000 4298290.00000000 960.89898682 154 141 131
457952.56250000 4298290.50000000 960.94000244 162 149 140
457952.56250000 4298291.00000000 960.97900391 169 156 146
457952.56250000 4298291.50000000 961.01501465 170 156 146
457952.56250000 4298292.00000000 961.04199219 176 162 153
457952.56250000 4298292.50000000 961.05297852 164 150 141
457952.56250000 4298293.00000000 960.99401855 171 154 145
457952.56250000 4298293.50000000 960.92102051 184 168 159
457952.56250000 4298294.00000000 960.90002441 176 162 151
457952.56250000 4298294.50000000 960.91302490 171 156 143
457952.56250000 4298295.00000000 960.86901855 162 146 132
457953.06250000 4298286.50000000 960.28100586 175 161 147
457953.06250000 4298287.00000000 960.31597900 187 173 160
457953.06250000 4298287.50000000 960.36297607 179 166 156
457953.06250000 4298288.00000000 960.38500977 148 135 126
457953.06250000 4298288.50000000 960.36602783 146 133 124
457953.06250000 4298289.00000000 960.36102295 157 144 135
457953.06250000 4298289.50000000 960.41497803 152 139 129
457953.06250000 4298290.00000000 960.43902588 155 142 132
457953.06250000 4298290.50000000 960.45300293 168 153 143
457953.06250000 4298291.00000000 960.51000977 168 154 144
457953.06250000 4298291.50000000 960.56402588 171 157 147
457953.06250000 4298292.00000000 960.59802246 179 164 155
457953.06250000 4298292.50000000 960.59802246 191 174 165
457953.06250000 4298293.00000000 960.51397705 193 176 168
457953.06250000 4298293.50000000 960.45098877 191 174 165
457953.06250000 4298294.00000000 960.44000244 177 163 152
457953.06250000 4298294.50000000 960.45599365 155 139 127
457953.06250000 4298295.00000000 960.46197510 152 136 123
457953.56250000 4298286.50000000 959.91601563 169 157 144
457953.56250000 4298287.00000000 959.93103027 181 169 157
457953.56250000 4298287.50000000 959.93200684 173 163 151
457953.56250000 4298288.00000000 959.95001221 156 146 135
457953.56250000 4298288.50000000 959.97100830 159 149 139
457953.56250000 4298289.00000000 959.97399902 164 151 142
457953.56250000 4298289.50000000 959.96697998 164 151 143
457953.56250000 4298290.00000000 959.95098877 163 150 142
457953.56250000 4298290.50000000 959.96398926 170 158 146
457953.56250000 4298291.00000000 960.00097656 175 163 151
457953.56250000 4298291.50000000 960.03497314 171 159 146
457953.56250000 4298292.00000000 960.04302979 168 154 143
457953.56250000 4298292.50000000 960.00897217 179 166 154
457953.56250000 4298293.00000000 959.96502686 186 169 159
457953.56250000 4298293.50000000 959.97601318 173 156 145
457953.56250000 4298294.00000000 959.98901367 172 155 146
457953.56250000 4298294.50000000 959.99401855 161 144 133
457953.56250000 4298295.00000000 960.03900146 161 144 133
457954.06250000 4298286.50000000 959.55603027 194 183 171
457954.06250000 4298287.00000000 959.56500244 176 164 154
457954.06250000 4298287.50000000 959.52001953 159 149 139
457954.06250000 4298288.00000000 959.51000977 148 138 127
457954.06250000 4298288.50000000 959.52001953 158 148 139
457954.06250000 4298289.00000000 959.51501465 168 155 146
457954.06250000 4298289.50000000 959.48797607 162 149 141
457954.06250000 4298290.00000000 959.48400879 162 149 141
457954.06250000 4298290.50000000 959.53302002 173 160 151
457954.06250000 4298291.00000000 959.57598877 176 164 152
457954.06250000 4298291.50000000 959.61297607 169 156 143
457954.06250000 4298292.00000000 959.62902832 166 151 140
457954.06250000 4298292.50000000 959.60699463 183 168 157
457954.06250000 4298293.00000000 959.57000732 184 168 157
457954.06250000 4298293.50000000 959.56402588 177 162 151
457954.06250000 4298294.00000000 959.56597900 177 160 152
457954.06250000 4298294.50000000 959.54797363 176 159 148
457954.06250000 4298295.00000000 959.54302979 181 164 154
457954.56250000 4298286.50000000 959.11700439 191 180 171
457954.56250000 4298287.00000000 959.11199951 191 181 171
457954.56250000 4298287.50000000 959.09100342 177 168 158
457954.56250000 4298288.00000000 959.08197021 161 151 142
457954.56250000 4298288.50000000 959.06097412 158 148 139
457954.56250000 4298289.00000000 959.04602051 153 140 131
457954.56250000 4298289.50000000 959.05102539 149 136 127
457954.56250000 4298290.00000000 959.06896973 164 151 143
457954.56250000 4298290.50000000 959.10601807 179 164 155
457954.56250000 4298291.00000000 959.16699219 168 154 143
457954.56250000 4298291.50000000 959.22497559 160 146 135
457954.56250000 4298292.00000000 959.21502686 170 156 144
457954.56250000 4298292.50000000 959.15899658 181 168 158
457954.56250000 4298293.00000000 959.12097168 158 144 135
457954.56250000 4298293.50000000 959.11602783 151 137 127
457954.56250000 4298294.00000000 959.12402344 143 129 119
457954.56250000 4298294.50000000 959.07501221 163 149 138
457954.56250000 4298295.00000000 959.01300049 164 150 139
457955.06250000 4298286.50000000 958.56298828 171 161 152
457955.06250000 4298287.00000000 958.57000732 179 168 159
457955.06250000 4298287.50000000 958.61102295 173 163 154
457955.06250000 4298288.00000000 958.62200928 172 162 153
457955.06250000 4298288.50000000 958.61102295 159 149 140
457955.06250000 4298289.00000000 958.63000488 159 146 138
457955.06250000 4298289.50000000 958.67199707 152 139 130
457955.06250000 4298290.00000000 958.69097900 148 135 127
457955.06250000 4298290.50000000 958.67999268 163 150 140
457955.06250000 4298291.00000000 958.71502686 175 161 149
457955.06250000 4298291.50000000 958.77600098 179 166 154
457955.06250000 4298292.00000000 958.74597168 183 168 157
457955.06250000 4298292.50000000 958.63702393 174 160 151
457955.06250000 4298293.00000000 958.56298828 154 140 130
457955.06250000 4298293.50000000 958.56701660 144 130 121
457955.06250000 4298294.00000000 958.60101318 149 135 124
457955.06250000 4298294.50000000 958.57098389 171 157 146
457955.06250000 4298295.00000000 958.52301025 169 155 145
457955.56250000 4298286.50000000 958.14801025 151 141 131
457955.56250000 4298287.00000000 958.15802002 140 130 121
457955.56250000 4298287.50000000 958.13800049 142 131 125
457955.56250000 4298288.00000000 958.10699463 159 148 142
457955.56250000 4298288.50000000 958.10998535 151 141 132
457955.56250000 4298289.00000000 958.16198730 167 153 144
457955.56250000 4298289.50000000 958.24597168 156 143 135
457955.56250000 4298290.00000000 958.30401611 149 136 127
457955.56250000 4298290.50000000 958.29797363 173 160 148
457955.56250000 4298291.00000000 958.29602051 195 180 171
457955.56250000 4298291.50000000 958.33001709 199 185 174
457955.56250000 4298292.00000000 958.34197998 173 159 149
457955.56250000 4298292.50000000 958.30603027 154 139 131
457955.56250000 4298293.00000000 958.22900391 155 142 133
457955.56250000 4298293.50000000 958.17199707 162 149 141
457955.56250000 4298294.00000000 958.17297363 180 167 155
457955.56250000 4298294.50000000 958.13500977 184 169 159
457955.56250000 4298295.00000000 958.09100342 171 157 147
457956.06250000 4298286.50000000 957.84002686 145 134 127
457956.06250000 4298287.00000000 957.83300781 132 122 116
457956.06250000 4298287.50000000 957.78198242 131 120 116
457956.06250000 4298288.00000000 957.73797607 142 131 126
457956.06250000 4298288.50000000 957.73797607 173 162 156
457956.06250000 4298289.00000000 957.77899170 173 160 154
457956.06250000 4298289.50000000 957.85302734 153 140 131
457956.06250000 4298290.00000000 957.91302490 169 156 147
457956.06250000 4298290.50000000 957.92199707 180 166 156
457956.06250000 4298291.00000000 957.91198730 188 171 160
457956.06250000 4298291.50000000 957.94897461 179 166 154
457956.06250000 4298292.00000000 957.96801758 157 143 133
457956.06250000 4298292.50000000 957.92498779 166 151 143
457956.06250000 4298293.00000000 957.85101318 162 149 142
457956.06250000 4298293.50000000 957.76898193 167 153 145
457956.06250000 4298294.00000000 957.74298096 187 173 161
457956.06250000 4298294.50000000 957.69097900 184 169 159
457956.06250000 4298295.00000000 957.63897705 185 171 161
457956.56250000 4298286.50000000 957.48400879 141 129 125
457956.56250000 4298287.00000000 957.47698975 141 130 126
457956.56250000 4298287.50000000 957.47399902 139 128 121
457956.56250000 4298288.00000000 957.48602295 152 142 132
457956.56250000 4298288.50000000 957.49102783 173 160 152
457956.56250000 4298289.00000000 957.48797607 164 151 143
457956.56250000 4298289.50000000 957.50598145 158 145 136
457956.56250000 4298290.00000000 957.54797363 168 154 144
457956.56250000 4298290.50000000 957.56298828 179 166 156
457956.56250000 4298291.00000000 957.54400635 183 168 159
457956.56250000 4298291.50000000 957.55798340 170 155 146
457956.56250000 4298292.00000000 957.50897217 156 143 133
457956.56250000 4298292.50000000 957.40600586 161 148 139
457956.56250000 4298293.00000000 957.36102295 163 150 142
457956.56250000 4298293.50000000 957.32397461 162 150 142
457956.56250000 4298294.00000000 957.31097412 174 161 153
457956.56250000 4298294.50000000 957.30999756 179 166 157
457956.56250000 4298295.00000000 957.26800537 181 168 159
457957.06250000 4298286.50000000 957.10900879 137 125 120
457957.06250000 4298287.00000000 957.12402344 148 137 132
457957.06250000 4298287.50000000 957.14697266 148 138 128
457957.06250000 4298288.00000000 957.16900635 151 141 131
457957.06250000 4298288.50000000 957.15997314 156 144 136
457957.06250000 4298289.00000000 957.13000488 162 149 141
457957.06250000 4298289.50000000 957.14898682 172 159 149
457957.06250000 4298290.00000000 957.22601318 172 159 149
457957.06250000 4298290.50000000 957.27099609 169 155 145
457957.06250000 4298291.00000000 957.25500488 173 159 149
457957.06250000 4298291.50000000 957.20898438 164 150 141
457957.06250000 4298292.00000000 957.09698486 158 145 136
457957.06250000 4298292.50000000 956.99401855 154 141 132
457957.06250000 4298293.00000000 956.97100830 146 133 125
457957.06250000 4298293.50000000 956.94799805 148 138 128
457957.06250000 4298294.00000000 956.93200684 157 144 136
457957.06250000 4298294.50000000 956.94299316 166 152 143
457957.06250000 4298295.00000000 956.89898682 166 152 143
457957.56250000 4298286.50000000 956.76098633 155 143 137
457957.56250000 4298287.00000000 956.76098633 159 148 143
457957.56250000 4298287.50000000 956.75799561 153 143 133
457957.56250000 4298288.00000000 956.75897217 149 139 129
457957.56250000 4298288.50000000 956.76397705 157 145 137
457957.56250000 4298289.00000000 956.76000977 159 146 138
457957.56250000 4298289.50000000 956.78399658 160 147 138
457957.56250000 4298290.00000000 956.84802246 163 150 141
457957.56250000 4298290.50000000 956.90002441 167 152 141
457957.56250000 4298291.00000000 956.89001465 161 147 138
457957.56250000 4298291.50000000 956.82000732 155 141 131
457957.56250000 4298292.00000000 956.74102783 154 141 131
457957.56250000 4298292.50000000 956.69201660 152 139 130
457957.56250000 4298293.00000000 956.66400146 136 123 117
457957.56250000 4298293.50000000 956.58697510 136 125 119
457957.56250000 4298294.00000000 956.52001953 150 137 128
457957.56250000 4298294.50000000 956.50897217 160 147 139
457957.56250000 4298295.00000000 956.45300293 160 147 139
457958.06250000 4298286.50000000 956.38800049 166 154 145
457958.06250000 4298287.00000000 956.34600830 166 154 147
457958.06250000 4298287.50000000 956.30999756 156 146 137
457958.06250000 4298288.00000000 956.30499268 157 147 138
457958.06250000 4298288.50000000 956.29901123 167 154 144
457958.06250000 4298289.00000000 956.26800537 168 155 146
457958.06250000 4298289.50000000 956.25598145 170 157 147
457958.06250000 4298290.00000000 956.30297852 175 162 153
457958.06250000 4298290.50000000 956.38000488 173 159 148
457958.06250000 4298291.00000000 956.38598633 171 157 147
457958.06250000 4298291.50000000 956.34600830 173 159 149
457958.06250000 4298292.00000000 956.32299805 167 153 144
457958.06250000 4298292.50000000 956.31896973 148 135 128
457958.06250000 4298293.00000000 956.29602051 139 125 120
457958.06250000 4298293.50000000 956.20098877 138 127 123
457958.06250000 4298294.00000000 956.06500244 152 139 132
457958.06250000 4298294.50000000 955.97497559 155 142 135
457958.06250000 4298295.00000000 955.86499023 152 139 131
457958.56250000 4298286.50000000 955.92102051 169 158 148
457958.56250000 4298287.00000000 955.89001465 162 152 143
457958.56250000 4298287.50000000 955.85998535 151 141 131
457958.56250000 4298288.00000000 955.85400391 153 143 133
457958.56250000 4298288.50000000 955.83099365 168 155 146
457958.56250000 4298289.00000000 955.79998779 164 151 143
457958.56250000 4298289.50000000 955.79998779 158 145 136
457958.56250000 4298290.00000000 955.83398438 172 159 149
457958.56250000 4298290.50000000 955.88201904 154 141 131
457958.56250000 4298291.00000000 955.89202881 154 140 130
457958.56250000 4298291.50000000 955.88500977 177 162 155
457958.56250000 4298292.00000000 955.88299561 167 153 144
457958.56250000 4298292.50000000 955.89099121 167 153 146
457958.56250000 4298293.00000000 955.88702393 152 139 132
457958.56250000 4298293.50000000 955.81597900 151 140 136
457958.56250000 4298294.00000000 955.65802002 157 146 140
457958.56250000 4298294.50000000 955.51000977 158 147 141
457958.56250000 4298295.00000000 955.38000488 152 141 135
457959.06250000 4298286.50000000 955.44000244 170 160 149
457959.06250000 4298287.00000000 955.42102051 162 152 143
457959.06250000 4298287.50000000 955.40802002 139 129 119
457959.06250000 4298288.00000000 955.41699219 154 144 135
457959.06250000 4298288.50000000 955.41198730 172 160 152
457959.06250000 4298289.00000000 955.41802979 164 151 143
457959.06250000 4298289.50000000 955.43902588 161 148 139
457959.06250000 4298290.00000000 955.45397949 170 157 147
457959.06250000 4298290.50000000 955.43701172 163 149 141
457959.06250000 4298291.00000000 955.40399170 161 146 139
457959.06250000 4298291.50000000 955.39697266 173 158 151
457959.06250000 4298292.00000000 955.39697266 160 147 141
457959.06250000 4298292.50000000 955.42999268 172 159 153
457959.06250000 4298293.00000000 955.44598389 159 146 140
457959.06250000 4298293.50000000 955.38098145 161 150 143
457959.06250000 4298294.00000000 955.27001953 161 150 143
457959.06250000 4298294.50000000 955.10699463 162 151 144
457959.06250000 4298295.00000000 954.93402100 153 142 136
457959.56250000 4298286.50000000 954.98999023 168 156 145
457959.56250000 4298287.00000000 954.95397949 159 149 139
457959.56250000 4298287.50000000 954.94799805 135 126 117
457959.56250000 4298288.00000000 954.99102783 147 137 127
457959.56250000 4298288.50000000 955.00201416 172 161 153
457959.56250000 4298289.00000000 954.99200439 168 155 146
457959.56250000 4298289.50000000 954.99298096 154 141 131
457959.56250000 4298290.00000000 955.03302002 163 150 141
457959.56250000 4298290.50000000 955.05401611 159 146 138
457959.56250000 4298291.00000000 955.01599121 153 140 133
457959.56250000 4298291.50000000 954.95202637 150 137 130
457959.56250000 4298292.00000000 954.90899658 157 145 139
457959.56250000 4298292.50000000 954.89300537 159 146 140
457959.56250000 4298293.00000000 954.83599854 149 139 130
457959.56250000 4298293.50000000 954.78399658 156 146 139
457959.56250000 4298294.00000000 954.76098633 164 153 146
457959.56250000 4298294.50000000 954.65002441 158 147 141
457959.56250000 4298295.00000000 954.45800781 146 135 128
457960.06250000 4298286.50000000 954.59802246 185 175 164
457960.06250000 4298287.00000000 954.56597900 160 150 140
457960.06250000 4298287.50000000 954.56201172 144 135 127
457960.06250000 4298288.00000000 954.57202148 152 143 136
457960.06250000 4298288.50000000 954.54400635 164 154 146
457960.06250000 4298289.00000000 954.51599121 159 149 141
457960.06250000 4298289.50000000 954.49798584 159 148 139
457960.06250000 4298290.00000000 954.52697754 168 155 146
457960.06250000 4298290.50000000 954.57000732 164 153 144
457960.06250000 4298291.00000000 954.55297852 155 144 138
457960.06250000 4298291.50000000 954.48101807 140 129 123
457960.06250000 4298292.00000000 954.42102051 138 127 120
457960.06250000 4298292.50000000 954.36999512 141 132 127
457960.06250000 4298293.00000000 954.28601074 147 138 132
457960.06250000 4298293.50000000 954.23498535 160 151 145
457960.06250000 4298294.00000000 954.20001221 155 146 139
457960.56250000 4298286.50000000 954.23400879 183 172 162
457960.56250000 4298287.00000000 954.21600342 156 145 139
457960.56250000 4298287.50000000 954.20001221 151 142 135
457960.56250000 4298288.00000000 954.17999268 155 144 138
457960.56250000 4298288.50000000 954.15197754 158 147 141
457960.56250000 4298290.50000000 954.15600586 147 136 129
457997.56250000 4298295.00000000 954.33502197 181 173 161
457998.06250000 4298294.00000000 954.48901367 191 184 172
457998.06250000 4298294.50000000 954.90399170 191 184 172
457998.06250000 4298295.00000000 955.21002197 196 188 176
457998.56250000 4298293.00000000 954.28399658 190 183 171
457998.56250000 4298293.50000000 954.75299072 193 185 172
457998.56250000 4298294.00000000 955.18499756 180 172 160
457998.56250000 4298294.50000000 955.47100830 179 171 159
457998.56250000 4298295.00000000 955.63201904 184 176 164
457999.06250000 4298292.00000000 954.41497803 194 184 174
457999.06250000 4298292.50000000 954.86798096 196 188 176
457999.06250000 4298293.00000000 955.27301025 198 190 176
457999.06250000 4298293.50000000 955.53399658 197 189 175
457999.06250000 4298294.00000000 955.70800781 187 179 168
457999.06250000 4298294.50000000 955.87500000 184 173 162
457999.06250000 4298295.00000000 955.96197510 175 166 155
457999.56250000 4298290.50000000 954.41900635 210 197 187
457999.56250000 4298291.00000000 954.59100342 205 192 183
457999.56250000 4298291.50000000 954.84002686 208 195 185
457999.56250000 4298292.00000000 955.28698730 201 191 178
457999.56250000 4298292.50000000 955.66400146 194 184 172
457999.56250000 4298293.00000000 955.91302490 199 189 176
457999.56250000 4298293.50000000 955.98101807 205 197 184
457999.56250000 4298294.00000000 956.01800537 197 187 176
457999.56250000 4298294.50000000 956.18103027 175 166 155
457999.56250000 4298295.00000000 956.28802490 162 152 142
458000.06250000 4298289.00000000 954.16998291 206 193 178
458000.06250000 4298289.50000000 954.36102295 207 194 180
458000.06250000 4298290.00000000 954.67602539 211 198 185
458000.06250000 4298290.50000000 954.96099854 209 195 183
458000.06250000 4298291.00000000 955.16497803 205 191 178
458000.06250000 4298291.50000000 955.44201660 195 181 170
458000.06250000 4298292.00000000 955.75097656 197 185 172
458000.06250000 4298292.50000000 956.00299072 200 188 175
458000.06250000 4298293.00000000 956.14398193 200 189 176
458000.06250000 4298293.50000000 956.17999268 193 184 171
458000.06250000 4298294.00000000 956.23297119 190 179 167
458000.06250000 4298294.50000000 956.38201904 172 161 148
458000.06250000 4298295.00000000 956.47998047 168 156 143
458000.56250000 4298287.00000000 954.18597412 212 199 183
458000.56250000 4298287.50000000 954.27899170 218 205 189
458000.56250000 4298288.00000000 954.39202881 217 204 188
458000.56250000 4298288.50000000 954.54901123 216 203 187
458000.56250000 4298289.00000000 954.73999023 213 200 184
458000.56250000 4298289.50000000 954.91998291 206 192 178
458000.56250000 4298290.00000000 955.16900635 207 193 179
458000.56250000 4298290.50000000 955.44299316 204 191 175
458000.56250000 4298291.00000000 955.64501953 205 192 175
458000.56250000 4298291.50000000 955.83398438 197 184 168
458000.56250000 4298292.00000000 956.07800293 194 181 168
458000.56250000 4298292.50000000 956.28997803 190 179 163
458000.56250000 4298293.00000000 956.41601563 180 168 156
458000.56250000 4298293.50000000 956.51501465 173 161 148
458000.56250000 4298294.00000000 956.57397461 170 158 145
458000.56250000 4298294.50000000 956.63598633 176 163 151
458000.56250000 4298295.00000000 956.66198730 179 164 153
458001.06250000 4298286.50000000 954.79699707 164 150 133
458001.06250000 4298287.00000000 954.82202148 189 176 159
458001.06250000 4298287.50000000 954.86798096 210 197 179
458001.06250000 4298288.00000000 954.95202637 217 204 187
458001.06250000 4298288.50000000 955.07299805 215 202 186
458001.06250000 4298289.00000000 955.24200439 212 199 183
458001.06250000 4298289.50000000 955.40698242 208 195 178
458001.06250000 4298290.00000000 955.61102295 204 191 175
458001.06250000 4298290.50000000 955.87500000 206 193 176
458001.06250000 4298291.00000000 956.04602051 200 187 171
458001.06250000 4298291.50000000 956.19299316 197 184 168
458001.06250000 4298292.00000000 956.40502930 196 183 170
458001.06250000 4298292.50000000 956.57397461 187 173 159
458001.06250000 4298293.00000000 956.69299316 169 157 143
458001.06250000 4298293.50000000 956.79602051 167 154 141
458001.06250000 4298294.00000000 956.86999512 168 155 143
458001.06250000 4298294.50000000 956.89398193 179 164 153
458001.06250000 4298295.00000000 956.89599609 176 162 149
458001.56250000 4298286.50000000 955.29199219 175 159 143
458001.56250000 4298287.00000000 955.38397217 191 175 159
458001.56250000 4298287.50000000 955.46398926 201 185 170
458001.56250000 4298288.00000000 955.53698730 212 196 179
458001.56250000 4298288.50000000 955.61401367 216 200 184
458001.56250000 4298289.00000000 955.70202637 213 197 180
458001.56250000 4298289.50000000 955.81097412 207 191 175
458001.56250000 4298290.00000000 956.03698730 201 185 170
458001.56250000 4298290.50000000 956.28997803 208 192 175
458001.56250000 4298291.00000000 956.40002441 208 191 176
458001.56250000 4298291.50000000 956.50201416 204 187 173
458001.56250000 4298292.00000000 956.63201904 202 186 171
458001.56250000 4298292.50000000 956.74200439 202 186 171
458001.56250000 4298293.00000000 956.84698486 192 176 160
458001.56250000 4298293.50000000 956.93103027 169 153 138
458001.56250000 4298294.00000000 956.98199463 175 159 145
458001.56250000 4298294.50000000 957.00598145 185 169 156
458001.56250000 4298295.00000000 957.04797363 185 169 154
458002.06250000 4298286.50000000 955.69897461 198 183 165
458002.06250000 4298287.00000000 955.82397461 204 188 172
458002.06250000 4298287.50000000 955.93499756 195 179 162
458002.06250000 4298288.00000000 955.98101807 199 184 167
458002.06250000 4298288.50000000 956.03497314 204 188 172
458002.06250000 4298289.00000000 956.12298584 198 183 165
458002.06250000 4298289.50000000 956.25000000 206 190 174
458002.06250000 4298290.00000000 956.44396973 202 186 171
458002.06250000 4298290.50000000 956.58801270 211 194 177
458002.06250000 4298291.00000000 956.66302490 216 199 183
458002.06250000 4298291.50000000 956.77301025 215 198 181
458002.06250000 4298292.00000000 956.88299561 215 198 181
458002.06250000 4298292.50000000 956.94201660 218 201 185
458002.06250000 4298293.00000000 956.98602295 206 189 173
458002.06250000 4298293.50000000 957.01501465 179 161 144
458002.06250000 4298294.00000000 957.04101563 184 168 153
458002.06250000 4298294.50000000 957.09399414 191 175 160
458002.06250000 4298295.00000000 957.15802002 193 177 161
458002.56250000 4298286.50000000 956.08599854 207 191 175
458002.56250000 4298287.00000000 956.19702148 214 198 181
458002.56250000 4298287.50000000 956.26098633 217 200 184
458002.56250000 4298288.00000000 956.31298828 211 194 177
458002.56250000 4298288.50000000 956.38702393 214 197 180
458002.56250000 4298289.00000000 956.46099854 216 199 183
458002.56250000 4298289.50000000 956.55401611 219 202 186
458002.56250000 4298290.00000000 956.67700195 219 202 186
458002.56250000 4298290.50000000 956.78802490 218 201 183
458002.56250000 4298291.00000000 956.85998535 212 195 175
458002.56250000 4298291.50000000 956.93701172 216 199 178
458002.56250000 4298292.00000000 957.01501465 221 204 184
458002.56250000 4298292.50000000 957.05200195 222 205 185
458002.56250000 4298293.00000000 957.06799316 219 202 181
458002.56250000 4298293.50000000 957.07800293 206 189 171
458002.56250000 4298294.00000000 957.10498047 200 184 170
458002.56250000 4298294.50000000 957.16601563 191 175 159
458002.56250000 4298295.00000000 957.22497559 190 174 159
458003.06250000 4298286.50000000 956.35198975 217 202 183
458003.06250000 4298287.00000000 956.46002197 217 202 183
458003.06250000 4298287.50000000 956.54797363 216 199 180
458003.06250000 4298288.00000000 956.62701416 214 197 178
458003.06250000 4298288.50000000 956.70501709 215 198 179
458003.06250000 4298289.00000000 956.74499512 219 202 184
458003.06250000 4298289.50000000 956.77697754 218 201 183
458003.06250000 4298290.00000000 956.82897949 218 201 183
458003.06250000 4298290.50000000 956.89202881 217 200 179
458003.06250000 4298291.00000000 956.94000244 202 185 164
458003.06250000 4298291.50000000 956.98797607 206 189 170
458003.06250000 4298292.00000000 957.04498291 219 202 181
458003.06250000 4298292.50000000 957.08599854 221 204 184
458003.06250000 4298293.00000000 957.11102295 219 202 181
458003.06250000 4298293.50000000 957.13098145 208 191 171
458003.06250000 4298294.00000000 957.15899658 197 180 163
458003.06250000 4298294.50000000 957.20898438 184 168 151
458003.06250000 4298295.00000000 957.26000977 189 172 156
458003.56250000 4298286.50000000 956.54602051 220 205 186
458003.56250000 4298287.00000000 956.63800049 218 203 184
458003.56250000 4298287.50000000 956.72198486 214 197 178
458003.56250000 4298288.00000000 956.78601074 211 194 175
458003.56250000 4298288.50000000 956.82702637 216 199 180
458003.56250000 4298289.00000000 956.84997559 218 201 183
458003.56250000 4298289.50000000 956.86499023 216 199 180
458003.56250000 4298290.00000000 956.88800049 216 199 180
458003.56250000 4298290.50000000 956.92602539 219 201 180
458003.56250000 4298291.00000000 956.96697998 211 193 173
458003.56250000 4298291.50000000 957.01702881 210 192 172
458003.56250000 4298292.00000000 957.07299805 218 200 179
458003.56250000 4298292.50000000 957.12097168 221 203 183
458003.56250000 4298293.00000000 957.15600586 218 200 179
458003.56250000 4298293.50000000 957.17901611 204 186 165
458003.56250000 4298294.00000000 957.20397949 181 164 147
458003.56250000 4298294.50000000 957.24700928 176 159 143
458003.56250000 4298295.00000000 957.28497314 198 181 164
458004.06250000 4298286.50000000 956.70001221 215 200 180
458004.06250000 4298287.00000000 956.76702881 213 198 178
458004.06250000 4298287.50000000 956.83197021 211 194 175
458004.06250000 4298288.00000000 956.86901855 214 197 178
458004.06250000 4298288.50000000 956.87500000 219 202 184
458004.06250000 4298289.00000000 956.88000488 217 200 181
458004.06250000 4298289.50000000 956.89801025 215 198 179
458004.06250000 4298290.00000000 956.92199707 217 200 181
458004.06250000 4298290.50000000 956.95202637 218 200 180
458004.06250000 4298291.00000000 956.98400879 218 200 179
458004.06250000 4298291.50000000 957.03100586 223 205 185
458004.06250000 4298292.00000000 957.09600830 222 204 184
458004.06250000 4298292.50000000 957.15899658 223 205 185
458004.06250000 4298293.00000000 957.20501709 218 200 179
458004.06250000 4298293.50000000 957.23199463 217 199 178
458004.06250000 4298294.00000000 957.25598145 193 176 158
458004.06250000 4298294.50000000 957.28997803 177 160 142
458004.06250000 4298295.00000000 957.30902100 188 171 155
458004.56250000 4298286.50000000 956.78900146 216 199 180
458004.56250000 4298287.00000000 956.85498047 213 196 177
458004.56250000 4298287.50000000 956.92401123 214 197 178
458004.56250000 4298288.00000000 956.94799805 217 200 181
458004.56250000 4298288.50000000 956.93200684 217 200 181
458004.56250000 4298289.00000000 956.91497803 217 200 181
458004.56250000 4298289.50000000 956.92602539 220 203 185
458004.56250000 4298290.00000000 956.95501709 224 207 189
458004.56250000 4298290.50000000 956.98199463 225 208 190
458004.56250000 4298291.00000000 957.01300049 225 208 190
458004.56250000 4298291.50000000 957.06201172 225 209 191
458004.56250000 4298292.00000000 957.12799072 224 207 189
458004.56250000 4298292.50000000 957.19598389 221 204 186
458004.56250000 4298293.00000000 957.25000000 216 199 180
458004.56250000 4298293.50000000 957.28497314 215 198 179
458004.56250000 4298294.00000000 957.31097412 207 190 172
458004.56250000 4298294.50000000 957.33300781 184 168 148
458004.56250000 4298295.00000000 957.34002686 180 163 144
458005.06250000 4298286.50000000 956.82897949 216 199 180
458005.06250000 4298287.00000000 956.89501953 213 196 177
458005.06250000 4298287.50000000 956.95202637 214 197 178
458005.06250000 4298288.00000000 956.96502686 220 203 185
458005.06250000 4298288.50000000 956.95098877 219 202 184
458005.06250000 4298289.00000000 956.93902588 218 201 183
458005.06250000 4298289.50000000 956.95300293 227 210 191
458005.06250000 4298290.00000000 956.98699951 230 212 193
458005.06250000 4298290.50000000 957.01702881 227 211 191
458005.06250000 4298291.00000000 957.05297852 224 209 190
458005.06250000 4298291.50000000 957.10198975 223 208 189
458005.06250000 4298292.00000000 957.15997314 222 205 187
458005.06250000 4298292.50000000 957.22698975 222 205 187
458005.06250000 4298293.00000000 957.28399658 221 204 186
458005.06250000 4298293.50000000 957.32702637 220 203 185
458005.06250000 4298294.00000000 957.36700439 217 200 181
458005.06250000 4298294.50000000 957.39001465 191 174 156
458005.06250000 4298295.00000000 957.39398193 171 154 136
458005.56250000 4298286.50000000 956.85101318 220 203 185
458005.56250000 4298287.00000000 956.91302490 224 207 189
458005.56250000 4298287.50000000 956.95001221 223 206 188
458005.56250000 4298288.00000000 956.95202637 223 206 188
458005.56250000 4298288.50000000 956.94500732 223 206 188
458005.56250000 4298289.00000000 956.94598389 223 206 188
458005.56250000 4298289.50000000 956.97399902 225 208 190
458005.56250000 4298290.00000000 957.02099609 227 210 191
458005.56250000 4298290.50000000 957.05603027 226 211 191
458005.56250000 4298291.00000000 957.09698486 221 206 187
458005.56250000 4298291.50000000 957.14099121 221 206 187
458005.56250000 4298292.00000000 957.18499756 221 204 186
458005.56250000 4298292.50000000 957.23901367 223 206 188
458005.56250000 4298293.00000000 957.29602051 224 207 189
458005.56250000 4298293.50000000 957.35601807 222 205 187
458005.56250000 4298294.00000000 957.41601563 224 206 186
458005.56250000 4298294.50000000 957.44097900 211 193 175
458005.56250000 4298295.00000000 957.44500732 183 164 146
458006.06250000 4298286.50000000 956.88098145 223 206 188
458006.06250000 4298287.00000000 956.92602539 224 207 189
458006.06250000 4298287.50000000 956.94799805 226 209 191
458006.06250000 4298288.00000000 956.94598389 226 209 191
458006.06250000 4298288.50000000 956.94702148 222 205 187
458006.06250000 4298289.00000000 956.95800781 224 207 189
458006.06250000 4298289.50000000 956.99298096 223 206 188
458006.06250000 4298290.00000000 957.04901123 223 206 188
458006.06250000 4298290.50000000 957.09899902 225 209 191
458006.06250000 4298291.00000000 957.13897705 224 209 190
458006.06250000 4298291.50000000 957.17199707 224 209 190
458006.06250000 4298292.00000000 957.20397949 225 208 190
458006.06250000 4298292.50000000 957.24200439 224 207 189
458006.06250000 4298293.00000000 957.28900146 224 207 189
458006.06250000 4298293.50000000 957.36798096 221 204 186
458006.06250000 4298294.00000000 957.44799805 224 206 186
458006.06250000 4298294.50000000 957.47601318 218 200 179
