-1104.952 373.251 1054.998 210 185 165
-1104.452 372.751 1054.682 211 186 164
-1104.452 373.251 1054.878 212 185 164
-1113.452 376.751 1054.883 135 124 121
-1109.952 375.251 1056.016 162 160 165
-1109.952 375.751 1056.441 163 162 170
-1109.952 376.251 1056.818 169 170 181
-1109.952 376.751 1057.043 172 173 185
-1109.952 377.251 1057.235 181 184 197
-1109.452 375.251 1056.317 168 164 170
-1109.452 375.751 1056.820 166 164 171
-1109.452 376.251 1057.056 167 161 174
-1109.452 376.751 1057.263 169 167 177
-1109.452 378.751 1057.220 179 189 208
-1108.952 374.751 1056.277 168 164 164
-1108.952 375.251 1056.522 169 168 171
-1108.952 375.751 1057.021 163 161 167
-1108.952 376.251 1057.260 168 167 173
-1108.452 374.751 1056.441 161 158 160
-1108.452 375.251 1056.770 168 167 171
-1108.452 375.751 1057.138 169 168 172
-1112.952 376.751 1055.086 159 149 147
-1112.952 377.251 1055.057 170 161 156
-1112.952 377.751 1054.987 161 150 146
-1112.452 376.251 1055.210 136 128 129
-1112.452 376.751 1055.246 147 138 139
-1112.452 377.251 1055.267 166 157 155
-1112.452 377.751 1055.207 147 139 136
-1112.452 378.251 1055.114 166 156 151
-1112.452 378.751 1055.066 181 170 166
-1111.952 376.251 1055.493 155 150 155
-1111.952 376.751 1055.536 145 142 146
-1111.952 377.251 1055.568 141 140 142
-1111.952 377.751 1055.552 142 141 141
-1111.952 378.251 1055.503 153 149 147
-1111.952 378.751 1055.363 162 153 151
-1111.452 375.751 1055.480 174 170 171
-1111.452 376.251 1055.714 169 168 173
-1111.452 376.751 1055.899 153 155 162
-1111.452 377.251 1055.968 140 143 152
-1111.452 377.751 1055.940 138 141 149
-1111.452 378.251 1055.891 143 142 148
-1111.452 378.751 1055.776 144 140 144
-1110.952 375.751 1055.700 176 175 178
-1110.952 376.251 1055.997 180 186 191
-1110.952 376.751 1056.322 173 180 190
-1110.952 377.251 1056.539 157 164 181
-1110.952 377.751 1056.390 149 156 173
-1110.952 378.251 1056.273 135 141 154
-1110.952 378.751 1056.071 136 138 148
-1110.452 375.251 1055.694 158 156 159
-1110.452 375.751 1056.027 174 174 179
-1110.452 376.251 1056.428 179 186 194
-1110.452 376.751 1056.777 175 183 194
-1110.452 377.251 1056.945 175 183 200
-1110.452 377.751 1056.875 173 180 199
-1110.452 378.251 1056.700 162 169 187
-1110.452 378.751 1056.446 149 157 171
-1109.952 377.751 1057.199 172 179 193
-1109.952 378.251 1057.093 176 184 201
-1109.952 378.751 1056.946 176 185 204
-1103.952 374.751 1055.175 212 187 171
-1103.952 375.251 1055.376 202 183 166
-1103.952 375.751 1055.568 187 168 155
-1103.452 375.251 1055.220 211 188 171
-1103.452 375.751 1055.387 202 181 165
-1103.452 376.251 1055.525 198 179 165
-1103.452 376.751 1055.604 187 169 157
-1103.452 377.251 1055.785 166 149 138
-1103.452 377.751 1055.882 167 150 143
-1103.452 378.251 1055.971 170 156 153
-1103.452 378.751 1056.162 173 159 156
-1102.952 376.251 1055.245 210 189 172
-1102.952 376.751 1055.416 205 184 168
-1102.952 377.251 1055.522 192 173 160
-1102.952 377.751 1055.638 187 168 158
-1102.952 378.251 1055.709 179 160 151
-1102.952 378.751 1055.860 179 160 154
-1107.952 374.251 1056.265 159 155 155
-1107.952 374.751 1056.533 162 158 162
-1107.952 375.251 1056.922 154 150 155
-1107.952 375.751 1057.148 163 158 164
-1107.952 376.251 1057.239 171 168 174
-1107.452 374.251 1056.177 175 169 171
-1107.452 374.751 1056.461 169 164 170
-1107.452 375.251 1056.943 154 149 155
-1107.452 375.751 1057.080 163 158 164
-1107.452 376.251 1057.186 176 171 177
-1107.452 376.751 1057.255 179 177 182
-1106.952 374.251 1056.065 184 175 176
-1106.952 374.751 1056.292 177 171 174
-1106.952 375.251 1056.817 168 162 166
-1106.952 375.751 1057.003 162 157 161
-1106.952 376.251 1057.120 174 169 173
-1106.952 376.751 1057.180 188 184 188
-1106.952 377.251 1057.255 194 192 197
-1106.452 373.751 1055.743 181 167 161
-1106.452 374.251 1055.975 189 179 178
-1106.452 374.751 1056.197 186 179 181
-1106.452 375.251 1056.578 173 169 171
-1106.452 375.751 1056.901 170 167 165
-1106.452 376.251 1057.007 183 176 180
-1106.452 376.751 1057.045 195 190 194
-1106.452 377.251 1057.173 202 199 205
-1105.952 373.751 1055.518 183 166 154
-1105.952 374.251 1055.790 181 167 160
-1105.952 374.751 1056.113 181 170 166
-1105.952 375.251 1056.383 183 175 174
-1105.952 375.751 1056.694 180 175 174
-1105.952 376.251 1056.784 188 183 185
-1105.952 376.751 1056.892 198 193 196
-1105.952 377.251 1057.037 207 202 206
-1105.952 377.751 1057.201 211 208 213
-1105.452 373.751 1055.315 202 181 165
-1105.452 374.251 1055.539 189 171 159
-1105.452 374.751 1055.878 184 171 162
-1105.452 375.251 1056.156 180 171 166
-1105.452 375.751 1056.412 169 161 159
-1105.452 376.251 1056.558 173 164 165
-1105.452 376.751 1056.724 204 198 198
-1105.452 377.251 1056.874 208 204 205
-1105.452 377.751 1057.047 213 208 212
-1105.452 378.251 1057.213 212 210 215
-1104.952 373.751 1055.135 211 189 171
-1104.952 374.251 1055.327 204 184 168
-1104.952 374.751 1055.602 191 173 161
-1104.952 375.251 1055.877 176 162 153
-1104.952 375.751 1056.171 164 153 146
-1104.952 376.251 1056.363 156 146 145
-1104.952 376.751 1056.523 181 172 172
-1104.952 377.251 1056.650 203 197 198
-1104.952 377.751 1056.807 212 207 210
-1104.952 378.251 1057.040 207 205 208
-1104.952 378.751 1057.170 207 206 211
-1104.452 373.751 1054.958 210 185 165
-1104.452 374.251 1055.143 208 183 164
-1104.452 374.751 1055.386 205 184 168
-1104.452 375.251 1055.568 184 166 152
-1104.452 375.751 1055.883 167 150 140
-1104.452 376.251 1056.105 162 147 144
-1104.452 376.751 1056.248 168 155 151
-1104.452 377.251 1056.321 179 168 166
-1104.452 377.751 1056.502 191 184 182
-1104.452 378.251 1056.734 202 198 199
-1104.452 378.751 1056.818 200 198 201
-1103.952 376.251 1055.798 168 152 142
-1103.952 376.751 1055.885 164 148 140
-1103.952 377.251 1056.039 169 155 148
-1103.952 377.751 1056.193 174 163 158
-1103.952 378.251 1056.323 179 169 167
-1103.952 378.751 1056.460 192 185 183
-1102.452 377.251 1055.346 206 185 168
-1102.452 377.751 1055.464 201 181 166
-1102.452 378.251 1055.516 195 177 163
-1102.452 378.751 1055.615 194 177 164
-1101.952 378.251 1055.294 207 186 171
-1101.952 378.751 1055.391 206 187 172
-1109.452 379.251 1057.102 183 197 219
-1109.452 379.751 1057.057 184 199 220
-1109.452 380.251 1056.973 181 194 213
-1109.452 380.751 1056.741 167 174 191
-1109.452 381.251 1056.473 146 152 165
-1109.452 381.751 1056.189 139 142 153
-1109.452 382.251 1055.986 132 132 140
-1109.452 382.751 1055.826 137 131 136
-1109.452 383.251 1055.643 141 133 136
-1109.452 383.751 1055.570 160 151 152
-1109.452 384.251 1055.467 186 176 175
-1108.952 380.251 1057.226 197 210 227
-1108.952 380.751 1057.056 197 210 226
-1108.952 381.251 1056.875 187 199 215
-1108.952 381.751 1056.700 161 173 189
-1108.952 382.251 1056.572 140 151 164
-1108.952 382.751 1056.382 136 137 147
-1108.952 383.251 1056.081 132 131 138
-1108.952 383.751 1055.930 137 134 137
-1108.952 384.251 1055.734 146 140 139
-1108.452 381.251 1057.235 207 219 233
-1108.452 381.751 1057.194 203 216 229
-1108.452 382.251 1057.114 190 202 214
-1108.452 382.751 1056.884 167 173 185
-1108.452 383.251 1056.567 143 147 158
-1108.452 383.751 1056.371 135 138 144
-1108.452 384.251 1056.135 130 130 132
-1112.952 379.251 1054.812 201 187 179
-1112.452 379.251 1055.037 184 171 165
-1112.452 379.751 1054.940 164 151 143
-1112.452 380.251 1054.918 160 145 138
-1111.952 379.251 1055.339 172 163 161
-1111.952 379.751 1055.261 168 160 156
-1111.952 380.251 1055.137 141 131 128
-1111.952 380.751 1055.077 142 130 127
-1111.452 379.251 1055.724 142 138 139
-1111.452 379.751 1055.621 143 140 141
-1111.452 380.251 1055.425 152 146 147
-1111.452 380.751 1055.330 158 149 150
-1111.452 381.251 1055.275 130 120 119
-1111.452 381.751 1055.167 144 133 132
-1110.952 379.251 1056.023 138 137 145
-1110.952 379.751 1055.897 132 131 136
-1110.952 380.251 1055.695 132 128 133
-1110.952 380.751 1055.527 136 131 133
-1110.952 381.251 1055.467 152 145 145
-1110.952 381.751 1055.367 161 153 151
-1110.952 382.251 1055.271 139 129 127
-1110.952 382.751 1055.123 155 144 138
-1110.952 383.251 1055.000 167 155 149
-1110.452 379.251 1056.352 141 145 154
-1110.452 379.751 1056.236 137 139 147
-1110.452 380.251 1056.066 132 131 137
-1110.452 380.751 1055.833 129 127 131
-1110.452 381.251 1055.736 130 126 128
-1110.452 381.751 1055.563 145 138 137
-1110.452 382.251 1055.437 175 166 164
-1110.452 382.751 1055.308 171 161 159
-1110.452 383.251 1055.177 168 158 156
-1110.452 383.751 1055.102 176 167 161
-1109.952 379.251 1056.771 172 180 197
-1109.952 379.751 1056.708 160 168 182
-1109.952 380.251 1056.563 146 152 164
-1109.952 380.751 1056.283 137 139 149
-1109.952 381.251 1056.082 134 133 140
-1109.952 381.751 1055.844 129 127 131
-1109.952 382.251 1055.643 134 131 133
-1109.952 382.751 1055.512 157 149 151
-1109.952 383.251 1055.366 183 173 173
-1109.952 383.751 1055.328 173 163 162
-1109.952 384.251 1055.262 150 141 138
-1107.452 383.751 1057.170 201 214 229
-1106.952 384.251 1057.208 207 220 236
-1104.952 379.251 1057.263 209 207 212
-1104.452 379.251 1056.935 202 199 204
-1104.452 379.751 1057.084 207 206 212
-1104.452 380.251 1057.184 210 213 220
-1104.452 380.751 1057.252 206 211 221
-1103.952 379.251 1056.568 209 204 205
-1103.952 379.751 1056.698 213 211 213
-1103.952 380.251 1056.901 212 212 218
-1103.952 380.751 1057.042 210 213 221
-1103.952 381.251 1057.227 209 212 222
-1103.452 379.251 1056.260 180 172 171
-1103.452 379.751 1056.444 201 195 196
-1103.452 380.251 1056.612 214 212 214
-1103.452 380.751 1056.794 215 214 219
-1103.452 381.251 1057.022 213 212 218
-1103.452 381.751 1057.173 209 208 216
-1103.452 382.251 1057.256 211 211 219
-1102.952 379.251 1055.989 174 163 159
-1102.952 379.751 1056.209 177 169 167
-1102.952 380.251 1056.407 185 179 177
-1102.952 380.751 1056.536 199 194 197
-1102.952 381.251 1056.734 204 201 205
-1102.952 381.751 1056.891 205 202 208
-1102.952 382.251 1057.006 207 206 211
-1102.952 382.751 1057.191 212 213 218
-1107.952 382.751 1057.196 203 216 231
-1107.952 383.251 1057.043 187 199 212
-1107.952 383.751 1056.823 161 169 182
-1107.952 384.251 1056.533 142 149 157
-1107.452 384.251 1056.903 186 196 208
-1102.452 379.251 1055.770 180 167 155
-1102.452 379.751 1055.929 176 163 154
-1102.452 380.251 1056.164 172 161 153
-1102.452 380.751 1056.295 176 167 161
-1102.452 381.251 1056.471 184 175 173
-1102.452 381.751 1056.588 194 188 189
-1102.452 382.251 1056.718 204 198 200
-1102.452 382.751 1056.967 208 204 211
-1102.452 383.251 1057.143 209 210 215
-1102.452 383.751 1057.259 212 215 223
-1101.952 379.251 1055.565 190 174 161
-1101.952 379.751 1055.729 181 167 155
-1101.952 380.251 1055.899 184 169 160
-1101.952 380.751 1056.071 175 163 156
-1101.952 381.251 1056.245 169 158 155
-1101.952 381.751 1056.339 172 163 161
-1101.952 382.251 1056.474 185 175 175
-1101.952 382.751 1056.670 201 196 197
-1101.952 383.251 1056.879 212 211 215
-1101.952 383.751 1057.056 212 213 218
-1101.952 384.251 1057.122 209 210 218
-1101.452 379.251 1055.337 201 183 167
-1101.452 379.751 1055.531 191 173 159
-1101.452 380.251 1055.655 205 189 175
-1101.452 380.751 1055.853 198 184 174
-1101.452 381.251 1055.973 186 173 165
-1101.452 381.751 1056.114 179 168 162
-1101.452 382.251 1056.262 170 159 155
-1101.452 382.751 1056.382 172 163 160
-1101.452 383.251 1056.567 187 183 179
-1101.452 383.751 1056.771 198 196 198
-1101.452 384.251 1056.914 204 201 208
-1100.952 380.751 1055.602 213 195 181
-1100.952 381.251 1055.725 204 186 174
-1100.952 381.751 1055.940 195 180 170
-1100.952 382.251 1056.095 187 174 164
-1100.952 382.751 1056.210 175 163 154
-1100.952 383.251 1056.346 171 161 155
-1100.952 383.751 1056.525 177 169 167
-1100.952 384.251 1056.695 183 177 180
-1100.452 381.251 1055.501 207 187 171
-1100.452 381.751 1055.677 200 184 167
-1100.452 382.251 1055.877 199 181 167
-1100.452 382.751 1056.079 189 175 164
-1100.452 383.251 1056.164 180 168 159
-1100.452 383.751 1056.296 170 159 156
-1100.452 384.251 1056.451 168 157 155
-1099.952 382.751 1055.780 196 179 168
-1099.952 383.251 1055.914 191 175 167
-1099.952 383.751 1056.027 184 168 163
-1099.952 384.251 1056.184 174 161 159
-1099.452 383.751 1055.737 189 171 160
-1099.452 384.251 1055.961 184 170 160
-1109.452 384.751 1055.342 162 151 148
-1109.452 385.251 1055.212 145 134 128
-1108.952 384.751 1055.561 164 156 151
-1108.952 385.251 1055.454 184 175 168
-1108.952 385.751 1055.336 153 144 138
-1108.952 386.251 1055.272 147 138 132
-1108.452 384.751 1055.935 138 134 132
-1108.452 385.251 1055.811 143 138 135
-1108.452 385.751 1055.658 166 156 154
-1108.452 386.251 1055.545 190 181 176
-1108.452 386.751 1055.448 155 146 139
-1109.952 384.751 1055.151 160 149 143
-1106.452 385.251 1057.116 205 222 236
-1106.452 385.751 1056.889 197 212 226
-1106.452 386.251 1056.768 179 190 205
-1106.452 386.751 1056.671 154 162 178
-1106.452 387.251 1056.508 143 149 161
-1106.452 387.751 1056.277 133 135 143
-1106.452 388.251 1056.043 125 125 130
-1106.452 388.751 1055.879 127 123 126
-1105.952 385.751 1057.258 207 222 236
-1105.952 386.251 1057.161 205 220 234
-1105.952 386.751 1057.077 192 206 221
-1105.952 387.251 1056.935 173 185 196
-1105.952 387.751 1056.703 151 160 171
-1105.952 388.251 1056.430 142 147 158
-1105.952 388.751 1056.210 136 137 146
-1105.952 389.251 1055.971 131 129 135
-1105.952 389.751 1055.749 134 129 132
-1105.452 387.751 1057.172 191 205 218
-1105.452 388.251 1056.991 173 183 197
-1105.452 388.751 1056.685 152 160 174
-1105.452 389.251 1056.387 140 146 158
-1105.452 389.751 1056.138 133 136 145
-1104.952 388.751 1057.104 189 204 220
-1104.952 389.251 1056.846 164 179 193
-1104.952 389.751 1056.558 147 158 171
-1104.452 389.251 1057.176 197 218 235
-1104.452 389.751 1056.999 179 197 213
-1107.952 384.751 1056.270 130 133 140
-1107.952 385.251 1056.109 129 131 137
-1107.952 385.751 1055.954 137 131 133
-1107.952 386.251 1055.796 151 144 143
-1107.952 386.751 1055.667 174 166 163
-1107.952 387.251 1055.549 189 180 175
-1107.952 387.751 1055.410 163 151 144
-1107.952 388.251 1055.302 164 151 143
-1107.452 384.751 1056.627 153 163 175
-1107.452 385.251 1056.424 139 147 160
-1107.452 385.751 1056.299 135 135 142
-1107.452 386.251 1056.123 134 132 137
-1107.452 386.751 1055.963 136 131 135
-1107.452 387.251 1055.794 148 142 142
-1107.452 387.751 1055.636 180 171 168
-1107.452 388.251 1055.532 195 184 178
-1107.452 388.751 1055.368 160 147 139
-1106.952 384.751 1056.975 200 213 229
-1106.952 385.251 1056.765 179 190 206
-1106.952 385.751 1056.587 159 168 178
-1106.952 386.251 1056.447 140 146 156
-1106.952 386.751 1056.310 135 138 147
-1106.952 387.251 1056.122 129 128 135
-1106.952 387.751 1055.958 135 132 135
-1106.952 388.251 1055.811 148 142 141
-1106.952 388.751 1055.613 169 162 159
-1106.952 389.251 1055.403 163 153 147
-1106.952 389.751 1055.286 183 170 161
-1106.452 389.251 1055.661 142 133 134
-1106.452 389.751 1055.465 166 155 152
-1098.452 385.751 1055.718 189 174 161
-1098.452 386.251 1055.861 192 177 166
-1098.452 386.751 1056.020 187 173 162
-1097.952 386.751 1055.732 199 181 166
-1097.952 387.251 1055.883 184 168 152
-1097.952 387.751 1056.023 186 169 155
-1097.952 388.251 1056.159 188 171 159
-1097.952 388.751 1056.331 180 166 156
-1097.952 389.251 1056.469 176 164 156
-1097.952 389.751 1056.610 176 164 159
-1097.452 388.251 1055.737 196 173 157
-1097.452 388.751 1055.957 196 175 161
-1097.452 389.251 1056.089 196 179 167
-1097.452 389.751 1056.146 189 173 163
-1101.952 384.751 1057.203 203 204 212
-1101.452 384.751 1057.026 195 192 199
-1101.452 385.251 1057.117 191 188 195
-1101.452 385.751 1057.212 186 185 191
-1100.952 384.751 1056.813 185 181 184
-1100.952 385.251 1056.886 179 174 179
-1100.952 385.751 1057.017 175 170 175
-1100.952 386.251 1057.134 177 173 180
-1100.952 386.751 1057.190 187 184 192
-1100.952 387.251 1057.211 197 196 205
-1100.452 384.751 1056.571 164 157 154
-1100.452 385.251 1056.654 168 163 160
-1100.452 385.751 1056.776 172 167 168
-1100.452 386.251 1056.891 176 169 174
-1100.452 386.751 1056.984 180 175 180
-1100.452 387.251 1057.023 183 179 185
-1100.452 387.751 1057.122 185 183 188
-1100.452 388.251 1057.234 188 187 192
-1099.952 384.751 1056.329 157 148 144
-1099.952 385.251 1056.459 155 148 143
-1099.952 385.751 1056.565 161 152 154
-1099.952 386.251 1056.684 172 163 166
-1099.952 386.751 1056.763 184 177 182
-1099.952 387.251 1056.794 186 180 186
-1099.952 387.751 1056.923 190 185 190
-1099.952 388.251 1057.091 195 191 195
-1099.952 388.751 1057.203 205 201 204
-1099.452 384.751 1056.127 173 160 152
-1099.452 385.251 1056.276 163 152 146
-1099.452 385.751 1056.396 162 151 147
-1099.452 386.251 1056.518 162 151 149
-1099.452 386.751 1056.559 171 161 159
-1099.452 387.251 1056.574 184 174 174
-1099.452 387.751 1056.692 192 184 186
-1099.452 388.251 1056.915 195 189 191
-1099.452 388.751 1057.098 203 198 199
-1099.452 389.251 1057.220 200 196 197
-1098.952 384.751 1055.842 184 168 158
-1098.952 385.251 1056.041 184 168 159
-1098.952 385.751 1056.126 184 170 162
-1098.952 386.251 1056.222 180 168 160
-1098.952 386.751 1056.291 170 159 154
-1098.952 387.251 1056.391 173 163 159
-1098.952 387.751 1056.506 179 168 166
-1098.952 388.251 1056.673 188 179 178
-1098.952 388.751 1056.909 193 185 184
-1098.952 389.251 1057.068 185 179 180
-1098.952 389.751 1057.182 179 173 176
-1098.452 387.251 1056.125 177 163 154
-1098.452 387.751 1056.283 179 167 158
-1098.452 388.251 1056.422 170 160 151
-1098.452 388.751 1056.583 171 160 157
-1098.452 389.251 1056.730 173 166 162
-1098.452 389.751 1056.911 181 173 172
-1096.952 388.751 1055.404 198 173 155
-1096.952 389.251 1055.561 200 179 162
-1096.952 389.751 1055.730 200 179 164
-1104.452 390.251 1056.745 158 172 188
-1103.952 390.251 1057.132 197 217 235
-1103.952 390.751 1056.985 184 200 216
-1103.952 391.251 1056.862 160 173 187
-1103.952 391.751 1056.643 138 147 159
-1103.952 392.251 1056.425 130 135 144
-1103.952 392.751 1056.291 124 126 132
-1103.952 393.251 1056.197 135 132 133
-1103.952 393.751 1056.080 163 158 155
-1103.952 394.251 1055.969 184 174 171
-1103.952 394.751 1055.904 159 149 143
-1103.452 390.751 1057.246 197 220 238
-1103.452 391.251 1057.135 191 212 229
-1103.452 391.751 1056.945 176 193 208
-1103.452 392.251 1056.720 154 168 183
-1103.452 392.751 1056.548 133 144 155
-1103.452 393.251 1056.441 125 130 136
-1103.452 393.751 1056.328 131 130 134
-1103.452 394.251 1056.167 160 154 155
-1102.952 391.751 1057.214 196 218 234
-1102.952 392.251 1057.101 188 209 228
-1102.952 392.751 1056.905 176 193 208
-1102.952 393.251 1056.700 149 161 172
-1102.952 393.751 1056.547 130 134 141
-1102.952 394.251 1056.374 128 125 130
-1102.952 394.751 1056.170 142 135 137
-1106.452 390.251 1055.370 184 172 163
-1106.452 390.751 1055.358 170 157 146
-1105.952 390.251 1055.608 154 147 145
-1105.952 390.751 1055.554 183 173 167
-1105.952 391.251 1055.520 179 167 161
-1105.952 391.751 1055.516 154 143 136
-1105.452 390.251 1055.940 125 124 129
-1105.452 390.751 1055.797 133 128 129
-1105.452 391.251 1055.670 150 143 140
-1105.452 391.751 1055.609 187 179 174
-1105.452 392.251 1055.560 167 157 150
-1104.952 390.251 1056.290 137 144 153
-1104.952 390.751 1056.104 131 133 138
-1104.952 391.251 1055.969 123 120 123
-1104.952 391.751 1055.878 137 131 131
-1104.952 392.251 1055.791 157 149 145
-1104.952 392.751 1055.660 181 172 167
-1104.952 393.251 1055.567 166 153 146
-1104.452 390.751 1056.544 142 151 163
-1104.452 391.251 1056.429 135 139 148
-1104.452 391.751 1056.305 127 127 134
-1104.452 392.251 1056.179 127 123 125
-1104.452 392.751 1055.985 136 129 129
-1104.452 393.251 1055.860 168 159 155
-1104.452 393.751 1055.813 186 175 168
-1098.452 390.251 1057.052 188 183 186
-1098.452 390.751 1057.063 188 184 189
-1098.452 391.251 1056.952 190 189 195
-1098.452 391.751 1056.714 170 170 177
-1098.452 392.251 1056.431 142 139 144
-1098.452 392.751 1056.223 146 139 139
-1098.452 393.251 1055.958 158 145 139
-1097.952 390.251 1056.758 179 170 166
-1097.952 390.751 1056.793 189 183 180
-1097.952 391.251 1056.673 180 172 173
-1097.952 391.751 1056.411 160 153 156
-1097.952 392.251 1056.179 154 144 143
-1097.952 392.751 1055.990 160 147 144
-1097.952 393.251 1055.758 169 152 144
-1097.952 393.751 1055.519 184 163 151
-1097.952 394.251 1055.354 186 164 150
-1097.452 390.251 1056.274 180 168 158
-1097.452 390.751 1056.328 180 168 159
-1097.452 391.251 1056.259 183 168 165
-1097.452 391.751 1056.091 180 167 161
-1097.452 392.251 1055.901 181 164 157
-1097.452 392.751 1055.690 176 159 150
-1097.452 393.251 1055.529 190 172 160
-1097.452 393.751 1055.315 195 173 159
-1097.452 394.251 1055.165 205 183 166
-1102.452 392.751 1057.189 198 222 239
-1102.452 393.251 1056.939 185 207 227
-1102.452 393.751 1056.725 140 156 172
-1102.452 394.251 1056.494 124 127 136
-1102.452 394.751 1056.269 128 120 123
-1101.952 393.251 1057.043 193 212 231
-1101.952 393.751 1056.779 142 154 170
-1101.952 394.251 1056.515 125 126 134
-1101.952 394.751 1056.298 138 131 132
-1101.452 392.751 1057.185 209 222 238
-1101.452 393.251 1056.974 184 195 211
-1101.452 393.751 1056.677 136 143 155
-1101.452 394.251 1056.434 130 129 134
-1101.452 394.751 1056.209 151 142 141
-1100.952 392.251 1057.230 210 220 232
-1100.952 392.751 1057.062 205 214 226
-1100.952 393.251 1056.820 162 168 180
-1100.952 393.751 1056.531 133 133 141
-1100.952 394.251 1056.331 146 141 140
-1100.952 394.751 1056.085 171 160 153
-1100.452 391.751 1057.261 203 212 224
-1100.452 392.251 1057.152 199 209 221
-1100.452 392.751 1056.953 180 185 198
-1100.452 393.251 1056.653 140 140 150
-1100.452 393.751 1056.396 142 136 140
-1100.452 394.251 1056.224 176 166 161
-1100.452 394.751 1055.988 190 175 164
-1099.952 391.751 1057.184 193 201 215
-1099.952 392.251 1057.029 191 200 214
-1099.952 392.751 1056.780 154 157 171
-1099.952 393.251 1056.494 132 127 137
-1099.952 393.751 1056.258 157 146 147
-1099.952 394.251 1056.043 193 176 168
-1099.952 394.751 1055.832 192 173 158
-1099.452 391.251 1057.258 191 194 206
-1099.452 391.751 1057.070 200 206 219
-1099.452 392.251 1056.873 180 186 198
-1099.452 392.751 1056.614 137 138 146
-1099.452 393.251 1056.362 144 135 136
-1099.452 393.751 1056.109 168 152 147
-1099.452 394.251 1055.877 168 150 140
-1099.452 394.751 1055.641 173 155 143
-1098.952 390.251 1057.252 183 177 184
-1098.952 390.751 1057.254 189 187 195
-1098.952 391.251 1057.160 195 195 206
-1098.952 391.751 1056.937 194 198 209
-1098.952 392.251 1056.695 155 158 168
-1098.952 392.751 1056.434 135 132 136
-1098.952 393.251 1056.170 159 149 147
-1098.952 393.751 1055.929 169 153 146
-1098.952 394.251 1055.687 156 138 127
-1098.952 394.751 1055.482 162 142 131
-1098.452 393.751 1055.695 163 145 136
-1098.452 394.251 1055.503 162 143 129
-1096.952 390.251 1055.847 193 174 160
-1096.952 390.751 1055.845 195 177 164
-1096.952 391.251 1055.777 195 176 165
-1096.952 391.751 1055.671 195 176 166
-1096.952 392.251 1055.525 192 172 159
-1096.952 392.751 1055.389 186 166 152
-1096.952 393.251 1055.240 205 184 170
-1096.952 393.751 1055.091 205 183 166
-1096.452 390.251 1055.375 199 179 161
-1096.452 390.751 1055.377 204 184 166
-1096.452 391.251 1055.329 209 187 173
-1096.452 391.751 1055.275 212 189 175
-1096.452 392.251 1055.195 208 185 171
-1096.452 392.751 1055.115 205 183 166
-1096.452 393.251 1055.015 204 181 164
-1096.452 393.751 1054.963 204 179 161
-1095.952 390.751 1055.049 198 172 152
-1095.952 391.251 1055.055 198 172 154
-1095.952 391.751 1055.043 205 179 161
-1095.952 392.251 1055.010 210 184 168
-1095.952 392.751 1054.947 215 188 171
-1095.952 393.251 1054.899 207 181 162
-1095.452 392.251 1054.892 200 173 154
-1095.452 392.751 1054.852 206 179 157
-1095.452 393.251 1054.835 210 183 161
-1094.952 392.751 1054.776 219 191 167
-1094.952 393.251 1054.776 219 189 165
-1103.952 395.251 1055.889 158 147 141
-1103.452 395.251 1055.954 157 146 142
-1103.452 395.751 1055.922 151 140 134
-1103.452 396.251 1055.895 149 138 132
-1102.952 395.251 1056.036 152 142 140
-1102.952 395.751 1055.960 168 157 152
-1102.452 395.251 1056.071 156 145 142
-1102.452 395.751 1055.943 179 167 159
-1101.952 395.251 1056.055 164 151 145
-1101.952 395.751 1055.883 185 171 162
-1101.452 395.251 1055.982 174 160 151
-1101.452 395.751 1055.840 202 185 173
-1100.952 395.251 1055.900 181 164 151
-1100.452 395.251 1055.843 199 180 165
-1109.452 377.251 1057.346 176 176 184
-1109.452 377.751 1057.323 179 185 194
-1109.452 378.251 1057.282 183 189 205
-1108.952 376.751 1057.348 170 170 178
-1108.952 377.251 1057.357 181 181 189
-1108.952 377.751 1057.354 189 192 201
-1108.952 378.251 1057.346 189 192 205
-1108.952 378.751 1057.331 192 197 209
-1108.452 376.251 1057.287 177 176 182
-1108.452 376.751 1057.333 181 180 187
-1108.452 377.251 1057.349 183 183 190
-1108.452 377.751 1057.357 186 186 196
-1108.452 378.251 1057.374 192 195 205
-1108.452 378.751 1057.382 205 208 219
-1107.452 377.251 1057.293 186 184 190
-1107.452 377.751 1057.331 190 189 195
-1107.452 378.251 1057.381 191 191 199
-1107.452 378.751 1057.414 195 195 204
-1106.952 377.751 1057.322 201 198 205
-1106.952 378.251 1057.379 205 204 210
-1106.952 378.751 1057.412 206 205 213
-1106.452 377.751 1057.297 208 206 211
-1106.452 378.251 1057.383 207 206 212
-1106.452 378.751 1057.416 210 209 216
-1105.952 378.251 1057.335 213 211 217
-1105.952 378.751 1057.413 215 212 219
-1105.452 378.751 1057.354 214 213 218
-1107.952 376.751 1057.294 183 180 186
-1107.952 377.251 1057.329 190 190 196
-1107.952 377.751 1057.348 190 190 198
-1107.952 378.251 1057.381 193 194 202
-1107.952 378.751 1057.407 198 199 209
-1108.952 379.251 1057.308 191 201 218
-1108.952 379.751 1057.286 191 204 222
-1108.452 379.251 1057.382 202 209 225
-1108.452 379.751 1057.374 199 207 222
-1108.452 380.251 1057.353 201 212 226
-1108.452 380.751 1057.292 205 216 230
-1104.952 379.751 1057.346 211 210 216
-1104.452 381.251 1057.365 204 211 222
-1104.452 381.751 1057.418 206 214 225
-1104.452 382.251 1057.445 209 217 228
-1104.452 382.751 1057.470 210 219 231
-1104.452 383.251 1057.511 212 220 232
-1104.452 383.751 1057.548 210 220 232
-1104.452 384.251 1057.553 211 221 233
-1103.952 381.751 1057.331 208 213 222
-1103.952 382.251 1057.371 209 214 223
-1103.952 382.751 1057.413 212 219 229
-1103.952 383.251 1057.452 214 221 232
-1103.952 383.751 1057.505 212 221 232
-1103.952 384.251 1057.526 211 220 233
-1103.452 382.751 1057.343 213 216 223
-1103.452 383.251 1057.392 217 221 229
-1103.452 383.751 1057.446 214 221 232
-1103.452 384.251 1057.487 214 220 232
-1102.952 383.251 1057.294 215 219 225
-1102.952 383.751 1057.376 212 218 228
-1102.952 384.251 1057.414 210 217 227
-1104.952 380.251 1057.357 208 211 220
-1104.952 380.751 1057.393 200 208 218
-1104.952 381.251 1057.429 201 211 223
-1104.952 381.751 1057.474 205 215 227
-1104.952 382.251 1057.509 207 217 229
-1104.952 382.751 1057.533 207 216 230
-1107.952 379.251 1057.411 194 197 209
-1107.952 379.751 1057.408 195 199 212
-1107.952 380.251 1057.405 204 211 224
-1107.952 380.751 1057.395 211 219 231
-1107.952 381.251 1057.393 211 222 233
-1107.952 381.751 1057.398 210 222 234
-1107.952 382.251 1057.340 207 221 233
-1107.452 379.251 1057.425 205 203 214
-1107.452 379.751 1057.428 205 205 217
-1107.452 380.251 1057.434 209 211 223
-1107.452 380.751 1057.440 214 219 230
-1107.452 381.251 1057.466 212 221 231
-1107.452 381.751 1057.492 210 223 232
-1107.452 382.251 1057.468 210 223 234
-1107.452 382.751 1057.426 206 222 238
-1107.452 383.251 1057.360 205 221 236
-1106.952 379.251 1057.435 210 208 219
-1106.952 379.751 1057.443 215 215 225
-1106.952 380.251 1057.460 215 218 227
-1106.952 380.751 1057.482 214 220 230
-1106.952 381.251 1057.514 213 221 231
-1106.952 381.751 1057.545 211 221 231
-1106.952 382.251 1057.543 210 221 233
-1106.952 382.751 1057.531 208 220 235
-1106.952 383.251 1057.497 209 221 236
-1106.952 383.751 1057.391 207 220 236
-1106.452 379.251 1057.458 215 215 224
-1106.452 379.751 1057.469 214 216 225
-1106.452 380.251 1057.477 214 217 226
-1106.452 380.751 1057.495 214 219 230
-1106.452 381.251 1057.526 212 220 231
-1106.452 381.751 1057.555 212 220 231
-1106.452 382.251 1057.559 211 221 233
-1106.452 382.751 1057.558 214 221 234
-1106.452 383.251 1057.554 213 220 233
-1106.452 383.751 1057.522 211 221 234
-1106.452 384.251 1057.435 211 223 236
-1105.952 379.251 1057.459 217 216 223
-1105.952 379.751 1057.481 215 215 223
-1105.952 380.251 1057.480 212 216 225
-1105.952 380.751 1057.483 212 218 229
-1105.952 381.251 1057.513 211 219 231
-1105.952 381.751 1057.545 211 220 233
-1105.952 382.251 1057.556 211 220 232
-1105.952 382.751 1057.569 211 219 231
-1105.952 383.251 1057.585 209 217 228
-1105.952 383.751 1057.578 211 218 230
-1105.952 384.251 1057.536 213 223 234
-1105.452 379.251 1057.416 214 211 218
-1105.452 379.751 1057.435 214 213 220
-1105.452 380.251 1057.438 213 216 225
-1105.452 380.751 1057.451 208 216 226
-1105.452 381.251 1057.477 204 214 226
-1105.452 381.751 1057.519 203 213 225
-1105.452 382.251 1057.546 203 213 225
-1105.452 382.751 1057.568 205 215 228
-1105.452 383.251 1057.586 212 221 234
-1105.452 383.751 1057.581 214 222 233
-1105.452 384.251 1057.561 214 222 233
-1104.952 383.251 1057.559 210 218 231
-1104.952 383.751 1057.570 212 220 233
-1104.952 384.251 1057.565 213 221 234
-1102.452 384.251 1057.305 210 214 222
-1103.952 384.751 1057.525 211 220 232
-1103.952 385.251 1057.521 212 221 232
-1103.952 385.751 1057.509 215 221 232
-1103.952 386.251 1057.495 215 222 234
-1103.952 386.751 1057.467 212 222 234
-1103.452 384.751 1057.495 213 219 231
-1103.452 385.251 1057.495 215 219 230
-1103.452 385.751 1057.490 215 219 230
-1103.452 386.251 1057.483 214 221 231
-1103.452 386.751 1057.468 214 220 232
-1103.452 387.251 1057.447 211 221 233
-1103.452 387.751 1057.421 210 222 236
-1103.452 388.251 1057.400 209 222 237
-1103.452 388.751 1057.384 207 221 236
-1103.452 389.251 1057.379 207 224 238
-1103.452 389.751 1057.365 199 220 237
-1102.952 384.751 1057.433 210 214 225
-1102.952 385.251 1057.449 211 214 223
-1102.952 385.751 1057.462 214 218 228
-1102.952 386.251 1057.465 215 219 230
-1102.952 386.751 1057.455 214 220 231
-1102.952 387.251 1057.437 211 219 230
-1102.952 387.751 1057.421 212 222 234
-1102.952 388.251 1057.415 210 222 232
-1102.952 388.751 1057.416 209 220 231
-1102.952 389.251 1057.413 209 221 235
-1102.952 389.751 1057.404 204 223 238
-1106.452 384.751 1057.293 206 221 236
-1105.952 384.751 1057.485 208 221 233
-1105.952 385.251 1057.403 207 222 236
-1105.452 384.751 1057.545 210 221 233
-1105.452 385.251 1057.512 209 221 235
-1105.452 385.751 1057.467 211 223 237
-1105.452 386.251 1057.433 208 222 235
-1105.452 386.751 1057.365 207 224 236
-1105.452 387.251 1057.267 204 222 234
-1104.952 384.751 1057.557 211 222 234
-1104.952 385.251 1057.535 210 222 236
-1104.952 385.751 1057.517 212 222 234
-1104.952 386.251 1057.503 210 222 234
-1104.952 386.751 1057.459 208 224 236
-1104.952 387.251 1057.393 204 222 236
-1104.952 387.751 1057.347 207 222 237
-1104.952 388.251 1057.285 204 217 233
-1104.452 384.751 1057.545 211 221 234
-1104.452 385.251 1057.533 211 222 236
-1104.452 385.751 1057.518 215 223 234
-1104.452 386.251 1057.503 212 222 234
-1104.452 386.751 1057.467 209 222 234
-1104.452 387.251 1057.417 205 222 236
-1104.452 387.751 1057.374 205 222 238
-1104.452 388.251 1057.353 205 222 240
-1104.452 388.751 1057.305 201 220 238
-1103.952 387.251 1057.433 208 221 235
-1103.952 387.751 1057.399 207 222 238
-1103.952 388.251 1057.375 206 222 239
-1103.952 388.751 1057.356 204 223 239
-1103.952 389.251 1057.326 202 223 240
-1103.952 389.751 1057.270 201 222 240
-1101.952 385.251 1057.300 203 201 209
-1101.952 385.751 1057.356 203 204 211
-1101.952 386.251 1057.370 208 209 218
-1101.952 386.751 1057.382 201 204 215
-1101.952 387.251 1057.382 199 204 215
-1101.952 387.751 1057.386 204 210 220
-1101.952 388.251 1057.397 211 219 228
-1101.952 388.751 1057.414 213 221 230
-1101.452 386.251 1057.293 188 187 195
-1101.452 386.751 1057.323 188 188 198
-1101.452 387.251 1057.337 200 200 210
-1101.452 387.751 1057.350 205 208 217
-1101.452 388.251 1057.369 207 210 217
-1101.452 388.751 1057.389 211 214 221
-1101.452 389.251 1057.405 215 218 227
-1101.452 389.751 1057.415 213 218 227
-1100.952 387.751 1057.269 195 194 201
-1100.952 388.251 1057.333 193 194 199
-1100.952 388.751 1057.362 202 202 207
-1100.952 389.251 1057.385 208 207 213
-1100.952 389.751 1057.400 214 215 222
-1100.452 388.751 1057.310 197 195 200
-1100.452 389.251 1057.366 208 206 211
-1100.452 389.751 1057.382 212 211 217
-1099.952 389.251 1057.311 204 202 207
-1099.952 389.751 1057.361 203 202 208
-1099.452 389.751 1057.313 195 191 196
-1102.452 384.751 1057.347 208 210 218
-1102.452 385.251 1057.387 209 208 216
-1102.452 385.751 1057.423 208 211 220
-1102.452 386.251 1057.432 211 215 224
-1102.452 386.751 1057.430 211 216 228
-1102.452 387.251 1057.415 211 217 229
-1102.452 387.751 1057.410 209 217 228
-1102.452 388.251 1057.416 209 218 227
-1102.452 388.751 1057.427 212 221 232
-1102.452 389.251 1057.430 210 221 235
-1102.452 389.751 1057.425 209 222 235
-1101.952 389.251 1057.427 213 221 231
-1101.952 389.751 1057.429 211 221 233
-1103.452 390.251 1057.327 199 222 240
-1102.952 390.251 1057.390 201 223 241
-1102.952 390.751 1057.356 199 223 241
-1102.952 391.251 1057.294 198 223 238
-1101.952 390.251 1057.431 210 221 234
-1101.952 390.751 1057.428 209 222 236
-1101.952 391.251 1057.411 208 222 238
-1101.952 391.751 1057.375 207 222 238
-1101.952 392.251 1057.348 205 223 238
-1101.952 392.751 1057.265 203 223 240
-1101.452 390.251 1057.423 213 221 231
-1101.452 390.751 1057.422 212 221 233
-1101.452 391.251 1057.404 210 222 235
-1101.452 391.751 1057.365 210 222 236
-1101.452 392.251 1057.304 211 224 237
-1100.952 390.251 1057.405 214 218 228
-1100.952 390.751 1057.396 211 218 229
-1100.952 391.251 1057.378 205 215 227
-1100.952 391.751 1057.331 209 219 231
-1100.452 390.251 1057.382 208 211 218
-1100.452 390.751 1057.363 205 210 221
-1100.452 391.251 1057.331 201 209 222
-1099.952 390.251 1057.361 195 196 205
-1099.952 390.751 1057.344 192 197 208
-1099.952 391.251 1057.300 189 197 210
-1099.452 390.251 1057.342 184 180 189
-1099.452 390.751 1057.331 185 184 195
-1102.452 390.251 1057.415 208 221 236
-1102.452 390.751 1057.405 205 222 238
-1102.452 391.251 1057.385 205 222 239
-1102.452 391.751 1057.345 204 223 239
-1102.452 392.251 1057.303 201 222 239
