-1125.452 383.251 1056.541 188 184 173
-1124.952 383.251 1056.841 192 184 174
-1124.452 382.751 1055.966 194 183 170
-1124.452 383.251 1057.142 190 184 175
-1127.452 384.251 1056.506 197 190 184
-1126.952 383.751 1056.117 193 189 183
-1126.952 384.251 1056.962 194 189 186
-1126.452 383.751 1056.476 190 187 181
-1125.952 383.251 1056.207 187 184 173
-1125.952 383.751 1056.984 185 183 176
-1119.952 381.751 1055.496 205 191 181
-1119.452 382.251 1055.540 214 200 187
-1119.452 382.751 1055.797 196 184 171
-1119.452 383.251 1056.295 186 179 167
-1119.452 383.751 1056.852 189 180 172
-1118.952 383.251 1055.695 198 188 176
-1118.952 383.751 1056.007 198 187 176
-1118.952 384.251 1056.366 186 173 165
-1123.952 382.251 1055.639 200 190 178
-1123.952 382.751 1056.565 194 184 174
-1123.452 382.251 1055.976 185 175 165
-1123.452 382.751 1057.140 196 188 181
-1122.952 381.751 1055.508 205 193 181
-1122.952 382.251 1056.423 193 184 173
-1122.452 381.751 1055.656 194 184 171
-1122.452 382.251 1056.750 192 179 171
-1121.952 381.751 1055.867 185 173 161
-1121.952 382.251 1057.229 184 175 166
-1121.452 381.251 1055.393 205 193 181
-1121.452 381.751 1056.047 189 177 165
-1120.952 380.751 1055.102 208 195 183
-1120.952 381.251 1055.391 211 198 189
-1120.952 381.751 1055.965 189 176 167
-1120.952 382.251 1056.950 184 173 164
-1120.452 380.751 1054.991 206 192 181
-1120.452 381.251 1055.276 204 191 182
-1120.452 381.751 1055.725 193 180 171
-1120.452 382.251 1056.255 181 168 160
-1120.452 382.751 1057.218 191 181 176
-1119.952 382.251 1055.775 186 172 162
-1119.952 382.751 1056.340 179 166 156
-1130.452 385.751 1054.770 154 143 137
-1130.452 386.251 1054.827 151 140 136
-1130.452 386.751 1054.900 157 148 143
-1129.952 385.751 1055.077 166 155 150
-1129.952 386.251 1055.152 166 156 150
-1129.952 386.751 1055.212 163 155 151
-1129.952 387.251 1055.267 160 151 147
-1129.952 387.751 1055.320 154 145 142
-1129.952 388.251 1055.391 150 140 135
-1129.952 388.751 1055.489 152 142 136
-1129.952 389.251 1055.548 153 145 140
-1129.952 389.751 1055.578 144 135 131
-1129.452 385.251 1055.584 177 168 163
-1129.452 385.751 1055.937 162 154 151
-1129.452 386.251 1056.144 162 157 154
-1129.452 386.751 1056.201 157 151 151
-1129.452 387.251 1056.265 143 138 138
-1129.452 387.751 1056.431 142 137 136
-1129.452 388.251 1056.565 141 136 133
-1129.452 388.751 1056.585 142 137 134
-1129.452 389.251 1056.351 135 129 129
-1129.452 389.751 1056.136 131 125 125
-1131.952 386.251 1054.660 138 130 127
-1131.452 386.251 1054.613 138 130 127
-1131.452 386.751 1054.635 129 121 119
-1131.452 387.251 1054.705 136 128 125
-1130.952 386.251 1054.659 153 144 140
-1130.952 386.751 1054.699 143 135 132
-1130.952 387.251 1054.790 138 130 127
-1130.952 387.751 1054.888 152 143 138
-1130.952 388.251 1054.968 162 151 145
-1130.452 387.251 1054.957 150 141 136
-1130.452 387.751 1055.003 154 143 139
-1130.452 388.251 1055.075 156 145 139
-1130.452 388.751 1055.149 159 147 139
-1130.452 389.251 1055.210 157 147 138
-1128.952 385.251 1056.540 176 166 161
-1128.952 385.751 1057.210 168 163 161
-1128.952 389.751 1057.106 127 122 126
-1128.452 384.751 1056.525 188 177 171
-1127.952 384.751 1057.113 183 171 167
-1118.952 384.751 1056.951 171 159 154
-1118.452 384.751 1055.985 188 175 166
-1118.452 385.251 1056.911 177 164 156
-1117.952 385.251 1055.986 195 183 174
-1117.952 385.751 1056.891 189 174 164
-1117.452 386.251 1056.429 193 179 167
-1117.452 386.751 1056.902 186 172 162
-1116.952 387.251 1056.755 188 175 170
-1115.952 389.251 1056.333 175 162 155
-1115.952 389.751 1056.127 171 157 149
-1129.952 390.251 1055.587 143 135 131
-1129.452 390.251 1056.013 129 123 123
-1129.452 390.751 1055.873 133 125 126
-1129.452 391.251 1055.752 134 125 126
-1129.452 391.751 1055.592 144 135 136
-1128.952 390.251 1056.582 125 119 123
-1128.952 390.751 1056.256 126 120 124
-1128.952 391.251 1056.031 122 117 120
-1128.952 391.751 1055.843 128 119 123
-1128.952 392.251 1055.730 136 127 128
-1128.452 390.751 1056.868 120 116 121
-1128.452 391.251 1056.526 115 108 113
-1128.452 391.751 1056.342 116 109 113
-1128.452 392.251 1056.288 120 115 116
-1128.452 392.751 1056.135 124 119 118
-1128.452 393.251 1055.936 131 123 121
-1127.952 391.751 1057.203 107 103 108
-1127.952 392.251 1057.061 109 107 111
-1127.952 392.751 1056.820 117 112 116
-1127.952 393.251 1056.546 121 116 116
-1127.952 393.751 1056.317 125 118 119
-1127.952 394.251 1056.056 138 128 128
-1127.952 394.751 1055.882 149 139 137
-1127.452 393.751 1057.089 119 115 118
-1127.452 394.251 1056.928 123 118 119
-1127.452 394.751 1056.770 129 123 123
-1114.452 392.251 1055.425 174 163 157
-1114.452 392.751 1055.935 172 161 154
-1114.452 393.251 1056.233 169 158 152
-1114.452 393.751 1056.954 172 162 158
-1113.952 393.251 1055.518 176 160 152
-1113.952 393.751 1055.825 173 158 151
-1113.952 394.251 1056.706 174 159 155
-1113.452 394.251 1055.724 163 148 141
-1113.452 394.751 1056.361 170 156 151
-1115.952 390.251 1056.195 168 154 147
-1115.952 390.751 1056.431 167 154 148
-1115.452 390.751 1055.292 156 145 141
-1115.452 391.251 1055.833 158 145 139
-1115.452 391.751 1056.401 157 145 139
-1114.952 391.251 1055.248 153 142 138
-1114.952 391.751 1055.310 158 146 140
-1114.952 392.251 1056.093 163 153 151
-1114.952 392.751 1057.244 159 149 145
-1127.452 395.251 1056.456 140 131 126
-1126.952 395.251 1057.135 125 120 121
-1126.952 395.751 1056.874 135 128 127
-1126.952 396.251 1056.614 144 135 133
-1126.952 396.751 1056.195 153 144 140
-1126.452 397.251 1057.071 140 132 129
-1126.452 397.751 1056.990 150 141 136
-1125.952 398.751 1057.224 145 138 136
-1125.452 399.751 1056.797 136 131 131
-1124.952 400.251 1057.125 130 125 125
-1113.952 399.751 1057.147 120 113 112
-1113.952 400.251 1056.426 139 131 130
-1113.452 395.251 1057.022 180 168 161
-1113.452 398.751 1057.165 152 141 139
-1113.452 399.251 1056.743 133 123 121
-1113.452 399.751 1056.298 144 134 132
-1113.452 400.251 1055.997 161 151 149
-1112.952 395.251 1055.836 179 166 157
-1112.952 395.751 1056.484 181 168 158
-1112.952 396.251 1056.750 183 168 160
-1112.952 396.751 1056.838 179 163 155
-1112.952 397.251 1056.822 185 170 163
-1112.952 397.751 1056.876 190 179 171
-1112.952 398.251 1056.635 200 187 181
-1112.952 398.751 1056.269 176 162 159
-1112.952 399.251 1056.069 139 128 126
-1112.952 399.751 1055.964 143 133 131
-1112.952 400.251 1055.902 155 147 144
-1112.452 395.251 1055.567 199 189 180
-1112.452 395.751 1055.574 185 172 161
-1112.452 396.251 1055.721 180 163 153
-1112.452 396.751 1055.911 185 167 155
-1112.452 397.251 1056.104 188 170 158
-1112.452 397.751 1056.141 191 173 162
-1112.452 398.251 1056.097 185 171 162
-1112.452 398.751 1056.056 150 136 133
-1112.452 399.251 1055.948 139 128 124
-1112.452 399.751 1055.911 151 141 138
-1112.452 400.251 1055.889 159 151 148
-1111.952 396.751 1055.657 188 170 156
-1111.952 397.251 1055.761 189 172 159
-1111.952 397.751 1055.853 186 170 162
-1111.952 398.251 1055.885 163 150 143
-1111.952 398.751 1055.929 145 134 130
-1111.952 399.251 1055.879 147 136 132
-1111.952 399.751 1055.888 154 143 139
-1111.952 400.251 1055.878 163 152 149
-1111.452 397.751 1055.665 198 184 177
-1111.452 398.251 1055.746 145 134 130
-1111.452 398.751 1055.802 149 140 135
-1111.452 399.251 1055.805 155 146 141
-1111.452 399.751 1055.869 163 152 148
-1111.452 400.251 1055.895 166 154 150
-1110.952 398.751 1055.742 150 142 138
-1110.952 399.251 1055.778 155 146 141
-1110.952 399.751 1055.844 160 149 145
-1110.952 400.251 1055.931 160 147 141
-1110.452 399.251 1055.779 154 145 140
-1110.452 399.751 1055.860 157 146 140
-1124.952 400.751 1056.626 133 123 124
-1124.452 401.251 1057.036 125 119 120
-1124.452 401.751 1056.697 131 123 124
-1120.952 403.751 1056.885 105 103 111
-1120.952 404.251 1056.548 119 116 122
-1120.452 403.751 1056.663 103 103 111
-1120.452 404.251 1056.488 115 111 118
-1119.952 403.251 1057.225 98 98 106
-1119.952 403.751 1056.566 110 110 120
-1119.952 404.251 1056.465 116 112 121
-1119.452 403.251 1056.839 100 99 107
-1119.452 403.751 1056.441 125 123 136
-1118.952 402.751 1056.904 97 95 103
-1118.952 403.251 1056.538 125 123 134
-1118.952 403.751 1056.370 116 113 125
-1123.952 402.251 1057.153 130 124 125
-1123.952 402.751 1056.698 134 127 127
-1123.952 403.251 1056.239 137 129 127
-1123.452 403.251 1056.726 136 130 131
-1123.452 403.751 1056.288 139 131 129
-1123.452 404.251 1055.938 147 139 137
-1122.952 403.251 1057.245 131 125 128
-1122.952 403.751 1056.753 137 128 129
-1122.952 404.251 1056.232 141 133 131
-1122.952 404.751 1055.743 154 144 142
-1122.952 405.251 1055.437 167 155 151
-1122.452 403.751 1057.070 127 121 122
-1122.452 404.251 1056.527 132 123 124
-1122.452 404.751 1055.881 140 131 129
-1122.452 405.251 1055.475 154 143 141
-1121.952 403.751 1057.142 113 108 113
-1121.952 404.251 1056.638 124 117 119
-1121.952 404.751 1055.980 133 124 126
-1121.452 403.751 1057.112 107 104 111
-1121.452 404.251 1056.673 119 112 118
-1121.452 404.751 1056.128 119 111 116
-1114.452 400.751 1056.732 133 127 129
-1114.452 401.251 1056.646 132 126 128
-1114.452 401.751 1056.539 140 134 135
-1113.952 400.751 1056.284 154 145 144
-1113.952 401.251 1056.259 151 141 141
-1113.452 400.751 1055.993 168 157 156
-1113.452 401.251 1055.993 167 154 154
-1118.452 402.751 1056.673 106 109 121
-1118.452 403.251 1056.409 132 134 147
-1117.952 402.251 1057.033 95 95 103
-1117.952 402.751 1056.603 130 132 144
-1117.952 403.251 1056.420 124 124 136
-1117.452 402.251 1056.812 95 95 103
-1117.452 402.751 1056.560 133 133 143
-1117.452 403.251 1056.268 116 115 122
-1116.952 401.751 1057.089 103 102 109
-1116.952 402.251 1056.745 127 126 134
-1116.952 402.751 1056.509 131 129 136
-1116.452 401.751 1056.891 124 123 131
-1116.452 402.251 1056.737 137 136 142
-1115.952 401.751 1056.904 127 126 134
-1115.952 402.251 1056.707 134 133 139
-1115.452 401.751 1056.913 131 127 134
-1115.452 402.251 1056.540 135 129 132
-1114.952 401.251 1057.086 115 112 117
-1114.952 401.751 1056.831 130 125 129
-1112.952 400.751 1055.916 163 153 152
-1112.952 401.251 1055.914 160 148 148
-1112.452 400.751 1055.906 163 154 152
-1126.452 384.251 1057.571 190 186 184
-1125.952 384.251 1058.212 179 177 176
-1125.452 383.751 1057.667 183 177 172
-1125.452 384.251 1059.133 211 209 209
-1124.952 383.751 1058.313 191 187 185
-1124.952 384.251 1059.797 219 222 226
-1124.452 383.751 1058.752 204 204 202
-1124.452 384.251 1060.082 233 237 240
-1121.952 382.751 1058.880 201 200 201
-1121.952 383.251 1059.316 233 239 241
-1121.952 383.751 1059.483 230 240 245
-1121.452 382.251 1057.393 184 174 165
-1121.452 382.751 1058.812 204 202 205
-1121.452 383.251 1059.325 231 235 239
-1121.452 383.751 1059.440 231 241 245
-1121.452 384.251 1059.587 231 239 246
-1120.952 382.751 1058.276 197 192 190
-1120.952 383.251 1059.039 219 222 221
-1120.952 383.751 1059.365 228 235 239
-1120.952 384.251 1059.513 232 239 244
-1120.452 383.251 1058.347 201 200 196
-1120.452 383.751 1058.944 211 214 213
-1120.452 384.251 1059.166 225 231 232
-1119.952 383.251 1057.303 184 177 170
-1119.952 383.751 1058.183 187 184 179
-1119.952 384.251 1058.723 200 198 196
-1119.452 384.251 1057.359 180 172 166
-1122.952 382.751 1057.966 197 191 189
-1122.952 383.251 1058.859 208 209 210
-1122.952 383.751 1059.510 231 238 241
-1122.452 382.751 1058.559 203 200 200
-1122.452 383.251 1059.157 224 225 227
-1122.452 383.751 1059.509 228 239 242
-1122.452 384.251 1059.885 227 240 246
-1121.952 384.251 1059.718 230 239 246
-1123.952 383.251 1057.788 203 197 192
-1123.952 383.751 1059.227 210 210 211
-1123.952 384.251 1060.167 228 236 239
-1123.452 383.251 1058.447 201 200 196
-1123.452 383.751 1059.463 219 223 225
-1123.452 384.251 1060.101 231 239 243
-1122.952 384.251 1060.011 230 239 244
-1125.452 384.751 1060.019 223 231 233
-1125.452 385.251 1060.254 220 235 240
-1125.452 385.751 1060.360 215 233 240
-1125.452 386.251 1060.439 216 234 242
-1125.452 386.751 1060.540 217 234 241
-1124.952 384.751 1060.281 227 236 242
-1124.952 385.251 1060.430 220 233 238
-1124.952 385.751 1060.549 219 233 241
-1124.952 386.251 1060.648 219 233 242
-1124.952 386.751 1060.729 218 234 242
-1124.952 387.251 1060.753 217 234 242
-1124.952 387.751 1060.708 217 235 245
-1124.952 388.251 1060.675 216 234 244
-1124.952 388.751 1060.616 217 234 242
-1124.952 389.251 1060.540 220 234 243
-1124.952 389.751 1060.476 220 235 242
-1124.452 384.751 1060.412 228 238 243
-1124.452 385.251 1060.558 228 239 245
-1124.452 385.751 1060.689 224 237 244
-1124.452 386.251 1060.787 221 234 242
-1124.452 386.751 1060.832 219 233 240
-1124.452 387.251 1060.851 219 234 240
-1124.452 387.751 1060.831 218 235 242
-1124.452 388.251 1060.800 218 235 242
-1124.452 388.751 1060.762 219 235 242
-1124.452 389.251 1060.699 220 235 242
-1124.452 389.751 1060.630 220 235 242
-1128.952 386.251 1057.693 161 161 161
-1128.952 386.751 1057.828 151 151 153
-1128.952 387.251 1057.808 147 148 151
-1128.952 387.751 1057.958 135 136 139
-1128.952 388.251 1058.063 128 127 129
-1128.952 388.751 1057.983 125 123 125
-1128.952 389.251 1057.615 133 128 132
-1128.452 385.251 1057.458 174 163 159
-1128.452 385.751 1058.315 197 197 198
-1128.452 386.251 1058.852 192 196 199
-1128.452 386.751 1058.976 194 200 205
-1128.452 387.251 1058.929 168 174 180
-1128.452 387.751 1059.001 140 147 153
-1128.452 388.251 1059.053 134 139 143
-1128.452 388.751 1058.974 131 131 136
-1128.452 389.251 1058.737 129 127 132
-1128.452 389.751 1058.183 120 118 123
-1127.952 385.251 1058.273 190 183 180
-1127.952 385.751 1059.007 208 216 219
-1127.952 386.251 1059.314 218 232 237
-1127.952 386.751 1059.454 215 232 240
-1127.952 387.251 1059.539 211 228 237
-1127.952 387.751 1059.577 197 212 219
-1127.952 388.251 1059.617 172 184 189
-1127.952 388.751 1059.515 146 153 157
-1127.952 389.251 1059.342 133 133 140
-1127.952 389.751 1058.972 120 120 127
-1127.452 384.751 1057.581 188 183 180
-1127.452 385.251 1058.899 208 207 205
-1127.452 385.751 1059.363 217 228 232
-1127.452 386.251 1059.559 218 233 240
-1127.452 386.751 1059.727 215 233 241
-1127.452 387.251 1059.847 213 232 241
-1127.452 387.751 1059.874 218 234 242
-1127.452 388.251 1059.905 219 233 241
-1127.452 388.751 1059.822 213 223 230
-1127.452 389.251 1059.699 176 184 191
-1127.452 389.751 1059.459 138 142 151
-1126.952 384.751 1058.257 196 194 195
-1126.952 385.251 1059.302 200 205 207
-1126.952 385.751 1059.600 218 233 239
-1126.952 386.251 1059.778 215 233 240
-1126.952 386.751 1059.891 213 233 242
-1126.952 387.251 1060.012 214 234 243
-1126.952 387.751 1060.104 216 234 244
-1126.952 388.251 1060.113 216 233 241
-1126.952 388.751 1060.049 219 234 241
-1126.952 389.251 1059.965 219 233 240
-1126.952 389.751 1059.797 212 223 232
-1126.452 384.751 1058.999 202 204 207
-1126.452 385.251 1059.613 215 227 230
-1126.452 385.751 1059.831 215 233 240
-1126.452 386.251 1060.024 215 234 241
-1126.452 386.751 1060.102 214 233 243
-1126.452 387.251 1060.208 214 233 243
-1126.452 387.751 1060.278 216 234 244
-1126.452 388.251 1060.264 216 235 242
-1126.452 388.751 1060.222 217 235 242
-1126.452 389.251 1060.170 218 235 242
-1126.452 389.751 1060.058 220 235 242
-1125.952 384.751 1059.596 205 209 213
-1125.952 385.251 1059.959 215 230 234
-1125.952 385.751 1060.121 215 234 240
-1125.952 386.251 1060.254 215 234 241
-1125.952 386.751 1060.340 215 234 242
-1125.952 387.251 1060.417 215 234 242
-1125.952 387.751 1060.392 216 234 243
-1125.952 388.251 1060.347 217 236 243
-1125.952 388.751 1060.328 216 234 241
-1125.952 389.251 1060.294 217 234 241
-1125.952 389.751 1060.224 218 235 242
-1125.452 387.251 1060.586 218 235 242
-1125.452 387.751 1060.521 218 235 242
-1125.452 388.251 1060.482 217 236 243
-1125.452 388.751 1060.435 217 235 242
-1125.452 389.251 1060.383 220 235 242
-1125.452 389.751 1060.319 220 235 242
-1119.952 384.751 1059.137 214 216 216
-1119.952 385.251 1059.488 228 236 236
-1119.952 385.751 1059.684 232 238 241
-1119.952 386.251 1059.833 231 237 243
-1119.952 386.751 1059.938 230 240 245
-1119.952 387.251 1060.009 228 239 245
-1119.452 384.751 1058.135 189 183 179
-1119.452 385.251 1059.049 193 192 188
-1119.452 385.751 1059.435 213 214 215
-1119.452 386.251 1059.689 233 236 239
-1119.452 386.751 1059.847 230 238 240
-1119.452 387.251 1059.945 230 240 244
-1119.452 387.751 1060.027 230 238 245
-1119.452 388.251 1060.099 230 238 243
-1119.452 388.751 1060.134 231 238 243
-1119.452 389.251 1060.170 231 239 244
-1119.452 389.751 1060.238 232 240 245
-1118.952 385.251 1058.079 168 160 153
-1118.952 385.751 1058.861 181 177 175
-1118.952 386.251 1059.163 192 192 191
-1118.952 386.751 1059.541 210 214 217
-1118.952 387.251 1059.771 219 228 231
-1118.952 387.751 1059.942 224 233 238
-1118.952 388.251 1060.021 228 237 244
-1118.952 388.751 1060.029 230 238 244
-1118.952 389.251 1060.034 231 239 244
-1118.952 389.751 1060.074 231 239 244
-1123.952 384.751 1060.443 232 241 245
-1123.952 385.251 1060.622 232 243 246
-1123.952 385.751 1060.744 231 240 245
-1123.952 386.251 1060.837 230 239 244
-1123.952 386.751 1060.873 226 236 241
-1123.952 387.251 1060.891 222 234 238
-1123.952 387.751 1060.891 221 233 239
-1123.952 388.251 1060.870 222 235 241
-1123.952 388.751 1060.839 220 234 240
-1123.952 389.251 1060.796 220 235 241
-1123.952 389.751 1060.739 220 236 241
-1123.452 384.751 1060.335 230 240 244
-1123.452 385.251 1060.539 231 240 245
-1123.452 385.751 1060.698 233 241 244
-1123.452 386.251 1060.810 233 241 244
-1123.452 386.751 1060.885 233 241 244
-1123.452 387.251 1060.905 233 243 244
-1123.452 387.751 1060.918 227 236 241
-1123.452 388.251 1060.917 224 233 238
-1123.452 388.751 1060.899 222 234 239
-1123.452 389.251 1060.860 221 234 240
-1123.452 389.751 1060.814 220 234 240
-1122.952 384.751 1060.222 230 240 244
-1122.952 385.251 1060.396 231 240 244
-1122.952 385.751 1060.567 233 241 243
-1122.952 386.251 1060.759 233 241 243
-1122.952 386.751 1060.872 233 241 244
-1122.952 387.251 1060.913 233 243 244
-1122.952 387.751 1060.930 233 244 245
-1122.952 388.251 1060.936 231 239 244
-1122.952 388.751 1060.933 226 236 241
-1122.952 389.251 1060.914 224 235 239
-1122.952 389.751 1060.883 222 234 240
-1122.452 384.751 1060.071 227 240 245
-1122.452 385.251 1060.255 232 241 243
-1122.452 385.751 1060.412 233 243 243
-1122.452 386.251 1060.597 233 243 243
-1122.452 386.751 1060.749 233 243 244
-1122.452 387.251 1060.815 232 241 243
-1122.452 387.751 1060.873 232 240 243
-1122.452 388.251 1060.922 233 240 245
-1122.452 388.751 1060.937 234 241 247
-1122.452 389.251 1060.937 232 240 245
-1122.452 389.751 1060.923 226 235 240
-1121.952 384.751 1059.909 231 240 244
-1121.952 385.251 1060.098 233 240 243
-1121.952 385.751 1060.267 233 241 243
-1121.952 386.251 1060.436 233 241 243
-1121.952 386.751 1060.579 233 241 243
-1121.952 387.251 1060.687 233 240 245
-1121.952 387.751 1060.791 233 241 244
-1121.952 388.251 1060.865 233 241 244
-1121.952 388.751 1060.902 232 240 244
-1121.952 389.251 1060.903 232 240 245
-1121.952 389.751 1060.897 233 240 245
-1121.452 384.751 1059.762 233 239 244
-1121.452 385.251 1059.926 232 241 242
-1121.452 385.751 1060.116 233 243 243
-1121.452 386.251 1060.305 233 243 243
-1121.452 386.751 1060.466 233 241 244
-1121.452 387.251 1060.579 232 240 245
-1121.452 387.751 1060.690 232 240 245
-1121.452 388.251 1060.782 232 241 243
-1121.452 388.751 1060.814 232 240 243
-1121.452 389.251 1060.824 232 240 245
-1121.452 389.751 1060.842 232 240 245
-1120.952 384.751 1059.675 232 240 245
-1120.952 385.251 1059.813 230 243 243
-1120.952 385.751 1059.965 232 243 244
-1120.952 386.251 1060.128 233 241 245
-1120.952 386.751 1060.308 233 241 246
-1120.952 387.251 1060.419 232 240 245
-1120.952 387.751 1060.492 232 240 245
-1120.952 388.251 1060.589 232 241 243
-1120.952 388.751 1060.708 231 240 243
-1120.952 389.251 1060.772 232 240 245
-1120.952 389.751 1060.793 232 240 245
-1120.452 384.751 1059.507 231 239 241
-1120.452 385.251 1059.703 231 241 243
-1120.452 385.751 1059.833 231 240 245
-1120.452 386.251 1059.959 231 241 245
-1120.452 386.751 1060.070 230 240 246
-1120.452 387.251 1060.158 230 240 246
-1120.452 387.751 1060.237 231 239 244
-1120.452 388.251 1060.331 232 240 243
-1120.452 388.751 1060.444 231 239 243
-1120.452 389.251 1060.566 231 239 244
-1120.452 389.751 1060.646 232 240 245
-1119.952 387.751 1060.081 231 239 244
-1119.952 388.251 1060.168 230 237 243
-1119.952 388.751 1060.237 230 237 242
-1119.952 389.251 1060.321 231 239 244
-1119.952 389.751 1060.411 233 241 246
-1118.452 385.751 1057.972 174 162 156
-1118.452 386.251 1058.383 173 164 159
-1118.452 386.751 1058.994 176 171 170
-1118.452 387.251 1059.563 175 174 176
-1117.952 386.251 1057.685 183 169 159
-1117.952 386.751 1058.208 175 164 156
-1117.952 387.251 1059.014 171 163 159
-1117.952 387.751 1059.556 174 170 167
-1117.952 388.251 1059.774 188 186 185
-1117.952 388.751 1059.832 213 214 214
-1117.952 389.251 1059.826 235 237 239
-1117.952 389.751 1059.840 233 237 240
-1117.452 387.251 1057.935 174 161 153
-1117.452 387.751 1058.938 175 166 159
-1117.452 388.251 1059.469 177 168 165
-1117.452 388.751 1059.660 174 167 165
-1117.452 389.251 1059.717 184 180 179
-1117.452 389.751 1059.749 217 216 217
-1116.952 387.751 1057.884 179 168 162
-1116.952 388.251 1058.805 171 160 156
-1116.952 388.751 1059.141 171 161 158
-1116.952 389.251 1059.153 173 163 161
-1116.952 389.751 1058.978 177 171 170
-1116.452 388.251 1057.433 179 167 160
-1116.452 388.751 1058.064 176 166 160
-1116.452 389.251 1058.165 175 163 159
-1116.452 389.751 1058.092 180 170 164
-1118.452 387.751 1059.843 214 220 223
-1118.452 388.251 1059.928 232 239 244
-1118.452 388.751 1059.936 228 237 241
-1118.452 389.251 1059.921 233 241 244
-1118.452 389.751 1059.937 231 239 243
-1125.452 390.251 1060.235 218 235 242
-1125.452 390.751 1060.147 221 238 246
-1125.452 391.251 1060.028 216 234 242
-1124.952 390.251 1060.389 219 234 241
-1124.952 390.751 1060.318 220 235 242
-1124.952 391.251 1060.254 220 235 242
-1124.952 391.751 1060.204 220 235 242
-1124.952 392.251 1060.191 219 233 242
-1124.952 392.751 1060.186 217 233 242
-1124.952 393.251 1060.095 215 233 240
-1124.952 393.751 1060.010 208 224 234
-1124.952 394.251 1059.980 171 185 198
-1124.952 394.751 1059.927 124 137 152
-1124.452 390.251 1060.558 219 235 242
-1124.452 390.751 1060.516 219 235 242
-1124.452 391.251 1060.447 219 235 242
-1124.452 391.751 1060.414 219 235 242
-1124.452 392.251 1060.416 219 234 243
-1124.452 392.751 1060.403 216 234 241
-1124.452 393.251 1060.349 210 230 237
-1124.452 393.751 1060.263 204 225 234
-1124.452 394.251 1060.201 201 220 234
-1124.452 394.751 1060.171 185 204 220
-1125.452 391.751 1059.965 217 235 243
-1125.452 392.251 1059.932 218 233 241
-1125.452 392.751 1059.870 210 221 229
-1125.452 393.251 1059.748 172 179 188
-1128.452 390.251 1057.385 118 113 119
-1127.952 390.251 1058.272 112 111 117
-1127.952 390.751 1057.732 113 111 116
-1127.952 391.251 1057.377 111 108 113
-1127.452 390.251 1059.015 115 118 124
-1127.452 390.751 1058.670 112 112 120
-1127.452 391.251 1058.423 107 106 114
-1127.452 391.751 1058.209 104 103 110
-1127.452 392.251 1057.943 105 102 109
-1127.452 392.751 1057.582 109 106 113
-1127.452 393.251 1057.299 117 111 117
-1126.952 390.251 1059.581 172 180 189
-1126.952 390.751 1059.440 119 124 135
-1126.952 391.251 1059.294 109 112 122
-1126.952 391.751 1059.006 107 110 119
-1126.952 392.251 1058.719 104 103 114
-1126.952 392.751 1058.319 105 104 113
-1126.952 393.251 1058.074 109 108 114
-1126.952 393.751 1057.922 112 110 116
-1126.952 394.251 1057.772 118 113 118
-1126.952 394.751 1057.620 122 119 122
-1126.452 390.251 1059.943 219 233 241
-1126.452 390.751 1059.840 216 227 236
-1126.452 391.251 1059.732 163 173 183
-1126.452 391.751 1059.527 115 122 133
-1126.452 392.251 1059.282 107 111 122
-1126.452 392.751 1058.989 105 107 118
-1126.452 393.251 1058.789 112 112 120
-1126.452 393.751 1058.642 108 107 116
-1126.452 394.251 1058.518 111 110 116
-1126.452 394.751 1058.384 121 120 125
-1125.952 390.251 1060.123 218 234 243
-1125.952 390.751 1060.000 218 233 242
-1125.952 391.251 1059.885 213 227 236
-1125.952 391.751 1059.797 200 214 223
-1125.952 392.251 1059.667 168 176 187
-1125.952 392.751 1059.491 132 140 149
-1125.952 393.251 1059.364 111 117 125
-1125.952 393.751 1059.237 110 113 120
-1125.952 394.251 1059.171 120 121 126
-1125.952 394.751 1059.100 119 119 124
-1125.452 393.751 1059.650 122 127 133
-1125.452 394.251 1059.635 124 125 130
-1125.452 394.751 1059.598 130 129 135
-1119.952 390.251 1060.532 232 240 245
-1119.952 390.751 1060.645 233 240 243
-1119.952 391.251 1060.789 233 240 243
-1119.952 391.751 1060.871 233 241 244
-1119.952 392.251 1060.877 235 240 243
-1119.952 392.751 1060.857 234 240 243
-1119.952 393.251 1060.878 233 241 243
-1119.452 390.251 1060.327 232 240 245
-1119.452 390.751 1060.437 232 239 242
-1119.452 391.251 1060.589 233 240 243
-1119.452 391.751 1060.707 233 241 244
-1119.452 392.251 1060.766 233 241 244
-1119.452 392.751 1060.773 233 241 244
-1119.452 393.251 1060.806 233 241 244
-1119.452 393.751 1060.853 233 240 243
-1119.452 394.251 1060.905 231 239 244
-1119.452 394.751 1060.973 232 240 245
-1118.952 390.251 1060.140 232 240 245
-1118.952 390.751 1060.238 232 239 242
-1118.952 391.251 1060.368 233 241 244
-1118.952 391.751 1060.489 233 241 243
-1118.952 392.251 1060.596 233 241 243
-1118.952 392.751 1060.652 233 241 244
-1118.952 393.251 1060.689 233 241 244
-1118.952 393.751 1060.774 233 239 245
-1118.952 394.251 1060.846 232 240 245
-1118.952 394.751 1060.908 231 239 244
-1123.952 390.251 1060.692 218 235 242
-1123.952 390.751 1060.685 218 235 242
-1123.952 391.251 1060.648 218 235 242
-1123.952 391.751 1060.630 218 235 242
-1123.952 392.251 1060.608 218 235 242
-1123.952 392.751 1060.595 216 234 241
-1123.952 393.251 1060.578 209 230 238
-1123.952 393.751 1060.533 198 221 232
-1123.952 394.251 1060.485 196 220 234
-1123.952 394.751 1060.385 185 211 228
-1123.452 390.251 1060.781 220 235 240
-1123.452 390.751 1060.784 219 235 242
-1123.452 391.251 1060.781 218 235 242
-1123.452 391.751 1060.778 218 235 242
-1123.452 392.251 1060.754 218 235 242
-1123.452 392.751 1060.738 216 234 241
-1123.452 393.251 1060.724 211 232 238
-1123.452 393.751 1060.711 202 226 236
-1123.452 394.251 1060.695 199 225 239
-1123.452 394.751 1060.610 192 220 237
-1122.952 390.251 1060.848 221 234 240
-1122.952 390.751 1060.831 220 234 240
-1122.952 391.251 1060.826 220 235 242
-1122.952 391.751 1060.831 220 235 242
-1122.952 392.251 1060.827 218 235 242
-1122.952 392.751 1060.816 217 234 241
-1122.952 393.251 1060.803 214 233 239
-1122.952 393.751 1060.812 210 231 239
-1122.952 394.251 1060.791 206 230 242
-1122.952 394.751 1060.754 201 227 241
-1122.452 390.251 1060.896 222 233 239
-1122.452 390.751 1060.876 222 233 240
-1122.452 391.251 1060.864 221 233 242
-1122.452 391.751 1060.875 221 234 243
-1122.452 392.251 1060.887 220 235 242
-1122.452 392.751 1060.911 220 234 241
-1122.452 393.251 1060.920 219 234 241
-1122.452 393.751 1060.926 217 234 242
-1122.452 394.251 1060.893 214 234 243
-1122.452 394.751 1060.827 205 228 240
-1121.952 390.251 1060.897 231 239 245
-1121.952 390.751 1060.896 227 236 242
-1121.952 391.251 1060.886 224 234 240
-1121.952 391.751 1060.891 222 233 239
-1121.952 392.251 1060.916 220 234 239
-1121.952 392.751 1060.965 220 234 240
-1121.952 393.251 1060.995 220 234 241
-1121.952 393.751 1060.993 219 234 242
-1121.952 394.251 1060.965 217 235 244
-1121.952 394.751 1060.914 209 231 239
-1121.452 390.251 1060.872 232 240 245
-1121.452 390.751 1060.891 233 241 244
-1121.452 391.251 1060.891 233 240 243
-1121.452 391.751 1060.903 230 237 240
-1121.452 392.251 1060.926 224 235 237
-1121.452 392.751 1060.970 223 234 238
-1121.452 393.251 1061.011 221 234 239
-1121.452 393.751 1061.021 220 235 243
-1121.452 394.251 1061.011 217 234 242
-1121.452 394.751 1060.985 214 233 242
-1120.952 390.251 1060.836 232 240 245
-1120.952 390.751 1060.875 233 240 243
-1120.952 391.251 1060.887 233 241 244
-1120.952 391.751 1060.899 233 240 243
-1120.952 392.251 1060.935 232 241 243
-1120.952 392.751 1060.966 228 238 240
-1120.952 393.251 1060.984 224 235 239
-1120.952 393.751 1061.000 220 234 239
-1120.952 394.251 1061.023 220 235 242
-1120.952 394.751 1061.023 219 233 241
-1120.452 390.251 1060.743 231 239 244
-1120.452 390.751 1060.836 233 240 243
-1120.452 391.251 1060.875 233 240 243
-1120.452 391.751 1060.888 233 241 244
-1120.452 392.251 1060.908 233 240 242
-1120.452 392.751 1060.927 234 241 244
-1120.452 393.251 1060.948 232 241 243
-1120.452 393.751 1060.964 227 238 242
-1120.452 394.251 1061.010 221 233 236
-1120.452 394.751 1061.028 221 233 239
-1119.952 393.751 1060.914 233 241 244
-1119.952 394.251 1060.964 232 241 244
-1119.952 394.751 1061.012 228 237 242
-1116.452 390.251 1058.244 168 158 153
-1116.452 390.751 1058.623 163 158 154
-1116.452 391.251 1059.032 183 181 179
-1116.452 391.751 1059.567 212 212 213
-1116.452 392.251 1059.843 226 232 234
-1116.452 392.751 1059.894 224 233 235
-1115.952 391.251 1057.462 160 150 146
-1115.952 391.751 1058.529 161 155 152
-1115.952 392.251 1059.291 173 173 173
-1115.952 392.751 1059.697 198 201 204
-1115.952 393.251 1059.828 219 230 231
-1115.952 393.751 1059.905 226 237 241
-1115.952 394.251 1059.973 230 240 246
-1115.952 394.751 1060.096 231 238 245
-1115.452 392.251 1057.802 154 146 144
-1115.452 392.751 1058.658 155 149 146
-1115.452 393.251 1059.142 171 170 168
-1115.452 393.751 1059.610 200 200 201
-1115.452 394.251 1059.845 220 225 225
-1115.452 394.751 1059.926 226 234 236
-1114.952 393.251 1057.869 157 148 145
-1114.952 393.751 1058.788 172 168 164
-1114.952 394.251 1059.476 174 173 172
-1114.952 394.751 1059.734 193 195 195
-1114.452 394.251 1058.464 176 168 165
-1114.452 394.751 1059.352 170 164 164
-1113.952 394.751 1058.335 176 163 161
-1118.452 390.251 1060.016 231 241 245
-1118.452 390.751 1060.106 231 239 243
-1118.452 391.251 1060.212 233 240 243
-1118.452 391.751 1060.336 234 240 240
-1118.452 392.251 1060.421 233 241 241
-1118.452 392.751 1060.468 233 241 243
-1118.452 393.251 1060.501 232 239 244
-1118.452 393.751 1060.631 232 240 245
-1118.452 394.251 1060.742 232 240 245
-1118.452 394.751 1060.856 230 240 242
-1117.952 390.251 1059.908 233 241 245
-1117.952 390.751 1059.981 232 240 243
-1117.952 391.251 1060.031 232 240 242
-1117.952 391.751 1060.120 233 241 243
-1117.952 392.251 1060.228 232 243 245
-1117.952 392.751 1060.332 231 240 245
-1117.952 393.251 1060.386 228 239 244
-1117.952 393.751 1060.460 231 240 245
-1117.952 394.251 1060.557 231 239 244
-1117.952 394.751 1060.715 231 241 243
-1117.452 390.251 1059.781 228 233 235
-1117.452 390.751 1059.830 232 237 240
-1117.452 391.251 1059.896 233 241 243
-1117.452 391.751 1059.944 232 241 243
-1117.452 392.251 1060.013 231 241 245
-1117.452 392.751 1060.107 230 240 246
-1117.452 393.251 1060.238 227 240 247
-1117.452 393.751 1060.323 228 239 245
-1117.452 394.251 1060.376 228 239 245
-1117.452 394.751 1060.518 231 240 244
-1116.952 390.251 1058.952 187 184 183
-1116.952 390.751 1059.451 207 208 209
-1116.952 391.251 1059.793 230 233 235
-1116.952 391.751 1059.871 232 238 241
-1116.952 392.251 1059.913 231 239 244
-1116.952 392.751 1059.953 227 237 242
-1116.952 393.251 1060.064 226 239 245
-1116.952 393.751 1060.221 226 239 245
-1116.952 394.251 1060.311 230 240 246
-1116.952 394.751 1060.435 231 239 243
-1116.452 393.251 1059.950 221 233 236
-1116.452 393.751 1060.055 228 239 245
-1116.452 394.251 1060.149 230 240 246
-1116.452 394.751 1060.299 230 237 243
-1125.452 395.251 1059.527 129 125 129
-1125.452 395.751 1059.464 137 132 136
-1125.452 396.251 1059.422 140 135 139
-1125.452 396.751 1059.108 140 135 139
-1125.452 397.251 1058.829 135 133 136
-1125.452 397.751 1058.552 140 138 141
-1124.952 395.251 1059.885 126 132 141
-1124.952 395.751 1059.861 138 139 145
-1124.952 396.251 1059.719 138 138 142
-1124.952 396.751 1059.557 140 139 143
-1124.952 397.251 1059.423 138 137 142
-1124.952 397.751 1059.099 133 134 139
-1124.952 398.251 1058.794 129 130 135
-1124.952 398.751 1058.418 132 127 131
-1124.952 399.251 1057.953 130 127 131
-1124.952 399.751 1057.483 125 122 123
-1124.452 395.251 1060.145 157 174 190
-1124.452 395.751 1060.094 132 143 159
-1124.452 396.251 1059.965 136 142 154
-1124.452 396.751 1059.879 135 134 144
-1124.452 397.251 1059.776 136 131 138
-1124.452 397.751 1059.573 129 123 130
-1124.452 398.251 1059.188 133 128 134
-1124.452 398.751 1058.831 130 128 131
-1124.452 399.251 1058.496 127 126 129
-1124.452 399.751 1058.040 121 121 123
-1124.452 400.251 1057.742 120 119 119
-1126.452 395.251 1058.134 126 124 127
-1126.452 395.751 1057.879 129 125 126
-1126.452 396.251 1057.954 137 131 131
-1126.452 396.751 1057.312 135 127 126
-1125.952 395.251 1059.011 126 122 126
-1125.952 395.751 1058.831 135 130 134
-1125.952 396.251 1058.927 140 135 138
-1125.952 396.751 1058.421 136 131 133
-1125.952 397.251 1058.113 134 129 129
-1125.952 397.751 1057.933 137 131 131
-1125.952 398.251 1057.599 137 130 130
-1125.452 398.251 1058.289 138 134 138
-1125.452 398.751 1057.842 135 130 132
-1125.452 399.251 1057.394 136 130 131
-1119.952 395.251 1061.030 222 234 239
-1119.952 395.751 1061.022 221 233 237
-1119.952 396.251 1061.021 220 233 239
-1119.952 396.751 1061.006 220 234 240
-1119.952 397.251 1060.999 218 234 241
-1119.452 395.251 1061.016 233 244 245
-1119.452 395.751 1061.019 227 236 241
-1119.452 396.251 1061.030 222 233 237
-1119.452 396.751 1061.028 221 233 239
-1119.452 397.251 1061.031 221 234 241
-1119.452 397.751 1060.979 219 234 241
-1119.452 398.251 1060.899 219 234 241
-1119.452 398.751 1060.807 218 235 243
-1119.452 399.251 1060.757 217 234 242
-1119.452 399.751 1060.581 219 233 242
-1119.452 400.251 1060.333 218 233 241
-1118.952 395.251 1060.968 230 239 241
-1118.952 395.751 1061.004 233 243 244
-1118.952 396.251 1061.028 232 240 245
-1118.952 396.751 1061.034 225 237 241
-1118.952 397.251 1061.042 222 234 241
-1118.952 397.751 1060.977 220 234 240
-1118.952 398.251 1060.906 219 233 239
-1118.952 398.751 1060.858 219 235 242
-1118.952 399.251 1060.791 217 234 242
-1118.952 399.751 1060.659 219 233 242
-1118.952 400.251 1060.403 222 236 245
-1123.952 395.251 1060.312 169 196 220
-1123.952 395.751 1060.245 161 184 208
-1123.952 396.251 1060.165 151 168 186
-1123.952 396.751 1060.088 130 139 154
-1123.952 397.251 1059.992 125 125 138
-1123.952 397.751 1059.886 127 123 133
-1123.952 398.251 1059.556 133 126 135
-1123.952 398.751 1059.220 130 128 134
-1123.952 399.251 1059.029 128 128 132
-1123.952 399.751 1058.613 124 123 127
-1123.952 400.251 1058.214 119 119 121
-1123.452 395.251 1060.490 183 213 234
-1123.452 395.751 1060.378 176 208 229
-1123.452 396.251 1060.319 169 196 217
-1123.452 396.751 1060.257 163 185 205
-1123.452 397.251 1060.184 155 173 191
-1123.452 397.751 1060.087 120 133 150
-1123.452 398.251 1059.833 124 133 146
-1123.452 398.751 1059.574 130 130 140
-1123.452 399.251 1059.349 126 124 136
-1123.452 399.751 1059.101 124 123 131
-1123.452 400.251 1058.704 119 117 125
-1122.952 395.251 1060.667 192 224 240
-1122.952 395.751 1060.557 179 212 230
-1122.952 396.251 1060.460 174 207 226
-1122.952 396.751 1060.362 169 201 222
-1122.952 397.251 1060.303 168 197 218
-1122.952 397.751 1060.222 169 198 219
-1122.952 398.251 1060.060 156 180 199
-1122.952 398.751 1059.840 126 136 151
-1122.952 399.251 1059.668 116 122 136
-1122.952 399.751 1059.520 117 120 132
-1122.952 400.251 1059.196 111 110 122
-1122.452 395.251 1060.772 190 219 235
-1122.452 395.751 1060.720 179 211 230
-1122.452 396.251 1060.656 170 205 225
-1122.452 396.751 1060.533 168 202 224
-1122.452 397.251 1060.441 171 205 227
-1122.452 397.751 1060.346 176 208 230
-1122.452 398.251 1060.252 179 209 229
-1122.452 398.751 1060.104 184 209 227
-1122.452 399.251 1059.942 174 194 211
-1122.452 399.751 1059.849 124 135 151
-1122.452 400.251 1059.640 105 112 126
-1121.952 395.251 1060.825 194 220 236
-1121.952 395.751 1060.793 184 214 232
-1121.952 396.251 1060.777 180 210 228
-1121.952 396.751 1060.714 180 210 228
-1121.952 397.251 1060.624 184 213 230
-1121.952 397.751 1060.528 189 217 234
-1121.952 398.251 1060.423 194 222 238
-1121.952 398.751 1060.329 192 221 235
-1121.952 399.251 1060.169 196 220 233
-1121.952 399.751 1060.128 205 223 237
-1121.952 400.251 1060.021 195 209 220
-1121.452 395.251 1060.915 205 228 242
-1121.452 395.751 1060.829 200 226 239
-1121.452 396.251 1060.807 201 227 240
-1121.452 396.751 1060.788 201 227 240
-1121.452 397.251 1060.748 201 227 240
-1121.452 397.751 1060.669 202 228 241
-1121.452 398.251 1060.578 205 228 242
-1121.452 398.751 1060.461 208 233 242
-1121.452 399.251 1060.353 208 232 242
-1121.452 399.751 1060.274 214 233 242
-1121.452 400.251 1060.209 217 234 244
-1120.952 395.251 1061.008 215 233 244
-1120.952 395.751 1060.950 212 233 243
-1120.952 396.251 1060.903 212 233 243
-1120.952 396.751 1060.866 209 233 242
-1120.952 397.251 1060.848 209 232 243
-1120.952 397.751 1060.774 208 231 242
-1120.952 398.251 1060.716 209 231 240
-1120.952 398.751 1060.580 211 232 240
-1120.952 399.251 1060.516 211 232 240
-1120.952 399.751 1060.381 216 234 244
-1120.952 400.251 1060.285 219 236 246
-1120.452 395.251 1061.029 219 233 240
-1120.452 395.751 1061.012 217 234 241
-1120.452 396.251 1060.985 218 234 242
-1120.452 396.751 1060.957 214 233 240
-1120.452 397.251 1060.946 214 233 240
-1120.452 397.751 1060.888 214 233 242
-1120.452 398.251 1060.798 214 233 240
-1120.452 398.751 1060.723 214 233 240
-1120.452 399.251 1060.663 215 233 240
-1120.452 399.751 1060.404 216 233 241
-1120.452 400.251 1060.305 216 233 243
-1119.952 397.751 1060.963 218 234 242
-1119.952 398.251 1060.871 218 234 242
-1119.952 398.751 1060.786 217 233 240
-1119.952 399.251 1060.723 217 233 241
-1119.952 399.751 1060.431 216 233 241
-1119.952 400.251 1060.297 219 236 244
-1114.952 395.251 1059.822 226 232 233
-1114.452 395.251 1059.586 179 179 176
-1114.452 395.751 1059.730 201 201 202
-1114.452 396.251 1059.864 228 232 232
-1114.452 396.751 1059.928 235 239 243
-1114.452 397.251 1060.020 233 239 244
-1114.452 397.751 1060.106 232 238 246
-1114.452 398.251 1060.081 233 237 243
-1114.452 398.751 1059.642 183 183 184
-1114.452 399.251 1058.775 138 135 139
-1114.452 399.751 1058.080 126 120 124
-1114.452 400.251 1057.276 122 117 118
-1113.952 395.251 1059.065 177 168 166
-1113.952 395.751 1059.449 175 168 165
-1113.952 396.251 1059.568 184 179 177
-1113.952 396.751 1059.639 201 200 201
-1113.952 397.251 1059.646 231 232 234
-1113.952 397.751 1059.736 233 235 241
-1113.952 398.251 1059.603 202 204 209
-1113.952 398.751 1058.842 142 135 135
-1113.952 399.251 1058.060 128 120 121
-1113.452 395.751 1058.427 171 159 153
-1113.452 396.251 1058.753 174 163 158
-1113.452 396.751 1058.749 181 171 170
-1113.452 397.251 1058.496 170 164 164
-1113.452 397.751 1058.459 164 160 159
-1113.452 398.251 1058.073 172 168 166
-1118.452 395.251 1060.929 231 239 242
-1118.452 395.751 1060.967 232 239 242
-1118.452 396.251 1060.992 233 240 243
-1118.452 396.751 1061.013 233 240 243
-1118.452 397.251 1061.029 233 240 243
-1118.452 397.751 1060.973 228 236 239
-1118.452 398.251 1060.908 225 233 236
-1118.452 398.751 1060.881 224 233 239
-1118.452 399.251 1060.821 221 233 241
-1118.452 399.751 1060.729 217 234 241
-1118.452 400.251 1060.510 218 233 241
-1117.952 395.251 1060.807 231 239 242
-1117.952 395.751 1060.841 232 239 242
-1117.952 396.251 1060.901 232 239 242
-1117.952 396.751 1060.948 233 240 243
-1117.952 397.251 1060.962 233 240 243
-1117.952 397.751 1060.955 233 240 243
-1117.952 398.251 1060.900 233 240 243
-1117.952 398.751 1060.880 227 236 241
-1117.952 399.251 1060.802 223 235 241
-1117.952 399.751 1060.661 222 234 242
-1117.952 400.251 1060.462 186 197 206
-1117.452 395.251 1060.621 231 239 242
-1117.452 395.751 1060.689 232 239 242
-1117.452 396.251 1060.765 233 240 243
-1117.452 396.751 1060.816 232 239 242
-1117.452 397.251 1060.867 233 240 243
-1117.452 397.751 1060.873 232 239 242
-1117.452 398.251 1060.810 233 240 243
-1117.452 398.751 1060.797 233 239 245
-1117.452 399.251 1060.746 231 237 245
-1117.452 399.751 1060.576 222 232 240
-1117.452 400.251 1060.033 170 177 187
-1116.952 395.251 1060.501 231 238 241
-1116.952 395.751 1060.564 233 240 243
-1116.952 396.251 1060.648 233 240 243
-1116.952 396.751 1060.689 232 239 242
-1116.952 397.251 1060.756 233 240 243
-1116.952 397.751 1060.778 233 240 243
-1116.952 398.251 1060.738 233 240 243
-1116.952 398.751 1060.691 233 239 244
-1116.952 399.251 1060.612 232 238 246
-1116.952 399.751 1060.406 213 217 226
-1116.952 400.251 1059.718 148 152 163
-1116.452 395.251 1060.392 231 238 242
-1116.452 395.751 1060.454 233 240 243
-1116.452 396.251 1060.462 233 240 243
-1116.452 396.751 1060.535 232 239 242
-1116.452 397.251 1060.573 233 240 243
-1116.452 397.751 1060.581 233 240 243
-1116.452 398.251 1060.569 233 240 243
-1116.452 398.751 1060.564 233 240 244
-1116.452 399.251 1060.436 237 243 248
-1116.452 399.751 1060.049 179 184 192
-1116.452 400.251 1059.584 139 142 151
-1115.952 395.251 1060.239 232 238 243
-1115.952 395.751 1060.309 233 240 243
-1115.952 396.251 1060.290 233 240 243
-1115.952 396.751 1060.361 232 239 242
-1115.952 397.251 1060.425 233 240 243
-1115.952 397.751 1060.436 233 240 243
-1115.952 398.251 1060.434 233 240 243
-1115.952 398.751 1060.415 231 239 242
-1115.952 399.251 1060.175 218 225 231
-1115.952 399.751 1059.875 151 155 164
-1115.952 400.251 1059.533 119 122 131
-1115.452 395.251 1060.007 231 237 242
-1115.452 395.751 1060.106 232 240 245
-1115.452 396.251 1060.128 228 238 240
-1115.452 396.751 1060.192 233 243 244
-1115.452 397.251 1060.267 232 241 242
-1115.452 397.751 1060.333 233 239 241
-1115.452 398.251 1060.353 232 239 242
-1115.452 398.751 1060.272 233 240 247
-1115.452 399.251 1059.901 180 185 191
-1115.452 399.751 1059.560 140 141 149
-1115.452 400.251 1059.190 115 113 120
-1114.952 395.751 1059.917 233 238 241
-1114.952 396.251 1059.995 233 240 243
-1114.952 396.751 1060.083 232 241 243
-1114.952 397.251 1060.184 230 239 241
-1114.952 397.751 1060.234 233 240 243
-1114.952 398.251 1060.238 233 240 243
-1114.952 398.751 1059.892 219 225 229
-1114.952 399.251 1059.239 157 159 165
-1114.952 399.751 1058.798 134 133 138
-1114.952 400.251 1058.252 112 109 116
-1124.452 400.751 1057.326 122 119 119
-1120.952 400.751 1060.192 219 233 244
-1120.952 401.251 1059.925 221 235 246
-1120.952 401.751 1059.742 195 204 215
-1120.952 402.251 1059.269 129 132 140
-1120.952 402.751 1058.552 97 95 102
-1120.952 403.251 1057.783 102 100 106
-1120.452 400.751 1060.203 217 234 244
-1120.452 401.251 1059.957 219 235 248
-1120.452 401.751 1059.724 176 186 197
-1120.452 402.251 1059.102 119 123 129
-1120.452 402.751 1058.210 94 94 100
-1120.452 403.251 1057.605 99 99 107
-1119.952 400.751 1060.116 217 234 244
-1119.952 401.251 1059.833 208 225 236
-1119.952 401.751 1059.434 144 154 165
-1119.952 402.251 1058.973 123 127 135
-1119.952 402.751 1057.866 96 97 103
-1119.452 400.751 1060.070 221 235 244
-1119.452 401.251 1059.738 170 184 193
-1119.452 401.751 1059.116 134 145 155
-1119.452 402.251 1058.185 103 106 116
-1119.452 402.751 1057.347 103 101 108
-1118.952 400.751 1060.126 200 214 223
-1118.952 401.251 1059.637 139 152 161
-1118.952 401.751 1058.589 131 139 149
-1118.952 402.251 1057.748 102 105 113
-1121.452 400.751 1060.052 222 235 244
-1123.952 400.751 1057.868 113 112 116
-1123.952 401.251 1057.624 116 113 117
-1123.952 401.751 1057.343 121 117 119
-1123.452 400.751 1058.302 115 111 118
-1123.452 401.251 1058.139 109 106 113
-1123.452 401.751 1058.027 115 109 116
-1123.452 402.251 1057.822 121 117 120
-1123.452 402.751 1057.409 131 126 129
-1122.952 400.751 1058.821 106 104 114
-1122.952 401.251 1058.604 105 103 112
-1122.952 401.751 1058.403 107 104 111
-1122.952 402.251 1058.215 110 107 114
-1122.952 402.751 1057.815 122 119 123
-1122.452 400.751 1059.433 101 104 116
-1122.452 401.251 1059.061 98 101 108
-1122.452 401.751 1058.862 102 101 109
-1122.452 402.251 1058.591 104 103 110
-1122.452 402.751 1058.113 113 109 116
-1122.452 403.251 1057.562 120 115 118
-1121.952 400.751 1059.792 147 156 166
-1121.952 401.251 1059.563 110 119 127
-1121.952 401.751 1059.327 100 103 114
-1121.952 402.251 1059.068 107 106 114
-1121.952 402.751 1058.486 108 104 110
-1121.952 403.251 1057.654 112 107 113
-1121.452 401.251 1059.823 203 213 223
-1121.452 401.751 1059.641 149 154 167
-1121.452 402.251 1059.326 117 117 126
-1121.452 402.751 1058.655 107 103 110
-1121.452 403.251 1057.655 104 101 108
-1118.452 400.751 1060.159 168 176 185
-1118.452 401.251 1059.593 132 139 147
-1118.452 401.751 1058.297 135 135 141
-1118.452 402.251 1057.266 110 110 118
-1117.952 400.751 1059.944 137 145 154
-1117.952 401.251 1058.791 125 129 138
-1117.952 401.751 1057.978 131 131 137
-1117.452 400.751 1058.883 118 121 131
-1117.452 401.251 1058.089 110 110 120
-1117.452 401.751 1057.394 120 119 126
-1116.952 400.751 1058.452 126 127 137
-1116.952 401.251 1057.915 115 113 123
-1116.452 400.751 1058.877 127 127 137
-1116.452 401.251 1057.614 119 119 126
-1115.952 400.751 1059.038 119 119 128
-1115.952 401.251 1057.597 125 124 132
-1115.452 400.751 1058.251 111 110 116
-1115.452 401.251 1057.510 118 117 122
-1114.952 400.751 1057.293 111 109 114
