-1078.452 379.251 1054.759 215 185 157
-1078.452 379.751 1054.668 222 192 164
-1078.452 380.251 1054.614 225 195 167
-1078.452 380.751 1054.549 225 195 167
-1078.452 381.251 1054.524 225 195 167
-1078.452 381.751 1054.524 222 192 164
-1078.452 382.251 1054.535 223 193 165
-1078.452 382.751 1054.560 224 194 166
-1078.452 383.251 1054.584 225 195 167
-1078.452 383.751 1054.600 225 195 167
-1078.452 384.251 1054.606 224 194 166
-1077.952 379.251 1054.803 210 180 153
-1077.952 379.751 1054.731 219 189 161
-1077.952 380.251 1054.664 224 194 166
-1077.952 380.751 1054.587 227 197 170
-1077.952 381.251 1054.539 227 197 170
-1077.952 381.751 1054.526 221 191 163
-1077.952 382.251 1054.542 222 192 164
-1077.952 382.751 1054.552 225 195 167
-1077.952 383.251 1054.574 225 195 167
-1077.952 383.751 1054.589 226 196 168
-1077.952 384.251 1054.608 226 196 168
-1077.452 379.251 1054.849 210 179 152
-1077.452 379.751 1054.782 214 184 156
-1077.452 380.251 1054.708 220 190 162
-1077.452 380.751 1054.638 226 196 168
-1077.452 381.251 1054.577 230 199 171
-1077.452 381.751 1054.539 222 192 164
-1077.452 382.251 1054.552 222 192 164
-1077.452 382.751 1054.552 226 196 168
-1077.452 383.251 1054.573 224 194 166
-1077.452 383.751 1054.585 224 194 166
-1077.452 384.251 1054.611 225 195 167
-1076.952 381.751 1054.593 225 198 171
-1076.952 382.251 1054.586 223 196 170
-1076.952 382.751 1054.576 225 195 167
-1076.952 383.251 1054.586 225 195 167
-1076.952 383.751 1054.591 225 195 167
-1076.952 384.251 1054.614 224 194 166
-1071.952 379.251 1056.316 204 170 144
-1071.952 379.751 1056.283 192 158 133
-1071.952 380.251 1056.205 186 151 129
-1071.952 380.751 1056.147 183 147 128
-1071.952 381.251 1056.042 175 142 123
-1071.452 379.251 1056.448 208 174 146
-1071.452 379.751 1056.422 203 168 142
-1071.452 380.251 1056.357 195 160 138
-1071.452 380.751 1056.296 181 146 126
-1071.452 381.251 1056.195 180 145 126
-1071.452 381.751 1056.104 179 145 126
-1071.452 382.251 1056.057 177 144 125
-1071.452 382.751 1055.998 188 155 135
-1071.452 383.251 1055.854 193 161 140
-1071.452 383.751 1055.682 196 164 141
-1071.452 384.251 1055.536 196 162 137
-1070.952 379.251 1056.552 222 187 159
-1070.952 379.751 1056.520 207 171 145
-1070.952 380.251 1056.494 197 163 138
-1070.952 380.751 1056.451 194 159 138
-1070.952 381.251 1056.372 183 147 128
-1070.952 381.751 1056.274 183 149 129
-1070.952 382.251 1056.177 170 137 118
-1070.952 382.751 1056.143 181 148 129
-1070.952 383.251 1056.022 185 153 132
-1070.952 383.751 1055.855 193 158 136
-1070.952 384.251 1055.730 195 161 136
-1075.452 379.251 1055.343 185 153 130
-1075.452 379.751 1055.219 196 164 141
-1075.452 380.251 1055.118 204 172 149
-1075.452 380.751 1054.979 208 177 153
-1075.452 381.251 1054.849 213 184 157
-1075.452 381.751 1054.786 215 185 159
-1075.452 382.251 1054.738 221 191 165
-1075.452 382.751 1054.695 228 198 171
-1075.452 383.251 1054.688 228 198 171
-1075.452 383.751 1054.696 228 198 171
-1075.452 384.251 1054.708 228 198 171
-1074.952 379.251 1055.475 184 152 131
-1074.952 379.751 1055.353 189 157 136
-1074.952 380.251 1055.269 195 163 140
-1074.952 380.751 1055.177 204 172 149
-1074.952 381.251 1055.016 208 179 152
-1074.952 381.751 1054.916 207 177 151
-1074.952 382.251 1054.814 212 183 156
-1074.952 382.751 1054.774 219 189 161
-1074.952 383.251 1054.753 228 198 171
-1074.952 383.751 1054.750 230 199 171
-1074.952 384.251 1054.742 228 198 171
-1074.452 379.251 1055.601 180 145 126
-1074.452 379.751 1055.495 174 141 120
-1074.452 380.251 1055.423 188 156 135
-1074.452 380.751 1055.321 200 168 145
-1074.452 381.251 1055.190 203 173 147
-1074.452 381.751 1055.076 205 175 149
-1074.452 382.251 1054.980 211 181 153
-1074.452 382.751 1054.906 212 183 154
-1074.452 383.251 1054.828 221 191 163
-1074.452 383.751 1054.811 226 196 168
-1074.452 384.251 1054.781 227 197 170
-1073.952 379.251 1055.744 184 148 129
-1073.952 379.751 1055.664 168 135 116
-1073.952 380.251 1055.599 184 151 131
-1073.952 380.751 1055.487 191 159 139
-1073.952 381.251 1055.351 197 167 144
-1073.952 381.751 1055.246 202 172 147
-1073.952 382.251 1055.190 210 180 153
-1073.952 382.751 1055.071 215 184 157
-1073.952 383.251 1054.949 216 185 159
-1073.952 383.751 1054.885 218 188 160
-1073.952 384.251 1054.822 224 194 166
-1073.452 379.251 1055.887 193 158 138
-1073.452 379.751 1055.838 162 129 110
-1073.452 380.251 1055.798 180 147 128
-1073.452 380.751 1055.697 183 149 130
-1073.452 381.251 1055.527 194 163 142
-1073.452 381.751 1055.395 198 168 144
-1073.452 382.251 1055.323 199 169 145
-1073.452 382.751 1055.224 207 175 150
-1073.452 383.251 1055.101 212 180 155
-1073.452 383.751 1055.003 214 183 157
-1073.452 384.251 1054.901 217 187 159
-1072.952 379.251 1056.036 192 157 136
-1072.952 379.751 1055.953 174 139 119
-1072.952 380.251 1055.917 174 141 122
-1072.952 380.751 1055.854 179 146 127
-1072.952 381.251 1055.711 190 158 137
-1072.952 381.751 1055.558 194 163 142
-1072.952 382.251 1055.467 193 163 139
-1072.952 382.751 1055.369 199 168 142
-1072.952 383.251 1055.266 207 175 150
-1072.952 383.751 1055.160 212 180 155
-1072.952 384.251 1055.031 217 186 158
-1072.452 379.251 1056.165 203 169 146
-1072.452 379.751 1056.085 186 151 129
-1072.452 380.251 1056.030 167 131 111
-1072.452 380.751 1055.973 185 152 132
-1072.452 381.251 1055.885 181 148 129
-1072.452 381.751 1055.770 181 149 128
-1072.452 382.251 1055.675 190 158 137
-1072.452 382.751 1055.516 196 164 141
-1072.452 383.251 1055.401 202 170 147
-1072.452 383.751 1055.318 206 174 149
-1072.452 384.251 1055.201 210 179 153
-1071.952 381.751 1055.956 173 140 120
-1071.952 382.251 1055.887 185 153 132
-1071.952 382.751 1055.752 190 158 136
-1071.952 383.251 1055.599 196 164 141
-1071.952 383.751 1055.478 199 168 143
-1071.952 384.251 1055.339 200 168 143
-1068.452 379.251 1057.012 215 180 152
-1068.452 379.751 1057.051 213 179 150
-1068.452 380.251 1057.102 212 177 149
-1068.452 380.751 1057.118 216 181 154
-1068.452 381.251 1057.097 222 186 160
-1068.452 381.751 1057.092 221 185 159
-1068.452 382.251 1057.068 212 176 150
-1067.952 379.251 1057.042 211 176 148
-1067.952 379.751 1057.114 212 177 149
-1067.952 380.251 1057.161 214 179 151
-1067.952 380.751 1057.165 213 179 150
-1067.952 381.251 1057.148 216 181 153
-1067.952 381.751 1057.147 221 186 158
-1067.952 382.251 1057.148 222 187 159
-1067.952 382.751 1057.151 220 184 158
-1067.952 383.251 1057.151 207 171 146
-1067.952 383.751 1057.120 202 167 142
-1067.952 384.251 1057.009 195 159 135
-1067.452 379.251 1057.166 215 180 150
-1067.452 379.751 1057.217 207 172 142
-1067.452 380.251 1057.216 208 173 143
-1067.452 380.751 1057.238 213 179 148
-1067.452 381.251 1057.233 208 173 143
-1067.452 381.751 1057.248 213 179 148
-1067.452 382.251 1057.240 212 177 148
-1067.452 382.751 1057.264 219 184 157
-1067.452 384.251 1057.241 207 171 145
-1070.452 379.251 1056.701 225 190 162
-1070.452 379.751 1056.690 217 183 154
-1070.452 380.251 1056.620 202 167 140
-1070.452 380.751 1056.594 198 162 137
-1070.452 381.251 1056.552 194 158 136
-1070.452 381.751 1056.492 186 150 128
-1070.452 382.251 1056.390 181 145 123
-1070.452 382.751 1056.328 174 139 119
-1070.452 383.251 1056.219 184 148 128
-1070.452 383.751 1056.098 191 156 136
-1070.452 384.251 1055.965 191 156 134
-1069.952 379.251 1056.839 219 184 156
-1069.952 379.751 1056.839 222 187 159
-1069.952 380.251 1056.781 216 180 154
-1069.952 380.751 1056.750 202 167 140
-1069.952 381.251 1056.751 199 163 138
-1069.952 381.751 1056.737 191 155 131
-1069.952 382.251 1056.697 180 144 122
-1069.952 382.751 1056.613 177 142 122
-1069.952 383.251 1056.470 179 144 123
-1069.952 383.751 1056.354 184 149 127
-1069.952 384.251 1056.223 186 151 129
-1069.452 379.251 1056.905 206 171 143
-1069.452 379.751 1056.913 216 181 153
-1069.452 380.251 1056.908 222 187 159
-1069.452 380.751 1056.876 215 179 153
-1069.452 381.251 1056.879 203 168 143
-1069.452 381.751 1056.870 193 157 133
-1069.452 382.251 1056.854 190 154 130
-1069.452 382.751 1056.788 179 144 122
-1069.452 383.251 1056.696 185 150 128
-1069.452 383.751 1056.606 186 151 129
-1069.452 384.251 1056.471 185 150 128
-1068.952 379.251 1056.963 213 179 150
-1068.952 379.751 1056.988 211 176 148
-1068.952 380.251 1057.012 218 184 155
-1068.952 380.751 1057.013 223 187 161
-1068.952 381.251 1057.012 217 181 155
-1068.952 381.751 1057.000 203 168 141
-1068.952 382.251 1056.964 198 162 137
-1068.952 382.751 1056.889 191 155 131
-1068.952 383.251 1056.835 185 149 125
-1068.952 383.751 1056.773 189 153 131
-1068.952 384.251 1056.673 190 154 132
-1068.452 382.751 1057.022 205 169 145
-1068.452 383.251 1056.970 194 158 134
-1068.452 383.751 1056.885 192 156 132
-1068.452 384.251 1056.821 191 155 131
-1082.452 384.751 1054.722 226 199 172
-1082.452 385.251 1054.693 224 197 171
-1082.452 385.751 1054.651 230 199 171
-1082.452 386.251 1054.638 231 200 172
-1082.452 386.751 1054.644 228 199 173
-1081.952 384.751 1054.734 227 198 171
-1081.952 385.251 1054.692 225 197 170
-1081.952 385.751 1054.648 225 195 167
-1081.952 386.251 1054.644 225 195 167
-1081.952 386.751 1054.659 228 199 173
-1081.952 387.251 1054.655 231 203 176
-1081.952 387.751 1054.628 232 204 177
-1081.952 388.251 1054.621 233 205 181
-1081.952 388.751 1054.625 234 208 182
-1081.952 389.251 1054.625 234 207 180
-1081.952 389.751 1054.610 226 199 172
-1081.452 384.751 1054.730 230 199 171
-1081.452 385.251 1054.681 228 198 171
-1081.452 385.751 1054.645 226 196 168
-1081.452 386.251 1054.645 225 195 167
-1081.452 386.751 1054.662 225 197 171
-1081.452 387.251 1054.662 228 201 174
-1081.452 387.751 1054.638 232 204 177
-1081.452 388.251 1054.635 235 207 183
-1081.452 388.751 1054.637 237 211 186
-1081.452 389.251 1054.635 236 208 184
-1081.452 389.751 1054.621 230 202 175
-1084.952 384.751 1054.639 221 194 167
-1084.452 384.751 1054.646 228 201 174
-1084.452 385.251 1054.648 225 198 171
-1084.452 385.751 1054.653 227 197 171
-1083.952 384.751 1054.661 230 202 175
-1083.952 385.251 1054.651 226 199 172
-1083.952 385.751 1054.645 228 198 172
-1083.952 386.251 1054.646 227 197 171
-1083.952 386.751 1054.652 225 195 170
-1083.952 387.251 1054.642 225 195 170
-1083.452 384.751 1054.680 230 202 175
-1083.452 385.251 1054.667 228 201 174
-1083.452 385.751 1054.647 228 198 171
-1083.452 386.251 1054.632 227 197 170
-1083.452 386.751 1054.635 228 199 173
-1083.452 387.251 1054.629 225 198 171
-1083.452 387.751 1054.623 227 200 173
-1083.452 388.251 1054.618 228 200 176
-1082.952 384.751 1054.700 225 198 171
-1082.952 385.251 1054.678 230 202 175
-1082.952 385.751 1054.648 233 202 174
-1082.952 386.251 1054.631 233 202 174
-1082.952 386.751 1054.634 228 199 173
-1082.952 387.251 1054.627 230 202 175
-1082.952 387.751 1054.617 230 202 175
-1082.952 388.251 1054.614 228 200 176
-1082.952 388.751 1054.604 227 200 174
-1082.952 389.251 1054.602 224 197 171
-1082.452 387.251 1054.637 228 201 174
-1082.452 387.751 1054.619 231 203 176
-1082.452 388.251 1054.614 233 204 180
-1082.452 388.751 1054.609 233 205 179
-1082.452 389.251 1054.609 230 202 175
-1082.452 389.751 1054.609 223 196 170
-1076.952 384.751 1054.648 224 194 166
-1076.952 385.251 1054.675 226 196 168
-1076.952 385.751 1054.691 224 193 164
-1076.952 386.251 1054.715 224 193 164
-1076.952 386.751 1054.748 224 193 164
-1076.452 384.751 1054.669 222 192 164
-1076.452 385.251 1054.683 224 194 166
-1076.452 385.751 1054.700 225 194 165
-1076.452 386.251 1054.724 224 193 164
-1076.452 386.751 1054.739 224 193 164
-1076.452 387.251 1054.744 222 191 162
-1076.452 387.751 1054.741 224 193 164
-1076.452 388.251 1054.736 225 194 165
-1076.452 388.751 1054.724 225 194 166
-1076.452 389.251 1054.710 222 192 164
-1076.452 389.751 1054.687 221 191 163
-1075.952 384.751 1054.692 223 193 165
-1075.952 385.251 1054.687 223 193 165
-1075.952 385.751 1054.697 224 193 164
-1075.952 386.251 1054.711 223 192 163
-1075.952 386.751 1054.720 224 193 164
-1075.952 387.251 1054.724 223 192 163
-1075.952 387.751 1054.722 224 193 164
-1075.952 388.251 1054.725 224 193 164
-1075.952 388.751 1054.713 227 197 168
-1075.952 389.251 1054.695 226 196 168
-1075.952 389.751 1054.673 222 192 164
-1080.952 384.751 1054.721 227 197 170
-1080.952 385.251 1054.684 232 201 173
-1080.952 385.751 1054.661 230 199 171
-1080.952 386.251 1054.652 227 197 170
-1080.952 386.751 1054.658 226 198 171
-1080.952 387.251 1054.662 226 199 172
-1080.952 387.751 1054.650 230 202 175
-1080.952 388.251 1054.653 233 205 181
-1080.952 388.751 1054.651 236 210 185
-1080.952 389.251 1054.644 234 208 183
-1080.952 389.751 1054.636 233 204 180
-1080.452 384.751 1054.709 221 191 163
-1080.452 385.251 1054.697 225 195 167
-1080.452 385.751 1054.684 231 200 172
-1080.452 386.251 1054.671 228 198 171
-1080.452 386.751 1054.663 226 197 171
-1080.452 387.251 1054.664 226 198 171
-1080.452 387.751 1054.670 225 197 171
-1080.452 388.251 1054.675 227 200 173
-1080.452 388.751 1054.671 233 206 180
-1080.452 389.251 1054.656 233 206 181
-1080.452 389.751 1054.646 233 206 181
-1079.952 384.751 1054.677 221 191 163
-1079.952 385.251 1054.692 220 190 162
-1079.952 385.751 1054.705 221 191 163
-1079.952 386.251 1054.696 226 196 168
-1079.952 386.751 1054.683 228 198 171
-1079.952 387.251 1054.674 225 195 167
-1079.952 387.751 1054.682 226 196 168
-1079.952 388.251 1054.686 226 196 168
-1079.952 388.751 1054.684 227 199 171
-1079.952 389.251 1054.672 231 203 176
-1079.952 389.751 1054.659 232 204 177
-1079.452 384.751 1054.632 221 191 163
-1079.452 385.251 1054.664 220 190 162
-1079.452 385.751 1054.703 220 190 162
-1079.452 386.251 1054.708 221 191 163
-1079.452 386.751 1054.705 223 193 165
-1079.452 387.251 1054.698 225 195 167
-1079.452 387.751 1054.699 225 195 167
-1079.452 388.251 1054.700 224 194 166
-1079.452 388.751 1054.695 226 197 170
-1079.452 389.251 1054.680 224 197 171
-1079.452 389.751 1054.668 225 198 171
-1078.952 384.751 1054.610 222 192 164
-1078.952 385.251 1054.640 223 193 165
-1078.952 385.751 1054.681 223 193 165
-1078.952 386.251 1054.703 222 192 164
-1078.952 386.751 1054.722 220 190 162
-1078.952 387.251 1054.729 220 190 162
-1078.952 387.751 1054.733 225 195 167
-1078.952 388.251 1054.736 226 196 168
-1078.952 388.751 1054.726 223 195 166
-1078.952 389.251 1054.692 223 196 168
-1078.952 389.751 1054.672 220 193 166
-1078.452 384.751 1054.616 224 194 166
-1078.452 385.251 1054.641 224 194 166
-1078.452 385.751 1054.667 223 194 164
-1078.452 386.251 1054.692 222 193 163
-1078.452 386.751 1054.727 222 193 163
-1078.452 387.251 1054.748 220 191 161
-1078.452 387.751 1054.764 221 192 162
-1078.452 388.251 1054.772 224 195 165
-1078.452 388.751 1054.758 226 197 168
-1078.452 389.251 1054.716 228 198 171
-1078.452 389.751 1054.681 224 194 166
-1077.952 384.751 1054.631 225 195 167
-1077.952 385.251 1054.656 225 195 167
-1077.952 385.751 1054.669 225 196 166
-1077.952 386.251 1054.691 222 193 163
-1077.952 386.751 1054.731 222 193 163
-1077.952 387.251 1054.759 222 193 163
-1077.952 387.751 1054.780 218 189 159
-1077.952 388.251 1054.786 218 189 159
-1077.952 388.751 1054.770 225 195 166
-1077.952 389.251 1054.737 231 200 172
-1077.952 389.751 1054.698 230 199 171
-1077.452 384.751 1054.642 227 197 170
-1077.452 385.251 1054.670 225 195 167
-1077.452 385.751 1054.681 223 194 164
-1077.452 386.251 1054.701 222 193 163
-1077.452 386.751 1054.741 224 195 165
-1077.452 387.251 1054.769 225 196 166
-1077.452 387.751 1054.781 224 195 165
-1077.452 388.251 1054.777 220 191 161
-1077.452 388.751 1054.762 221 191 162
-1077.452 389.251 1054.740 226 196 168
-1077.452 389.751 1054.708 231 200 172
-1076.952 387.251 1054.766 225 194 165
-1076.952 387.751 1054.766 226 195 166
-1076.952 388.251 1054.755 225 194 165
-1076.952 388.751 1054.742 225 194 166
-1076.952 389.251 1054.731 222 192 164
-1076.952 389.751 1054.703 224 194 166
-1071.952 384.751 1055.230 210 177 150
-1071.952 385.251 1055.144 215 183 154
-1071.952 385.751 1055.038 213 183 153
-1071.952 386.251 1054.937 213 183 153
-1071.952 386.751 1054.858 219 188 159
-1071.452 384.751 1055.376 205 171 144
-1071.452 385.251 1055.290 210 176 148
-1071.452 385.751 1055.227 211 177 149
-1071.452 386.251 1055.113 211 177 149
-1071.452 386.751 1054.966 216 183 154
-1071.452 387.251 1054.879 219 185 157
-1071.452 387.751 1054.831 220 186 158
-1071.452 388.251 1054.787 221 187 159
-1071.452 388.751 1054.758 227 193 165
-1071.452 389.251 1054.742 225 191 163
-1071.452 389.751 1054.731 222 188 160
-1070.952 384.751 1055.576 198 163 137
-1070.952 385.251 1055.437 203 168 141
-1070.952 385.751 1055.350 205 170 142
-1070.952 386.251 1055.245 207 172 144
-1070.952 386.751 1055.135 212 177 149
-1070.952 387.251 1055.021 218 184 155
-1070.952 387.751 1054.924 214 179 151
-1070.952 388.251 1054.847 214 179 151
-1070.952 388.751 1054.808 223 189 159
-1070.952 389.251 1054.775 221 187 159
-1070.952 389.751 1054.763 222 188 160
-1075.452 384.751 1054.695 225 195 167
-1075.452 385.251 1054.677 223 193 165
-1075.452 385.751 1054.675 223 192 163
-1075.452 386.251 1054.674 222 191 162
-1075.452 386.751 1054.690 221 190 161
-1075.452 387.251 1054.708 224 193 164
-1075.452 387.751 1054.715 226 195 166
-1075.452 388.251 1054.725 224 193 164
-1075.452 388.751 1054.727 227 196 168
-1075.452 389.251 1054.728 227 197 170
-1075.452 389.751 1054.709 226 196 168
-1074.952 384.751 1054.709 226 196 168
-1074.952 385.251 1054.678 223 193 165
-1074.952 385.751 1054.661 223 192 163
-1074.952 386.251 1054.646 222 191 162
-1074.952 386.751 1054.653 223 192 163
-1074.952 387.251 1054.675 225 194 165
-1074.952 387.751 1054.703 227 196 167
-1074.952 388.251 1054.725 225 194 165
-1074.952 388.751 1054.747 225 195 166
-1074.952 389.251 1054.772 223 193 165
-1074.952 389.751 1054.764 224 194 166
-1074.452 384.751 1054.745 230 199 171
-1074.452 385.251 1054.696 227 197 170
-1074.452 385.751 1054.656 225 194 165
-1074.452 386.251 1054.634 223 192 163
-1074.452 386.751 1054.625 223 192 163
-1074.452 387.251 1054.639 225 194 165
-1074.452 387.751 1054.687 226 195 166
-1074.452 388.251 1054.730 226 195 166
-1074.452 388.751 1054.763 226 195 166
-1074.452 389.251 1054.792 225 195 167
-1074.452 389.751 1054.788 224 194 166
-1073.952 384.751 1054.767 227 197 170
-1073.952 385.251 1054.712 226 198 170
-1073.952 385.751 1054.667 227 196 167
-1073.952 386.251 1054.643 223 192 163
-1073.952 386.751 1054.626 222 191 162
-1073.952 387.251 1054.630 223 192 163
-1073.952 387.751 1054.671 225 194 165
-1073.952 388.251 1054.717 225 194 165
-1073.952 388.751 1054.764 225 194 166
-1073.952 389.251 1054.790 225 194 166
-1073.952 389.751 1054.777 225 195 167
-1073.452 384.751 1054.816 222 192 164
-1073.452 385.251 1054.748 225 195 167
-1073.452 385.751 1054.698 225 194 165
-1073.452 386.251 1054.673 222 191 162
-1073.452 386.751 1054.653 222 191 162
-1073.452 387.251 1054.647 222 191 162
-1073.452 387.751 1054.668 224 193 164
-1073.452 388.251 1054.705 223 192 163
-1073.452 388.751 1054.750 224 193 164
-1073.452 389.251 1054.769 226 195 167
-1073.452 389.751 1054.748 225 195 167
-1072.952 384.751 1054.919 218 188 160
-1072.952 385.251 1054.822 221 191 163
-1072.952 385.751 1054.754 224 193 164
-1072.952 386.251 1054.716 224 193 164
-1072.952 386.751 1054.702 225 194 165
-1072.952 387.251 1054.685 223 192 163
-1072.952 387.751 1054.687 224 193 164
-1072.952 388.251 1054.704 222 191 162
-1072.952 388.751 1054.728 223 192 164
-1072.952 389.251 1054.740 225 194 166
-1072.952 389.751 1054.713 225 194 166
-1072.452 384.751 1055.067 213 183 154
-1072.452 385.251 1054.966 215 184 156
-1072.452 385.751 1054.850 211 183 152
-1072.452 386.251 1054.791 218 189 159
-1072.452 386.751 1054.779 225 196 166
-1072.452 387.251 1054.745 224 194 165
-1072.452 387.751 1054.719 225 195 165
-1072.452 388.251 1054.710 224 194 165
-1072.452 388.751 1054.713 224 194 164
-1072.452 389.251 1054.724 222 191 162
-1072.452 389.751 1054.706 225 194 166
-1071.952 387.251 1054.818 222 191 162
-1071.952 387.751 1054.772 223 192 163
-1071.952 388.251 1054.738 223 192 163
-1071.952 388.751 1054.719 225 193 165
-1071.952 389.251 1054.721 224 191 163
-1071.952 389.751 1054.715 219 188 159
-1066.952 385.251 1057.200 202 167 140
-1066.952 385.751 1057.125 199 163 139
-1066.952 386.251 1057.081 192 156 132
-1066.952 386.751 1056.962 179 143 119
-1066.952 387.251 1056.778 185 149 125
-1066.952 387.751 1056.623 198 162 138
-1066.952 388.251 1056.426 189 153 129
-1066.952 388.751 1056.196 183 146 122
-1066.952 389.251 1055.858 185 149 127
-1066.452 386.751 1057.224 197 161 136
-1066.452 387.251 1056.992 193 157 133
-1066.452 387.751 1056.771 193 157 135
-1066.452 388.251 1056.585 190 154 132
-1066.452 388.751 1056.328 186 150 129
-1066.452 389.251 1055.980 179 142 120
-1066.452 389.751 1055.677 184 148 126
-1065.952 387.251 1057.155 196 160 136
-1065.952 387.751 1056.892 183 146 124
-1065.952 388.251 1056.729 180 143 123
-1065.952 388.751 1056.443 179 141 122
-1065.952 389.251 1056.136 172 135 116
-1065.952 389.751 1055.878 186 149 130
-1065.452 387.751 1057.016 184 146 127
-1065.452 388.251 1056.795 172 135 117
-1065.452 388.751 1056.538 162 125 107
-1065.452 389.251 1056.235 157 120 103
-1065.452 389.751 1055.955 184 147 128
-1070.452 384.751 1055.839 194 159 137
-1070.452 385.251 1055.701 195 161 136
-1070.452 385.751 1055.561 204 168 141
-1070.452 386.251 1055.393 205 168 142
-1070.452 386.751 1055.336 208 171 143
-1070.452 387.251 1055.254 211 174 145
-1070.452 387.751 1055.125 212 177 149
-1070.452 388.251 1055.009 214 179 152
-1070.452 388.751 1054.911 219 184 155
-1070.452 389.251 1054.836 218 184 153
-1070.452 389.751 1054.820 220 185 155
-1069.952 384.751 1056.069 192 157 135
-1069.952 385.251 1055.931 190 155 133
-1069.952 385.751 1055.802 199 163 138
-1069.952 386.251 1055.602 202 167 140
-1069.952 386.751 1055.472 201 164 137
-1069.952 387.251 1055.408 203 167 138
-1069.952 387.751 1055.321 202 166 138
-1069.952 388.251 1055.241 204 168 141
-1069.952 388.751 1055.140 202 167 139
-1069.952 389.251 1055.015 206 171 142
-1069.952 389.751 1054.906 208 173 144
-1069.452 384.751 1056.307 179 143 121
-1069.452 385.251 1056.152 184 148 126
-1069.452 385.751 1056.026 191 155 131
-1069.452 386.251 1055.843 199 163 139
-1069.452 386.751 1055.691 200 164 137
-1069.452 387.251 1055.551 208 171 144
-1069.452 387.751 1055.440 207 170 143
-1069.452 388.251 1055.379 193 156 130
-1069.452 388.751 1055.306 199 163 136
-1069.452 389.251 1055.172 193 158 130
-1069.452 389.751 1055.032 202 168 139
-1068.952 384.751 1056.535 180 144 122
-1068.952 385.251 1056.386 176 140 118
-1068.952 385.751 1056.277 184 148 126
-1068.952 386.251 1056.125 198 162 138
-1068.952 386.751 1055.961 199 163 136
-1068.952 387.251 1055.809 202 166 138
-1068.952 387.751 1055.670 212 175 148
-1068.952 388.251 1055.540 196 159 133
-1068.952 388.751 1055.415 194 158 132
-1068.952 389.251 1055.307 192 156 130
-1068.952 389.751 1055.193 197 161 135
-1068.452 384.751 1056.735 184 148 126
-1068.452 385.251 1056.607 183 146 124
-1068.452 385.751 1056.485 162 127 105
-1068.452 386.251 1056.382 189 153 131
-1068.452 386.751 1056.198 194 158 133
-1068.452 387.251 1056.027 201 164 137
-1068.452 387.751 1055.902 206 168 141
-1068.452 388.251 1055.757 197 157 132
-1068.452 388.751 1055.600 194 157 131
-1068.452 389.251 1055.445 183 146 120
-1068.452 389.751 1055.296 185 149 123
-1067.952 384.751 1056.882 189 153 131
-1067.952 385.251 1056.786 191 155 133
-1067.952 385.751 1056.708 175 140 120
-1067.952 386.251 1056.591 168 133 111
-1067.952 386.751 1056.427 186 150 126
-1067.952 387.251 1056.276 194 158 131
-1067.952 387.751 1056.137 206 167 140
-1067.952 388.251 1056.025 193 153 128
-1067.952 388.751 1055.829 190 152 128
-1067.952 389.251 1055.554 190 154 130
-1067.952 389.751 1055.343 201 166 141
-1067.452 384.751 1057.118 203 168 143
-1067.452 385.251 1056.986 193 157 133
-1067.452 385.751 1056.860 188 152 128
-1067.452 386.251 1056.790 184 147 123
-1067.452 386.751 1056.703 171 135 111
-1067.452 387.251 1056.572 187 151 127
-1067.452 387.751 1056.418 202 166 141
-1067.452 388.251 1056.256 186 149 126
-1067.452 388.751 1056.018 188 152 128
-1067.452 389.251 1055.724 191 155 133
-1067.452 389.751 1055.448 192 156 134
-1066.952 389.751 1055.537 183 146 124
-1062.452 387.751 1056.954 137 104 89
-1062.452 388.251 1056.549 144 110 98
-1062.452 388.751 1056.266 168 133 116
-1062.452 389.251 1056.027 185 149 127
-1062.452 389.751 1055.771 193 155 132
-1061.952 387.751 1056.994 138 105 94
-1061.952 388.251 1056.585 141 108 96
-1061.952 388.751 1056.290 162 128 112
-1061.952 389.251 1056.044 180 144 125
-1061.952 389.751 1055.758 192 156 134
-1061.452 387.751 1057.047 136 104 94
-1061.452 388.251 1056.648 140 108 97
-1061.452 388.751 1056.333 154 121 105
-1061.452 389.251 1056.064 170 137 118
-1061.452 389.751 1055.763 188 153 133
-1060.952 387.751 1057.190 139 109 99
-1060.952 388.251 1056.850 140 110 99
-1060.952 388.751 1056.447 155 124 112
-1060.952 389.251 1056.108 167 134 119
-1060.952 389.751 1055.809 173 140 121
-1060.452 388.251 1057.056 139 109 99
-1060.452 388.751 1056.690 152 121 109
-1060.452 389.251 1056.325 174 142 127
-1060.452 389.751 1055.977 189 156 139
-1059.952 388.751 1056.988 145 116 105
-1059.952 389.251 1056.630 159 127 116
-1059.952 389.751 1056.219 179 145 131
-1064.952 387.751 1057.075 184 146 127
-1064.952 388.251 1056.783 170 133 116
-1064.952 388.751 1056.529 153 117 100
-1064.952 389.251 1056.241 155 119 100
-1064.952 389.751 1055.940 184 147 127
-1064.452 387.751 1057.061 183 145 126
-1064.452 388.251 1056.734 168 131 113
-1064.452 388.751 1056.484 152 116 99
-1064.452 389.251 1056.226 168 130 112
-1064.452 389.751 1055.951 185 148 128
-1063.952 387.751 1057.034 179 143 124
-1063.952 388.251 1056.707 172 135 119
-1063.952 388.751 1056.454 163 126 109
-1063.952 389.251 1056.203 187 150 131
-1063.952 389.751 1055.951 187 150 128
-1063.452 387.751 1056.951 164 129 110
-1063.452 388.251 1056.612 156 119 103
-1063.452 388.751 1056.402 169 132 116
-1063.452 389.251 1056.152 193 155 134
-1063.452 389.751 1055.903 194 156 133
-1062.952 387.751 1056.955 149 113 97
-1062.952 388.251 1056.567 150 115 100
-1062.952 388.751 1056.326 169 132 116
-1062.952 389.251 1056.077 191 153 132
-1062.952 389.751 1055.837 195 154 132
-1059.452 389.251 1056.968 149 118 106
-1059.452 389.751 1056.569 162 130 117
-1058.952 389.751 1056.970 160 128 116
-1082.452 390.251 1054.627 224 194 167
-1081.952 390.251 1054.619 225 197 171
-1081.952 390.751 1054.641 228 199 171
-1081.952 391.251 1054.662 224 194 166
-1081.952 391.751 1054.669 221 191 163
-1081.952 392.251 1054.675 221 193 165
-1081.952 392.751 1054.668 225 197 170
-1081.952 393.251 1054.664 226 198 171
-1081.952 393.751 1054.670 228 199 172
-1081.952 394.251 1054.692 228 200 173
-1081.952 394.751 1054.712 223 195 167
-1081.452 390.251 1054.625 227 200 173
-1081.452 390.751 1054.637 228 199 173
-1081.452 391.251 1054.652 223 193 165
-1081.452 391.751 1054.661 221 191 163
-1081.452 392.251 1054.671 222 195 168
-1081.452 392.751 1054.668 227 200 173
-1081.452 393.251 1054.668 231 203 176
-1081.452 393.751 1054.669 230 202 175
-1081.452 394.251 1054.695 228 201 174
-1081.452 394.751 1054.710 222 195 168
-1076.952 390.251 1054.682 231 200 174
-1076.952 390.751 1054.693 233 202 176
-1076.952 391.251 1054.705 230 199 173
-1076.952 391.751 1054.712 227 197 171
-1076.952 392.251 1054.712 223 193 167
-1076.952 392.751 1054.712 224 194 168
-1076.952 393.251 1054.704 226 196 171
-1076.452 390.251 1054.666 223 193 167
-1076.452 390.751 1054.670 230 199 173
-1076.452 391.251 1054.675 232 201 175
-1076.452 391.751 1054.673 230 199 173
-1076.452 392.251 1054.665 226 196 171
-1076.452 392.751 1054.670 220 190 164
-1076.452 393.251 1054.664 224 194 168
-1076.452 393.751 1054.650 231 200 174
-1076.452 394.251 1054.629 226 196 171
-1076.452 394.751 1054.621 225 195 170
-1075.952 390.251 1054.657 221 191 165
-1075.952 390.751 1054.656 221 191 165
-1075.952 391.251 1054.654 228 198 172
-1075.952 391.751 1054.635 230 199 173
-1075.952 392.251 1054.613 231 200 174
-1075.952 392.751 1054.623 226 196 171
-1075.952 393.251 1054.632 222 192 166
-1075.952 393.751 1054.634 222 192 166
-1075.952 394.251 1054.623 225 195 170
-1075.952 394.751 1054.619 227 197 171
-1080.952 390.251 1054.638 230 202 175
-1080.952 390.751 1054.643 225 198 171
-1080.952 391.251 1054.644 224 194 168
-1080.952 391.751 1054.646 223 193 167
-1080.952 392.251 1054.657 226 199 172
-1080.952 392.751 1054.667 228 201 174
-1080.952 393.251 1054.676 232 204 177
-1080.952 393.751 1054.669 228 201 174
-1080.952 394.251 1054.698 225 198 171
-1080.952 394.751 1054.711 222 195 168
-1080.452 390.251 1054.648 232 203 177
-1080.452 390.751 1054.652 227 200 173
-1080.452 391.251 1054.644 225 198 172
-1080.452 391.751 1054.640 224 197 171
-1080.452 392.251 1054.654 227 200 173
-1080.452 392.751 1054.675 228 201 174
-1080.452 393.251 1054.684 231 203 176
-1080.452 393.751 1054.674 226 199 172
-1080.452 394.251 1054.697 225 198 171
-1080.452 394.751 1054.708 225 198 171
-1079.952 390.251 1054.654 230 202 176
-1079.952 390.751 1054.655 228 200 176
-1079.952 391.251 1054.649 225 197 173
-1079.952 391.751 1054.645 225 197 173
-1079.952 392.251 1054.658 226 199 172
-1079.952 392.751 1054.679 224 197 171
-1079.952 393.251 1054.682 231 203 176
-1079.952 393.751 1054.673 231 203 176
-1079.952 394.251 1054.692 230 202 175
-1079.952 394.751 1054.704 226 199 172
-1079.452 390.251 1054.664 230 202 175
-1079.452 390.751 1054.662 232 203 179
-1079.452 391.251 1054.656 226 198 174
-1079.452 391.751 1054.656 225 197 173
-1079.452 392.251 1054.666 226 199 172
-1079.452 392.751 1054.678 222 195 168
-1079.452 393.251 1054.674 228 201 174
-1079.452 393.751 1054.671 231 203 176
-1079.452 394.251 1054.690 231 203 176
-1079.452 394.751 1054.704 224 197 171
-1078.952 390.251 1054.671 226 199 172
-1078.952 390.751 1054.669 231 202 177
-1078.952 391.251 1054.663 226 198 174
-1078.952 391.751 1054.666 221 193 170
-1078.952 392.251 1054.679 228 201 174
-1078.952 392.751 1054.685 227 200 173
-1078.952 393.251 1054.682 227 200 173
-1078.952 393.751 1054.680 222 195 168
-1078.952 394.251 1054.700 225 198 171
-1078.952 394.751 1054.710 224 197 171
-1078.452 390.251 1054.674 226 196 171
-1078.452 390.751 1054.674 226 196 171
-1078.452 391.251 1054.680 228 198 172
-1078.452 391.751 1054.688 224 194 171
-1078.452 392.251 1054.706 226 196 171
-1078.452 392.751 1054.713 230 199 173
-1078.452 393.251 1054.711 226 196 171
-1078.452 393.751 1054.699 226 196 171
-1078.452 394.251 1054.705 226 196 171
-1078.452 394.751 1054.694 228 198 172
-1077.952 390.251 1054.685 225 195 167
-1077.952 390.751 1054.690 226 196 171
-1077.952 391.251 1054.708 228 198 172
-1077.952 391.751 1054.720 227 197 171
-1077.952 392.251 1054.728 227 197 171
-1077.952 392.751 1054.734 227 197 171
-1077.952 393.251 1054.733 226 196 171
-1077.952 393.751 1054.712 226 196 171
-1077.952 394.251 1054.697 223 193 167
-1077.952 394.751 1054.657 227 197 171
-1077.452 390.251 1054.693 226 196 168
-1077.452 390.751 1054.704 230 199 172
-1077.452 391.251 1054.722 228 198 172
-1077.452 391.751 1054.730 227 197 171
-1077.452 392.251 1054.728 224 194 168
-1077.452 392.751 1054.732 226 196 171
-1077.452 393.251 1054.731 227 197 171
-1077.452 393.751 1054.708 227 197 171
-1077.452 394.251 1054.678 221 191 165
-1077.452 394.751 1054.634 223 193 167
-1076.952 393.751 1054.683 231 200 174
-1076.952 394.251 1054.651 225 195 170
-1076.952 394.751 1054.626 221 191 165
-1071.952 390.251 1054.687 224 193 164
-1071.952 390.751 1054.652 221 190 162
-1071.952 391.251 1054.610 228 198 171
-1071.952 391.751 1054.582 220 190 163
-1071.952 392.251 1054.564 227 199 175
-1071.952 392.751 1054.563 230 201 177
-1071.952 393.251 1054.585 224 196 172
-1071.452 390.251 1054.712 219 188 159
-1071.452 390.751 1054.681 217 186 158
-1071.452 391.251 1054.656 225 194 166
-1071.452 391.751 1054.635 219 188 161
-1071.452 392.251 1054.605 226 198 174
-1071.452 392.751 1054.590 228 200 176
-1071.452 393.251 1054.593 226 198 174
-1071.452 393.751 1054.609 227 199 175
-1071.452 394.251 1054.631 231 202 178
-1071.452 394.751 1054.651 228 200 176
-1070.952 390.251 1054.760 219 188 159
-1070.952 390.751 1054.747 213 183 153
-1070.952 391.251 1054.733 216 185 157
-1070.952 391.751 1054.693 222 191 163
-1070.952 392.251 1054.639 225 197 173
-1070.952 392.751 1054.617 228 200 176
-1070.952 393.251 1054.602 224 196 172
-1070.952 393.751 1054.599 226 198 174
-1070.952 394.251 1054.612 231 202 178
-1070.952 394.751 1054.647 232 203 179
-1075.452 390.251 1054.682 225 195 170
-1075.452 390.751 1054.660 221 191 165
-1075.452 391.251 1054.635 221 191 165
-1075.452 391.751 1054.598 227 197 171
-1075.452 392.251 1054.568 230 199 173
-1075.452 392.751 1054.571 232 201 175
-1075.452 393.251 1054.589 228 198 172
-1075.452 393.751 1054.609 222 192 166
-1075.452 394.251 1054.609 223 193 167
-1075.452 394.751 1054.608 226 196 171
-1074.952 390.251 1054.729 228 198 172
-1074.952 390.751 1054.673 227 197 171
-1074.952 391.251 1054.619 223 193 167
-1074.952 391.751 1054.554 225 195 170
-1074.952 392.251 1054.516 228 198 172
-1074.952 392.751 1054.515 232 201 175
-1074.952 393.251 1054.539 230 199 173
-1074.952 393.751 1054.562 226 196 171
-1074.952 394.251 1054.585 224 194 168
-1074.952 394.751 1054.597 226 196 171
-1074.452 390.251 1054.754 226 196 171
-1074.452 390.751 1054.685 228 198 172
-1074.452 391.251 1054.597 226 196 171
-1074.452 391.751 1054.519 226 196 171
-1074.452 392.251 1054.487 226 196 171
-1074.452 392.751 1054.488 231 200 174
-1074.452 393.251 1054.514 231 200 174
-1074.452 393.751 1054.532 228 198 172
-1074.452 394.251 1054.568 226 196 171
-1074.452 394.751 1054.589 225 195 170
-1073.952 390.251 1054.739 225 195 168
-1073.952 390.751 1054.676 227 197 171
-1073.952 391.251 1054.575 225 197 171
-1073.952 391.751 1054.511 223 195 168
-1073.952 392.251 1054.496 225 196 172
-1073.952 392.751 1054.498 228 199 174
-1073.952 393.251 1054.519 227 199 174
-1073.952 393.751 1054.536 226 197 172
-1073.952 394.251 1054.563 226 198 173
-1073.952 394.751 1054.580 226 197 172
-1073.452 390.251 1054.713 225 195 167
-1073.452 390.751 1054.657 226 196 171
-1073.452 391.251 1054.575 223 196 170
-1073.452 391.751 1054.522 220 193 166
-1073.452 392.251 1054.511 226 198 174
-1073.452 392.751 1054.513 227 199 175
-1073.452 393.251 1054.534 225 197 173
-1073.452 393.751 1054.553 227 199 175
-1073.452 394.251 1054.567 227 199 175
-1073.452 394.751 1054.568 227 199 175
-1072.952 390.251 1054.683 224 194 166
-1072.952 390.751 1054.643 226 196 170
-1072.952 391.251 1054.579 226 196 171
-1072.952 391.751 1054.532 222 192 166
-1072.952 392.251 1054.517 228 200 176
-1072.952 392.751 1054.523 226 198 174
-1072.952 393.251 1054.549 224 196 172
-1072.952 393.751 1054.572 228 200 176
-1072.952 394.251 1054.580 228 200 176
-1072.952 394.751 1054.579 228 200 176
-1072.452 390.251 1054.677 223 192 164
-1072.452 390.751 1054.640 226 196 168
-1072.452 391.251 1054.583 230 199 173
-1072.452 391.751 1054.547 224 194 168
-1072.452 392.251 1054.524 226 198 174
-1072.452 392.751 1054.525 226 198 174
-1072.452 393.251 1054.565 224 196 172
-1072.452 393.751 1054.592 228 200 176
-1072.452 394.251 1054.598 230 201 177
-1072.452 394.751 1054.603 228 200 176
-1071.952 393.751 1054.609 230 201 177
-1071.952 394.251 1054.623 227 199 175
-1071.952 394.751 1054.632 227 199 175
-1066.452 390.251 1055.440 179 141 122
-1066.452 390.751 1055.240 187 151 129
-1066.452 391.251 1055.085 201 166 141
-1066.452 391.751 1054.983 211 175 149
-1066.452 392.251 1054.936 216 183 154
-1066.452 392.751 1054.911 216 184 155
-1066.452 393.251 1054.873 216 185 157
-1065.952 390.251 1055.540 187 151 129
-1065.952 390.751 1055.291 188 152 129
-1065.952 391.251 1055.144 204 168 142
-1065.952 391.751 1055.022 214 179 152
-1065.952 392.251 1054.954 212 179 151
-1065.952 392.751 1054.926 216 183 155
-1065.952 393.251 1054.895 215 183 154
-1065.952 393.751 1054.858 214 184 155
-1065.952 394.251 1054.815 215 184 156
-1065.952 394.751 1054.767 220 189 160
-1065.452 390.251 1055.600 189 153 129
-1065.452 390.751 1055.334 193 157 132
-1065.452 391.251 1055.178 211 175 149
-1065.452 391.751 1055.061 213 177 151
-1065.452 392.251 1054.978 214 180 153
-1065.452 392.751 1054.933 218 184 157
-1065.452 393.251 1054.901 221 187 159
-1065.452 393.751 1054.865 220 186 158
-1065.452 394.251 1054.803 222 191 162
-1065.452 394.751 1054.756 222 191 162
-1070.452 390.251 1054.821 219 184 156
-1070.452 390.751 1054.816 214 180 152
-1070.452 391.251 1054.800 219 185 158
-1070.452 391.751 1054.755 225 192 164
-1070.452 392.251 1054.700 225 195 170
-1070.452 392.751 1054.642 231 200 174
-1070.452 393.251 1054.608 225 198 171
-1070.452 393.751 1054.599 226 199 172
-1070.452 394.251 1054.603 230 201 177
-1070.452 394.751 1054.634 231 203 179
-1069.952 390.251 1054.862 214 179 151
-1069.952 390.751 1054.851 214 180 152
-1069.952 391.251 1054.820 220 186 159
-1069.952 391.751 1054.784 222 189 162
-1069.952 392.251 1054.742 222 192 165
-1069.952 392.751 1054.672 231 200 173
-1069.952 393.251 1054.630 228 199 173
-1069.952 393.751 1054.614 228 201 174
-1069.952 394.251 1054.604 228 200 174
-1069.952 394.751 1054.628 231 202 178
-1069.452 390.251 1054.930 205 170 142
-1069.452 390.751 1054.874 212 179 150
-1069.452 391.251 1054.828 213 179 152
-1069.452 391.751 1054.778 221 187 160
-1069.452 392.251 1054.745 220 189 161
-1069.452 392.751 1054.705 226 196 168
-1069.452 393.251 1054.663 227 197 171
-1069.452 393.751 1054.633 230 199 173
-1069.452 394.251 1054.624 228 201 174
-1069.452 394.751 1054.633 228 201 174
-1068.952 390.251 1055.034 199 163 137
-1068.952 390.751 1054.912 205 171 144
-1068.952 391.251 1054.841 211 177 149
-1068.952 391.751 1054.794 217 184 155
-1068.952 392.251 1054.766 221 190 162
-1068.952 392.751 1054.729 220 189 161
-1068.952 393.251 1054.689 224 194 166
-1068.952 393.751 1054.666 230 199 173
-1068.952 394.251 1054.662 231 200 174
-1068.952 394.751 1054.644 227 200 173
-1068.452 390.251 1055.142 194 158 132
-1068.452 390.751 1054.998 203 169 142
-1068.452 391.251 1054.887 212 179 150
-1068.452 391.751 1054.834 216 183 154
-1068.452 392.251 1054.797 219 188 160
-1068.452 392.751 1054.762 220 189 161
-1068.452 393.251 1054.720 224 193 165
-1068.452 393.751 1054.691 227 197 170
-1068.452 394.251 1054.685 227 197 171
-1068.452 394.751 1054.672 233 202 176
-1067.952 390.251 1055.223 188 152 126
-1067.952 390.751 1055.086 197 163 136
-1067.952 391.251 1054.957 212 179 150
-1067.952 391.751 1054.885 215 181 153
-1067.952 392.251 1054.822 213 183 153
-1067.952 392.751 1054.788 217 186 157
-1067.952 393.251 1054.761 224 193 165
-1067.952 393.751 1054.709 224 194 166
-1067.952 394.251 1054.692 222 192 164
-1067.952 394.751 1054.692 230 199 173
-1067.452 390.251 1055.295 180 144 123
-1067.452 390.751 1055.151 203 168 145
-1067.452 391.251 1055.005 210 174 150
-1067.452 391.751 1054.919 213 179 151
-1067.452 392.251 1054.865 206 175 146
-1067.452 392.751 1054.842 213 183 154
-1067.452 393.251 1054.806 221 190 162
-1067.452 393.751 1054.757 224 193 165
-1067.452 394.251 1054.734 220 190 164
-1067.452 394.751 1054.734 221 191 165
-1066.952 390.251 1055.349 180 143 124
-1066.952 390.751 1055.183 193 156 136
-1066.952 391.251 1055.044 210 174 150
-1066.952 391.751 1054.959 219 184 157
-1066.952 392.251 1054.916 210 179 150
-1066.952 392.751 1054.892 208 177 148
-1066.952 393.251 1054.841 218 187 159
-1066.952 393.751 1054.800 223 192 164
-1066.952 394.251 1054.772 224 194 168
-1066.952 394.751 1054.753 222 192 166
-1066.452 393.751 1054.838 218 187 159
-1066.452 394.251 1054.803 225 194 166
-1066.452 394.751 1054.775 221 191 163
-1060.952 390.251 1055.490 193 158 138
-1060.952 390.751 1055.292 208 173 150
-1060.952 391.251 1055.161 211 177 152
-1060.952 391.751 1055.068 212 180 155
-1060.952 392.251 1055.029 213 183 158
-1060.952 392.751 1055.005 217 186 163
-1060.952 393.251 1054.995 216 184 159
-1060.452 390.251 1055.688 172 137 117
-1060.452 390.751 1055.460 190 155 133
-1060.452 391.251 1055.258 208 176 153
-1060.452 391.751 1055.140 213 181 158
-1060.452 392.251 1055.098 208 179 154
-1060.452 392.751 1055.069 213 184 159
-1060.452 393.251 1055.065 216 184 160
-1060.452 393.751 1055.053 213 181 157
-1060.452 394.251 1055.038 213 181 156
-1060.452 394.751 1055.033 216 184 159
-1059.952 390.251 1055.876 192 158 140
-1059.952 390.751 1055.662 187 152 133
-1059.952 391.251 1055.417 192 160 140
-1059.952 391.751 1055.283 209 177 157
-1059.952 392.251 1055.237 210 179 157
-1059.952 392.751 1055.173 205 174 152
-1059.952 393.251 1055.150 212 180 157
-1059.952 393.751 1055.140 212 180 157
-1059.952 394.251 1055.107 205 173 149
-1059.952 394.751 1055.088 210 179 155
-1064.952 390.251 1055.628 187 151 127
-1064.952 390.751 1055.339 194 158 132
-1064.952 391.251 1055.170 212 176 150
-1064.952 391.751 1055.078 211 175 151
-1064.952 392.251 1055.004 215 179 153
-1064.952 392.751 1054.940 220 184 158
-1064.952 393.251 1054.897 223 189 161
-1064.952 393.751 1054.859 222 188 160
-1064.952 394.251 1054.792 224 191 160
-1064.952 394.751 1054.756 221 190 159
-1064.452 390.251 1055.646 188 152 127
-1064.452 390.751 1055.326 196 160 134
-1064.452 391.251 1055.170 201 166 139
-1064.452 391.751 1055.088 208 173 146
-1064.452 392.251 1055.032 209 173 147
-1064.452 392.751 1054.953 219 184 156
-1064.452 393.251 1054.894 225 191 163
-1064.452 393.751 1054.852 224 190 162
-1064.452 394.251 1054.812 223 189 159
-1064.452 394.751 1054.786 222 191 160
-1063.952 390.251 1055.597 187 150 124
-1063.952 390.751 1055.298 196 159 132
-1063.952 391.251 1055.183 199 163 136
-1063.952 391.751 1055.117 205 170 142
-1063.952 392.251 1055.034 204 168 140
-1063.952 392.751 1054.947 214 179 151
-1063.952 393.251 1054.888 219 184 156
-1063.952 393.751 1054.859 220 185 157
-1063.952 394.251 1054.846 220 186 158
-1063.952 394.751 1054.828 222 188 160
-1063.452 390.251 1055.555 194 154 128
-1063.452 390.751 1055.273 199 160 133
-1063.452 391.251 1055.176 197 160 131
-1063.452 391.751 1055.116 205 170 142
-1063.452 392.251 1055.028 204 169 141
-1063.452 392.751 1054.959 205 170 142
-1063.452 393.251 1054.894 211 176 148
-1063.452 393.751 1054.866 215 181 153
-1063.452 394.251 1054.870 220 186 158
-1063.452 394.751 1054.885 223 189 161
-1062.952 390.251 1055.508 197 157 131
-1062.952 390.751 1055.261 203 164 135
-1062.952 391.251 1055.171 201 164 135
-1062.952 391.751 1055.105 201 167 136
-1062.952 392.251 1055.026 203 168 140
-1062.952 392.751 1054.969 203 168 140
-1062.952 393.251 1054.915 211 177 149
-1062.952 393.751 1054.895 218 184 156
-1062.952 394.251 1054.903 223 189 161
-1062.952 394.751 1054.930 223 189 161
-1062.452 390.251 1055.424 200 161 136
-1062.452 390.751 1055.215 202 163 136
-1062.452 391.251 1055.147 203 167 139
-1062.452 391.751 1055.084 203 169 141
-1062.452 392.251 1055.017 207 172 145
-1062.452 392.751 1054.969 208 173 147
-1062.452 393.251 1054.936 213 179 152
-1062.452 393.751 1054.928 223 189 162
-1062.452 394.251 1054.936 223 190 162
-1062.452 394.751 1054.955 220 189 161
-1061.952 390.251 1055.391 199 163 138
-1061.952 390.751 1055.181 204 168 141
-1061.952 391.251 1055.125 202 168 140
-1061.952 391.751 1055.064 202 168 141
-1061.952 392.251 1055.012 205 171 144
-1061.952 392.751 1054.965 206 172 145
-1061.952 393.251 1054.943 214 180 153
-1061.952 393.751 1054.945 215 184 155
-1061.952 394.251 1054.955 214 184 155
-1061.952 394.751 1054.974 214 184 155
-1061.452 390.251 1055.391 201 166 143
-1061.452 390.751 1055.176 207 172 147
-1061.452 391.251 1055.114 208 174 149
-1061.452 391.751 1055.050 206 174 149
-1061.452 392.251 1055.008 207 174 147
-1061.452 392.751 1054.981 208 174 147
-1061.452 393.251 1054.969 210 176 149
-1061.452 393.751 1054.969 211 180 152
-1061.452 394.251 1054.966 209 179 150
-1061.452 394.751 1054.970 211 180 152
-1060.952 393.751 1054.997 214 183 157
-1060.952 394.251 1054.994 214 183 157
-1060.952 394.751 1054.991 214 184 156
-1057.952 390.751 1057.202 175 144 128
-1057.952 391.251 1056.814 166 135 118
-1057.952 391.751 1056.447 169 138 120
-1057.952 392.251 1056.232 198 168 148
-1057.952 392.751 1056.111 193 161 142
-1057.952 393.251 1055.995 192 159 140
-1057.952 393.751 1055.820 175 142 123
-1057.952 394.251 1055.627 181 148 127
-1057.952 394.751 1055.510 192 159 137
-1057.452 391.751 1056.918 176 145 127
-1057.452 392.251 1056.721 193 162 142
-1057.452 392.751 1056.515 187 154 136
-1057.452 393.251 1056.235 180 147 130
-1057.452 393.751 1056.050 176 143 126
-1057.452 394.251 1055.879 184 149 130
-1057.452 394.751 1055.742 187 152 131
-1056.952 392.751 1056.941 170 137 121
-1056.952 393.251 1056.613 170 137 122
-1056.952 393.751 1056.340 167 133 118
-1056.952 394.251 1056.141 169 136 119
-1056.952 394.751 1055.982 180 146 127
-1056.452 393.251 1057.090 151 118 105
-1056.452 393.751 1056.780 153 119 107
-1056.452 394.251 1056.514 149 117 104
-1056.452 394.751 1056.269 160 127 112
-1055.952 394.251 1057.025 156 124 113
-1055.952 394.751 1056.690 148 117 104
-1059.452 390.251 1056.180 192 159 144
-1059.452 390.751 1055.883 189 156 139
-1059.452 391.251 1055.628 174 141 124
-1059.452 391.751 1055.450 198 168 148
-1059.452 392.251 1055.358 208 177 156
-1059.452 392.751 1055.303 203 172 151
-1059.452 393.251 1055.278 208 176 155
-1059.452 393.751 1055.266 208 176 155
-1059.452 394.251 1055.225 205 173 150
-1059.452 394.751 1055.169 206 174 151
-1058.952 390.251 1056.525 180 147 132
-1058.952 390.751 1056.185 179 146 129
-1058.952 391.251 1055.976 152 121 103
-1058.952 391.751 1055.787 189 158 141
-1058.952 392.251 1055.592 203 172 152
-1058.952 392.751 1055.487 201 170 150
-1058.952 393.251 1055.441 202 170 149
-1058.952 393.751 1055.381 201 169 148
-1058.952 394.251 1055.327 211 179 158
-1058.952 394.751 1055.291 203 171 150
-1058.452 390.251 1057.030 188 155 138
-1058.452 390.751 1056.635 183 149 132
-1058.452 391.251 1056.349 146 116 97
-1058.452 391.751 1056.110 177 145 129
-1058.452 392.251 1055.905 201 170 150
-1058.452 392.751 1055.799 196 166 145
-1058.452 393.251 1055.735 197 164 145
-1058.452 393.751 1055.552 172 139 120
-1058.452 394.251 1055.430 192 160 139
-1058.452 394.751 1055.390 196 164 143
-1082.452 395.251 1054.754 221 191 163
-1082.452 395.751 1054.806 225 195 167
-1082.452 396.251 1054.822 221 191 163
-1082.452 396.751 1054.833 223 193 165
-1082.452 397.251 1054.846 225 195 167
-1081.952 395.251 1054.740 222 192 164
-1081.952 395.751 1054.774 224 194 166
-1081.952 396.251 1054.793 219 189 161
-1081.952 396.751 1054.801 215 185 157
-1081.952 397.251 1054.812 225 195 167
-1081.952 397.751 1054.797 227 197 170
-1081.952 398.251 1054.823 227 197 170
-1081.952 398.751 1054.867 225 195 167
-1081.952 399.251 1054.874 224 194 166
-1081.952 399.751 1054.873 224 194 166
-1081.952 400.251 1054.857 226 196 168
-1081.452 395.251 1054.730 224 195 167
-1081.452 395.751 1054.748 223 193 165
-1081.452 396.251 1054.770 216 186 158
-1081.452 396.751 1054.772 208 179 150
-1081.452 397.251 1054.774 221 191 163
-1081.452 397.751 1054.759 228 198 171
-1081.452 398.251 1054.770 226 196 168
-1081.452 398.751 1054.823 225 195 167
-1081.452 399.251 1054.839 226 196 168
-1081.452 399.751 1054.857 226 196 168
-1081.452 400.251 1054.848 227 197 170
-1082.952 398.251 1054.890 226 196 168
-1082.952 398.751 1054.896 224 194 166
-1082.952 399.251 1054.885 224 194 166
-1082.952 399.751 1054.876 226 196 168
-1082.952 400.251 1054.854 226 196 168
-1082.452 397.751 1054.844 227 197 170
-1082.452 398.251 1054.863 227 197 170
-1082.452 398.751 1054.882 225 195 167
-1082.452 399.251 1054.883 225 195 167
-1082.452 399.751 1054.882 225 195 167
-1082.452 400.251 1054.862 226 196 168
-1076.952 395.251 1054.620 223 192 164
-1076.952 395.751 1054.597 227 196 168
-1076.952 396.251 1054.571 223 192 164
-1076.952 396.751 1054.563 225 194 166
-1076.952 397.251 1054.581 230 198 171
-1076.452 395.251 1054.625 219 189 161
-1076.452 395.751 1054.609 228 198 171
-1076.452 396.251 1054.587 221 191 163
-1076.452 396.751 1054.572 219 189 161
