-1128.952 319.751 1052.573 203 183 163
-1128.952 320.251 1052.634 198 180 161
-1128.952 320.751 1052.698 200 181 164
-1128.952 321.251 1052.711 199 183 164
-1128.952 321.751 1052.747 194 177 161
-1128.952 322.251 1052.754 186 169 153
-1128.952 322.751 1052.748 181 163 147
-1128.952 323.251 1052.734 184 164 148
-1128.952 323.751 1052.722 191 172 155
-1128.952 324.251 1052.709 197 176 159
-1128.952 324.751 1052.711 193 174 157
-1128.452 319.751 1052.588 198 177 158
-1128.452 320.251 1052.653 196 175 157
-1128.452 320.751 1052.689 194 174 155
-1128.452 321.251 1052.702 194 176 157
-1128.452 321.751 1052.705 193 174 158
-1128.452 322.251 1052.708 184 166 149
-1128.452 322.751 1052.717 183 162 145
-1128.452 323.251 1052.713 185 164 146
-1128.452 323.751 1052.705 188 168 148
-1128.452 324.251 1052.689 189 168 149
-1128.452 324.751 1052.680 195 174 154
-1127.952 319.751 1052.642 187 168 154
-1127.952 320.251 1052.687 185 168 152
-1127.952 320.751 1052.700 184 167 152
-1127.952 321.251 1052.711 185 168 152
-1127.952 321.751 1052.698 186 168 153
-1127.952 322.251 1052.696 180 161 146
-1127.952 322.751 1052.703 179 160 144
-1127.952 323.251 1052.706 180 161 145
-1127.952 323.751 1052.705 179 158 140
-1127.952 324.251 1052.691 180 159 141
-1127.952 324.751 1052.659 181 160 142
-1127.452 319.751 1052.699 176 159 149
-1127.452 320.251 1052.717 179 162 152
-1127.452 320.751 1052.726 179 162 152
-1127.452 321.251 1052.723 174 157 147
-1127.452 321.751 1052.722 174 156 146
-1127.452 322.251 1052.706 173 155 144
-1127.452 322.751 1052.716 172 154 142
-1127.452 323.251 1052.709 173 154 141
-1127.452 323.751 1052.717 174 155 140
-1127.452 324.251 1052.695 176 157 142
-1127.452 324.751 1052.651 180 161 146
-1126.952 319.751 1052.874 161 147 138
-1126.952 320.251 1052.857 164 150 141
-1126.952 320.751 1052.838 162 148 139
-1126.952 321.251 1052.854 156 142 133
-1126.952 321.751 1052.830 156 139 132
-1126.952 322.251 1052.801 162 145 138
-1126.952 322.751 1052.790 166 148 140
-1126.952 323.251 1052.798 162 144 134
-1126.952 323.751 1052.751 170 152 141
-1126.952 324.251 1052.713 177 159 147
-1126.952 324.751 1052.676 183 164 151
-1126.452 319.751 1053.107 158 145 140
-1126.452 320.251 1053.094 161 148 142
-1126.452 320.751 1053.041 154 141 135
-1126.452 321.251 1053.044 146 133 127
-1126.452 321.751 1052.991 148 133 128
-1126.452 322.251 1052.937 147 132 127
-1126.452 322.751 1052.948 143 129 122
-1126.452 323.251 1052.961 139 125 116
-1126.452 323.751 1052.897 149 132 124
-1126.452 324.251 1052.811 152 136 126
-1126.452 324.751 1052.748 157 140 130
-1125.952 319.751 1053.254 156 142 139
-1125.952 320.251 1053.260 161 147 144
-1125.952 320.751 1053.226 157 143 140
-1125.952 321.251 1053.200 152 138 135
-1125.952 321.751 1053.092 146 133 130
-1125.952 322.251 1053.046 137 125 121
-1125.952 322.751 1053.063 133 120 116
-1125.952 323.251 1053.066 134 121 113
-1125.952 323.751 1053.034 134 120 112
-1125.952 324.251 1052.932 135 122 113
-1125.952 324.751 1052.885 141 125 117
-1125.452 322.251 1053.176 135 124 120
-1125.452 322.751 1053.110 128 118 112
-1125.452 323.251 1053.117 135 125 116
-1125.452 323.751 1053.127 135 122 114
-1125.452 324.251 1053.063 136 123 116
-1125.452 324.751 1053.029 139 124 116
-1119.952 319.751 1053.292 209 181 159
-1119.952 320.251 1053.333 210 183 160
-1119.952 320.751 1053.371 213 187 164
-1119.952 321.251 1053.381 213 187 164
-1119.952 321.751 1053.392 214 188 165
-1119.452 319.751 1053.305 209 181 159
-1119.452 320.251 1053.336 206 179 156
-1119.452 320.751 1053.386 210 184 161
-1119.452 321.251 1053.415 219 193 171
-1119.452 321.751 1053.434 222 196 173
-1119.452 322.251 1053.470 222 196 173
-1119.452 322.751 1053.478 211 187 163
-1119.452 323.251 1053.479 208 184 160
-1119.452 323.751 1053.482 220 195 173
-1119.452 324.251 1053.485 215 193 171
-1119.452 324.751 1053.507 219 195 173
-1118.952 319.751 1053.307 214 186 164
-1118.952 320.251 1053.339 210 183 160
-1118.952 320.751 1053.400 210 184 161
-1118.952 321.251 1053.431 209 184 160
-1118.952 321.751 1053.457 217 191 168
-1118.952 322.251 1053.481 222 196 173
-1118.952 322.751 1053.487 223 199 175
-1118.952 323.251 1053.510 217 193 170
-1118.952 323.751 1053.513 219 194 172
-1118.952 324.251 1053.517 217 195 172
-1118.952 324.751 1053.528 209 185 163
-1123.952 319.751 1053.337 162 143 132
-1123.952 320.251 1053.367 176 157 145
-1123.952 320.751 1053.402 185 168 154
-1123.952 321.251 1053.412 181 163 150
-1123.952 321.751 1053.411 168 149 136
-1123.952 322.251 1053.388 162 142 129
-1123.952 322.751 1053.369 183 162 148
-1123.952 323.251 1053.363 197 177 160
-1123.952 323.751 1053.356 206 184 168
-1123.952 324.251 1053.344 201 179 161
-1123.952 324.751 1053.330 174 152 135
-1123.452 319.751 1053.310 196 174 160
-1123.452 320.251 1053.340 207 186 168
-1123.452 320.751 1053.379 211 190 173
-1123.452 321.251 1053.409 209 188 171
-1123.452 321.751 1053.423 202 180 163
-1123.452 322.251 1053.417 202 179 163
-1123.452 322.751 1053.403 196 170 153
-1123.452 323.251 1053.399 209 184 164
-1123.452 323.751 1053.395 218 193 172
-1123.452 324.251 1053.413 212 187 165
-1123.452 324.751 1053.411 201 176 154
-1122.952 319.751 1053.291 205 184 164
-1122.952 320.251 1053.328 214 189 170
-1122.952 320.751 1053.351 212 187 166
-1122.952 321.251 1053.389 211 186 165
-1122.952 321.751 1053.422 216 190 171
-1122.952 322.251 1053.430 214 187 167
-1122.952 322.751 1053.439 206 179 158
-1122.952 323.251 1053.440 208 181 159
-1122.952 323.751 1053.438 215 189 166
-1122.952 324.251 1053.453 213 187 164
-1122.952 324.751 1053.449 213 187 165
-1122.452 319.751 1053.280 203 179 158
-1122.452 320.251 1053.323 212 185 164
-1122.452 320.751 1053.338 214 187 165
-1122.452 321.251 1053.376 204 179 155
-1122.452 321.751 1053.410 217 191 168
-1122.452 322.251 1053.432 212 186 163
-1122.452 322.751 1053.457 208 183 159
-1122.452 323.251 1053.461 207 181 158
-1122.452 323.751 1053.474 212 186 162
-1122.452 324.251 1053.474 212 186 161
-1122.452 324.751 1053.488 214 188 164
-1121.952 319.751 1053.254 207 179 158
-1121.952 320.251 1053.295 211 184 162
-1121.952 320.751 1053.326 215 188 166
-1121.952 321.251 1053.347 210 184 160
-1121.952 321.751 1053.392 211 184 162
-1121.952 322.251 1053.427 205 179 156
-1121.952 322.751 1053.460 207 180 157
-1121.952 323.251 1053.466 208 183 158
-1121.952 323.751 1053.498 214 188 164
-1121.952 324.251 1053.488 216 189 167
-1121.952 324.751 1053.508 210 184 162
-1121.452 319.751 1053.236 210 183 160
-1121.452 320.251 1053.276 212 184 162
-1121.452 320.751 1053.313 212 186 163
-1121.452 321.251 1053.327 213 187 164
-1121.452 321.751 1053.383 216 188 166
-1121.452 322.251 1053.418 210 183 160
-1121.452 322.751 1053.453 206 179 156
-1121.452 323.251 1053.462 210 184 161
-1121.452 323.751 1053.488 217 190 170
-1121.452 324.251 1053.466 214 187 166
-1121.452 324.751 1053.491 211 185 164
-1120.952 319.751 1053.235 210 183 160
-1120.952 320.251 1053.293 208 180 158
-1120.952 320.751 1053.326 207 181 158
-1120.952 321.251 1053.335 211 185 162
-1120.952 321.751 1053.382 220 192 171
-1120.952 322.251 1053.419 211 184 161
-1120.952 322.751 1053.449 207 181 158
-1120.952 323.251 1053.458 208 183 159
-1120.952 323.751 1053.471 217 190 170
-1120.952 324.251 1053.441 209 184 162
-1120.952 324.751 1053.461 217 192 171
-1120.452 319.751 1053.259 211 184 161
-1120.452 320.251 1053.320 210 183 160
-1120.452 320.751 1053.349 208 183 159
-1120.452 321.251 1053.361 206 180 157
-1120.452 321.751 1053.385 215 189 166
-1120.452 322.251 1053.438 209 184 160
-1120.452 322.751 1053.453 205 179 156
-1120.452 323.251 1053.465 214 188 165
-1120.452 323.751 1053.467 219 194 172
-1120.452 324.251 1053.453 208 184 161
-1120.452 324.751 1053.472 215 190 168
-1119.952 322.251 1053.452 213 187 164
-1119.952 322.751 1053.465 206 181 157
-1119.952 323.251 1053.469 218 194 171
-1119.952 323.751 1053.467 221 196 174
-1119.952 324.251 1053.466 222 197 175
-1119.952 324.751 1053.492 216 191 170
-1114.452 319.751 1053.524 220 194 171
-1114.452 320.251 1053.524 221 195 173
-1114.452 320.751 1053.529 220 194 173
-1114.452 321.251 1053.529 218 193 171
-1114.452 321.751 1053.521 222 200 179
-1113.952 319.751 1053.522 221 195 173
-1113.952 320.251 1053.519 222 197 175
-1113.952 320.751 1053.525 221 196 174
-1113.952 321.251 1053.530 221 198 176
-1113.952 321.751 1053.527 224 202 181
-1113.952 322.251 1053.506 224 202 181
-1113.952 322.751 1053.486 225 203 182
-1113.952 323.251 1053.484 225 203 182
-1113.952 323.751 1053.458 226 205 184
-1113.952 324.251 1053.450 228 207 186
-1113.952 324.751 1053.443 230 208 188
-1113.452 319.751 1053.526 223 198 176
-1113.452 320.251 1053.529 222 200 177
-1113.452 320.751 1053.531 224 202 180
-1113.452 321.251 1053.530 226 204 183
-1113.452 321.751 1053.530 225 203 182
-1113.452 322.251 1053.503 223 201 180
-1113.452 322.751 1053.476 225 203 182
-1113.452 323.251 1053.446 225 203 182
-1113.452 323.751 1053.438 226 205 184
-1113.452 324.251 1053.439 227 206 185
-1113.452 324.751 1053.429 228 207 187
-1118.452 319.751 1053.325 214 186 162
-1118.452 320.251 1053.357 216 190 165
-1118.452 320.751 1053.417 214 188 165
-1118.452 321.251 1053.460 214 188 165
-1118.452 321.751 1053.477 218 193 171
-1118.452 322.251 1053.503 221 196 174
-1118.452 322.751 1053.509 224 199 177
-1118.452 323.251 1053.533 225 200 178
-1118.452 323.751 1053.546 224 199 177
-1118.452 324.251 1053.548 223 198 176
-1118.452 324.751 1053.553 213 188 165
-1117.952 319.751 1053.390 215 187 163
-1117.952 320.251 1053.403 221 195 171
-1117.952 320.751 1053.435 228 202 179
-1117.952 321.251 1053.466 222 196 173
-1117.952 321.751 1053.482 221 196 174
-1117.952 322.251 1053.515 223 198 176
-1117.952 322.751 1053.526 223 198 176
-1117.952 323.251 1053.551 225 200 178
-1117.952 323.751 1053.557 228 203 181
-1117.952 324.251 1053.559 225 200 178
-1117.952 324.751 1053.568 220 195 173
-1117.452 319.751 1053.470 209 181 159
-1117.452 320.251 1053.498 213 187 164
-1117.452 320.751 1053.477 226 200 177
-1117.452 321.251 1053.482 231 204 181
-1117.452 321.751 1053.496 226 201 179
-1117.452 322.251 1053.511 222 197 175
-1117.452 322.751 1053.540 219 194 172
-1117.452 323.251 1053.562 222 197 175
-1117.452 323.751 1053.564 231 205 183
-1117.452 324.251 1053.566 227 202 180
-1117.452 324.751 1053.582 223 198 176
-1116.952 319.751 1053.527 206 179 156
-1116.952 320.251 1053.538 198 172 149
-1116.952 320.751 1053.511 216 190 168
-1116.952 321.251 1053.494 228 201 180
-1116.952 321.751 1053.497 226 203 182
-1116.952 322.251 1053.503 223 201 180
-1116.952 322.751 1053.537 218 196 175
-1116.952 323.251 1053.560 221 199 178
-1116.952 323.751 1053.567 228 206 185
-1116.952 324.251 1053.569 226 204 183
-1116.952 324.751 1053.582 226 203 181
-1116.452 319.751 1053.559 209 181 159
-1116.452 320.251 1053.558 176 150 127
-1116.452 320.751 1053.536 204 177 156
-1116.452 321.251 1053.526 224 197 176
-1116.452 321.751 1053.512 223 201 180
-1116.452 322.251 1053.507 226 204 183
-1116.452 322.751 1053.542 223 201 180
-1116.452 323.251 1053.559 225 203 182
-1116.452 323.751 1053.573 228 206 185
-1116.452 324.251 1053.567 227 205 184
-1116.452 324.751 1053.567 228 206 184
-1115.952 319.751 1053.569 216 188 166
-1115.952 320.251 1053.569 180 153 132
-1115.952 320.751 1053.551 201 174 153
-1115.952 321.251 1053.547 222 195 174
-1115.952 321.751 1053.537 223 200 180
-1115.952 322.251 1053.524 225 203 182
-1115.952 322.751 1053.542 225 203 182
-1115.952 323.251 1053.549 226 204 183
-1115.952 323.751 1053.556 228 206 185
-1115.952 324.251 1053.558 228 206 185
-1115.952 324.751 1053.544 227 205 184
-1115.452 319.751 1053.561 216 188 166
-1115.452 320.251 1053.573 213 185 163
-1115.452 320.751 1053.558 208 183 160
-1115.452 321.251 1053.552 213 186 165
-1115.452 321.751 1053.544 224 201 180
-1115.452 322.251 1053.536 227 205 184
-1115.452 322.751 1053.537 227 205 184
-1115.452 323.251 1053.536 228 206 185
-1115.452 323.751 1053.536 227 206 185
-1115.452 324.251 1053.538 226 205 184
-1115.452 324.751 1053.533 226 205 184
-1114.952 319.751 1053.535 220 192 171
-1114.952 320.251 1053.550 217 191 168
-1114.952 320.751 1053.548 217 190 168
-1114.952 321.251 1053.545 216 189 168
-1114.952 321.751 1053.532 222 199 179
-1114.952 322.251 1053.534 227 205 184
-1114.952 322.751 1053.526 228 206 185
-1114.952 323.251 1053.522 228 206 185
-1114.952 323.751 1053.510 227 206 185
-1114.952 324.251 1053.501 227 206 185
-1114.952 324.751 1053.497 227 206 186
-1114.452 322.251 1053.515 225 203 182
-1114.452 322.751 1053.503 226 204 183
-1114.452 323.251 1053.500 227 205 184
-1114.452 323.751 1053.480 226 205 184
-1114.452 324.251 1053.461 228 207 186
-1114.452 324.751 1053.448 230 208 187
-1109.452 319.751 1053.529 222 198 174
-1109.452 320.251 1053.553 222 198 174
-1109.452 320.751 1053.567 222 200 176
-1109.452 321.251 1053.571 226 204 180
-1109.452 321.751 1053.591 226 204 181
-1108.952 319.751 1053.539 222 196 173
-1108.952 320.251 1053.542 222 198 174
-1108.952 320.751 1053.553 226 203 179
-1108.952 321.251 1053.572 227 205 182
-1108.952 321.751 1053.595 226 204 181
-1108.952 322.251 1053.575 224 202 179
-1108.952 322.751 1053.600 223 201 178
-1108.952 323.251 1053.621 225 203 180
-1108.952 323.751 1053.656 227 205 182
-1108.952 324.251 1053.677 227 205 182
-1108.952 324.751 1053.695 226 205 181
-1108.452 319.751 1053.551 221 195 172
-1108.452 320.251 1053.546 223 199 175
-1108.452 320.751 1053.553 228 205 182
-1108.452 321.251 1053.585 227 205 182
-1108.452 321.751 1053.602 224 202 179
-1108.452 322.251 1053.598 222 200 177
-1108.452 322.751 1053.628 225 203 180
-1108.452 323.251 1053.654 225 203 180
-1108.452 323.751 1053.699 226 204 181
-1108.452 324.251 1053.718 226 204 181
-1108.452 324.751 1053.725 225 203 180
-1112.952 319.751 1053.525 222 200 177
-1112.952 320.251 1053.536 222 200 177
-1112.952 320.751 1053.536 223 202 181
-1112.952 321.251 1053.531 226 205 184
-1112.952 321.751 1053.527 226 204 183
-1112.952 322.251 1053.503 223 201 180
-1112.952 322.751 1053.468 224 202 181
-1112.952 323.251 1053.437 225 203 182
-1112.952 323.751 1053.445 226 205 184
-1112.952 324.251 1053.436 227 206 185
-1112.952 324.751 1053.425 227 206 186
-1112.452 319.751 1053.524 223 201 178
-1112.452 320.251 1053.533 221 199 176
-1112.452 320.751 1053.532 218 197 176
-1112.452 321.251 1053.532 222 201 180
-1112.452 321.751 1053.535 226 204 183
-1112.452 322.251 1053.509 224 202 180
-1112.452 322.751 1053.451 222 200 179
-1112.452 323.251 1053.443 225 203 181
-1112.452 323.751 1053.453 226 205 183
-1112.452 324.251 1053.445 227 205 184
-1112.452 324.751 1053.431 227 206 186
-1111.952 319.751 1053.531 227 205 184
-1111.952 320.251 1053.535 225 203 182
-1111.952 320.751 1053.536 220 198 177
-1111.952 321.251 1053.542 221 199 178
-1111.952 321.751 1053.537 222 200 177
-1111.952 322.251 1053.515 223 201 178
-1111.952 322.751 1053.469 224 202 179
-1111.952 323.251 1053.465 226 204 181
-1111.952 323.751 1053.465 228 206 183
-1111.952 324.251 1053.459 227 205 182
-1111.952 324.751 1053.458 224 204 182
-1111.452 319.751 1053.535 230 207 184
-1111.452 320.251 1053.538 230 207 184
-1111.452 320.751 1053.537 225 203 180
-1111.452 321.251 1053.538 224 202 179
-1111.452 321.751 1053.531 223 201 178
-1111.452 322.251 1053.517 223 201 178
-1111.452 322.751 1053.493 225 203 180
-1111.452 323.251 1053.494 226 204 181
-1111.452 323.751 1053.493 227 205 182
-1111.452 324.251 1053.494 225 203 180
-1111.452 324.751 1053.510 227 205 185
-1110.952 319.751 1053.537 226 204 181
-1110.952 320.251 1053.548 228 206 183
-1110.952 320.751 1053.546 227 205 182
-1110.952 321.251 1053.547 226 204 181
-1110.952 321.751 1053.533 227 205 182
-1110.952 322.251 1053.514 224 202 179
-1110.952 322.751 1053.505 226 204 181
-1110.952 323.251 1053.519 225 203 180
-1110.952 323.751 1053.520 227 205 182
-1110.952 324.251 1053.523 225 203 180
-1110.952 324.751 1053.535 225 204 182
-1110.452 319.751 1053.531 225 200 178
-1110.452 320.251 1053.555 220 198 175
-1110.452 320.751 1053.555 222 200 177
-1110.452 321.251 1053.559 224 202 179
-1110.452 321.751 1053.556 227 205 182
-1110.452 322.251 1053.546 227 205 182
-1110.452 322.751 1053.530 226 204 181
-1110.452 323.251 1053.535 226 204 181
-1110.452 323.751 1053.542 226 204 181
-1110.452 324.251 1053.545 226 204 181
-1110.452 324.751 1053.552 226 205 182
-1109.952 319.751 1053.521 221 196 173
-1109.952 320.251 1053.557 214 190 167
-1109.952 320.751 1053.571 217 195 172
-1109.952 321.251 1053.569 224 202 179
-1109.952 321.751 1053.577 223 201 178
-1109.952 322.251 1053.572 226 204 181
-1109.952 322.751 1053.569 224 202 179
-1109.952 323.251 1053.573 224 202 179
-1109.952 323.751 1053.584 226 204 181
-1109.952 324.251 1053.587 227 205 182
-1109.952 324.751 1053.596 227 205 183
-1109.452 322.251 1053.575 225 203 180
-1109.452 322.751 1053.592 221 199 176
-1109.452 323.251 1053.614 223 201 178
-1109.452 323.751 1053.627 225 203 180
-1109.452 324.251 1053.637 227 205 182
-1109.452 324.751 1053.656 226 204 182
-1103.952 319.751 1053.478 227 203 179
-1103.952 320.251 1053.481 228 204 180
-1103.952 320.751 1053.497 226 202 178
-1103.952 321.251 1053.529 226 202 178
-1103.952 321.751 1053.569 224 199 175
-1103.452 319.751 1053.474 230 205 181
-1103.452 320.251 1053.488 227 203 179
-1103.452 320.751 1053.505 222 198 174
-1103.452 321.251 1053.538 221 197 173
-1103.452 321.751 1053.579 223 197 172
-1103.452 322.251 1053.613 222 196 171
-1103.452 322.751 1053.641 219 193 168
-1103.452 323.251 1053.662 217 191 166
-1103.452 323.751 1053.671 218 192 167
-1103.452 324.251 1053.671 219 193 168
-1103.452 324.751 1053.676 222 196 171
-1102.952 319.751 1053.478 225 201 177
-1102.952 320.251 1053.501 223 199 175
-1102.952 320.751 1053.527 217 193 170
-1102.952 321.251 1053.566 216 192 168
-1102.952 321.751 1053.605 220 194 170
-1102.952 322.251 1053.628 225 199 174
-1102.952 322.751 1053.643 223 197 172
-1102.952 323.251 1053.648 222 196 171
-1102.952 323.751 1053.658 221 195 171
-1102.952 324.251 1053.671 220 194 170
-1102.952 324.751 1053.676 223 197 172
-1107.952 319.751 1053.557 216 191 167
-1107.952 320.251 1053.555 224 200 177
-1107.952 320.751 1053.558 230 207 184
-1107.952 321.251 1053.594 228 206 183
-1107.952 321.751 1053.616 226 204 181
-1107.952 322.251 1053.624 224 202 179
-1107.952 322.751 1053.657 224 202 179
-1107.952 323.251 1053.688 224 202 179
-1107.952 323.751 1053.723 224 202 179
-1107.952 324.251 1053.737 224 202 179
-1107.952 324.751 1053.742 225 203 180
-1107.452 319.751 1053.560 212 187 165
-1107.452 320.251 1053.562 223 201 178
-1107.452 320.751 1053.578 230 207 184
-1107.452 321.251 1053.605 227 207 183
-1107.452 321.751 1053.631 228 206 183
-1107.452 322.251 1053.642 228 206 183
-1107.452 322.751 1053.676 225 203 180
-1107.452 323.251 1053.696 224 202 179
-1107.452 323.751 1053.717 223 201 178
-1107.452 324.251 1053.724 222 200 177
-1107.452 324.751 1053.734 225 203 180
-1106.952 319.751 1053.567 223 198 176
-1106.952 320.251 1053.568 226 204 181
-1106.952 320.751 1053.606 230 207 185
-1106.952 321.251 1053.618 227 206 185
-1106.952 321.751 1053.653 227 205 182
-1106.952 322.251 1053.658 228 206 183
-1106.952 322.751 1053.680 224 202 179
-1106.952 323.251 1053.689 222 200 177
-1106.952 323.751 1053.696 224 202 179
-1106.952 324.251 1053.703 224 202 179
-1106.952 324.751 1053.724 226 202 180
-1106.452 319.751 1053.568 228 203 181
-1106.452 320.251 1053.568 227 205 182
-1106.452 320.751 1053.611 228 206 185
-1106.452 321.251 1053.619 225 204 183
-1106.452 321.751 1053.660 227 205 182
-1106.452 322.251 1053.672 228 206 183
-1106.452 322.751 1053.680 225 203 180
-1106.452 323.251 1053.684 224 202 179
-1106.452 323.751 1053.688 226 204 181
-1106.452 324.251 1053.695 225 203 180
-1106.452 324.751 1053.720 226 203 181
-1105.952 319.751 1053.557 225 201 178
-1105.952 320.251 1053.560 225 201 178
-1105.952 320.751 1053.607 225 202 179
-1105.952 321.251 1053.613 224 201 178
-1105.952 321.751 1053.644 228 204 181
-1105.952 322.251 1053.662 228 204 181
-1105.952 322.751 1053.677 230 205 183
-1105.952 323.251 1053.683 228 205 182
-1105.952 323.751 1053.694 228 205 182
-1105.952 324.251 1053.699 227 204 181
-1105.952 324.751 1053.719 227 202 180
-1105.452 319.751 1053.537 224 200 176
-1105.452 320.251 1053.544 224 200 176
-1105.452 320.751 1053.586 225 201 177
-1105.452 321.251 1053.598 225 201 177
-1105.452 321.751 1053.617 225 201 177
-1105.452 322.251 1053.632 227 203 179
-1105.452 322.751 1053.658 230 205 181
-1105.452 323.251 1053.674 230 205 181
-1105.452 323.751 1053.699 231 206 182
-1105.452 324.251 1053.702 231 206 182
-1105.452 324.751 1053.715 228 204 180
-1104.952 319.751 1053.514 225 201 177
-1104.952 320.251 1053.518 225 201 177
-1104.952 320.751 1053.543 226 202 178
-1104.952 321.251 1053.571 226 202 178
-1104.952 321.751 1053.594 225 201 177
-1104.952 322.251 1053.603 226 202 178
-1104.952 322.751 1053.629 228 204 180
-1104.952 323.251 1053.659 228 204 180
-1104.952 323.751 1053.690 230 205 181
-1104.952 324.251 1053.693 227 203 179
-1104.952 324.751 1053.708 225 201 177
-1104.452 319.751 1053.493 227 203 179
-1104.452 320.251 1053.492 225 201 177
-1104.452 320.751 1053.509 225 201 177
-1104.452 321.251 1053.544 225 201 177
-1104.452 321.751 1053.573 226 202 178
-1104.452 322.251 1053.588 225 201 177
-1104.452 322.751 1053.615 226 202 178
-1104.452 323.251 1053.661 226 202 178
-1104.452 323.751 1053.682 226 202 178
-1104.452 324.251 1053.685 224 200 176
-1104.452 324.751 1053.696 220 196 172
-1103.952 322.251 1053.594 223 197 173
-1103.952 322.751 1053.628 222 197 173
-1103.952 323.251 1053.672 218 193 170
-1103.952 323.751 1053.681 219 194 170
-1103.952 324.251 1053.682 220 194 171
-1103.952 324.751 1053.685 217 191 167
-1102.452 319.751 1053.485 221 195 171
-1102.452 320.251 1053.508 217 191 166
-1102.452 320.751 1053.551 214 188 163
-1102.452 321.251 1053.584 217 191 166
-1102.452 321.751 1053.621 218 192 167
-1102.452 322.251 1053.636 223 197 172
-1102.452 322.751 1053.646 226 200 175
-1102.452 323.251 1053.647 226 199 175
-1102.452 323.751 1053.654 224 198 173
-1102.452 324.251 1053.672 223 196 172
-1102.452 324.751 1053.685 224 195 171
-1101.952 319.751 1053.488 220 194 170
-1101.952 320.251 1053.519 220 194 170
-1101.952 320.751 1053.566 221 195 171
-1101.952 321.251 1053.592 224 198 173
-1101.952 321.751 1053.618 227 199 175
-1101.952 322.251 1053.643 230 201 177
-1101.452 319.751 1053.479 224 196 172
-1101.452 320.251 1053.528 223 195 171
-1100.952 319.751 1053.466 224 196 172
-1135.952 325.251 1052.551 170 153 143
-1135.952 325.751 1052.528 171 154 143
-1135.952 326.251 1052.475 175 159 146
-1135.952 326.751 1052.458 177 161 148
-1135.952 327.251 1052.438 172 156 143
-1135.452 325.251 1052.556 174 157 147
-1135.452 325.751 1052.525 168 150 140
-1135.452 326.251 1052.481 170 153 143
-1135.452 326.751 1052.459 179 162 149
-1135.452 327.251 1052.445 173 157 144
-1135.452 327.751 1052.424 173 157 144
-1135.452 328.251 1052.420 169 153 140
-1135.452 328.751 1052.432 168 152 139
-1135.452 329.251 1052.458 170 154 141
-1135.452 329.751 1052.479 185 169 156
-1135.452 330.251 1052.512 180 164 151
-1134.952 325.251 1052.565 175 158 148
-1134.952 325.751 1052.552 170 153 143
-1134.952 326.251 1052.530 169 152 142
-1134.952 326.751 1052.488 175 159 146
-1134.952 327.251 1052.471 175 159 146
-1134.952 327.751 1052.480 173 157 143
-1134.952 328.251 1052.495 170 154 141
-1134.952 328.751 1052.494 171 155 142
-1134.952 329.251 1052.495 184 168 154
-1134.952 329.751 1052.520 188 172 159
-1134.952 330.251 1052.552 184 168 154
-1136.952 327.751 1052.435 162 145 135
-1136.952 328.251 1052.404 179 163 148
-1136.952 329.251 1052.375 188 172 157
-1136.952 330.251 1052.432 166 149 134
-1136.452 325.251 1052.554 168 151 138
-1136.452 325.751 1052.549 172 156 143
-1136.452 326.251 1052.521 173 157 144
-1136.452 326.751 1052.474 170 154 141
-1136.452 327.251 1052.443 164 147 136
-1136.452 327.751 1052.405 166 149 137
-1136.452 328.251 1052.391 176 160 145
-1136.452 328.751 1052.391 177 161 146
-1136.452 329.251 1052.403 179 162 147
-1136.452 329.751 1052.432 164 148 133
-1136.452 330.251 1052.472 159 143 129
-1135.952 327.751 1052.400 174 158 145
-1135.952 328.251 1052.391 169 153 140
-1135.952 328.751 1052.404 162 146 133
-1135.952 329.251 1052.433 168 152 139
-1135.952 329.751 1052.455 172 156 143
-1135.952 330.251 1052.493 162 146 133
-1130.452 325.251 1052.822 139 126 118
-1130.452 325.751 1052.795 145 132 123
-1130.452 326.251 1052.757 151 138 129
-1130.452 326.751 1052.748 158 144 135
-1130.452 327.251 1052.746 153 139 128
-1129.952 325.251 1052.814 147 131 119
-1129.952 325.751 1052.783 159 144 132
-1129.952 326.251 1052.748 168 151 138
-1129.952 326.751 1052.732 168 151 137
-1129.952 327.251 1052.723 171 154 140
-1129.952 327.751 1052.729 179 162 147
-1129.952 328.251 1052.742 189 171 154
-1129.952 328.751 1052.747 196 179 161
-1129.952 329.251 1052.740 198 179 159
-1129.952 329.751 1052.724 196 174 153
-1129.952 330.251 1052.720 197 173 151
-1129.452 325.251 1052.778 175 157 143
-1129.452 325.751 1052.763 188 171 156
-1129.452 326.251 1052.732 198 181 165
-1129.452 326.751 1052.710 198 179 163
-1129.452 327.251 1052.705 203 184 168
-1129.452 327.751 1052.705 206 187 171
-1129.452 328.251 1052.709 206 188 166
-1129.452 328.751 1052.700 204 184 163
-1129.452 329.251 1052.679 201 180 159
-1129.452 329.751 1052.666 200 179 157
-1129.452 330.251 1052.668 211 189 166
-1134.452 325.251 1052.568 179 164 154
-1134.452 325.751 1052.566 173 159 148
-1134.452 326.251 1052.559 168 154 145
-1134.452 326.751 1052.536 168 154 145
-1134.452 327.251 1052.527 167 152 143
-1134.452 327.751 1052.551 164 150 141
-1134.452 328.251 1052.562 162 148 139
-1134.452 328.751 1052.554 168 154 142
-1134.452 329.251 1052.545 184 169 156
-1134.452 329.751 1052.568 184 169 156
-1134.452 330.251 1052.591 167 152 139
-1133.952 325.251 1052.565 168 154 145
-1133.952 325.751 1052.561 161 147 138
-1133.952 326.251 1052.569 162 148 139
-1133.952 326.751 1052.572 168 154 145
-1133.952 327.251 1052.581 169 155 146
-1133.952 327.751 1052.600 168 153 144
-1133.952 328.251 1052.610 166 151 142
-1133.952 328.751 1052.612 168 154 143
-1133.952 329.251 1052.617 181 168 154
-1133.952 329.751 1052.629 186 172 159
-1133.952 330.251 1052.643 169 155 144
-1133.452 325.251 1052.564 154 139 132
-1133.452 325.751 1052.561 162 148 139
-1133.452 326.251 1052.582 168 153 144
-1133.452 326.751 1052.599 173 159 150
-1133.452 327.251 1052.620 175 161 152
-1133.452 327.751 1052.628 174 160 151
-1133.452 328.251 1052.637 170 156 147
-1133.452 328.751 1052.651 170 156 145
-1133.452 329.251 1052.678 171 157 146
-1133.452 329.751 1052.688 177 163 152
-1133.452 330.251 1052.706 162 148 137
-1132.952 325.251 1052.599 148 135 127
-1132.952 325.751 1052.593 160 147 139
-1132.952 326.251 1052.606 168 154 146
-1132.952 326.751 1052.626 170 157 148
-1132.952 327.251 1052.660 168 155 146
-1132.952 327.751 1052.672 163 150 141
-1132.952 328.251 1052.686 154 142 130
-1132.952 328.751 1052.707 152 139 130
-1132.952 329.251 1052.748 172 159 150
-1132.952 329.751 1052.746 177 164 155
-1132.952 330.251 1052.747 170 157 148
-1132.452 325.251 1052.659 148 135 129
-1132.452 325.751 1052.652 155 142 134
-1132.452 326.251 1052.639 168 154 146
-1132.452 326.751 1052.654 172 159 150
-1132.452 327.251 1052.702 167 153 144
-1132.452 327.751 1052.730 156 144 132
-1132.452 328.251 1052.754 150 138 126
-1132.452 328.751 1052.783 154 141 132
-1132.452 329.251 1052.828 168 154 146
-1132.452 329.751 1052.827 162 149 141
-1132.452 330.251 1052.803 166 152 143
-1131.952 325.251 1052.726 143 130 124
-1131.952 325.751 1052.722 143 130 124
-1131.952 326.251 1052.699 152 139 131
-1131.952 326.751 1052.700 169 156 148
-1131.952 327.251 1052.734 168 155 146
-1131.952 327.751 1052.769 163 151 139
-1131.952 328.251 1052.802 160 148 136
-1131.952 328.751 1052.851 158 145 136
-1131.952 329.251 1052.900 153 140 132
-1131.952 329.751 1052.901 148 135 127
-1131.952 330.251 1052.869 146 133 125
-1131.452 325.251 1052.772 134 123 119
-1131.452 325.751 1052.770 136 125 121
-1131.452 326.251 1052.757 145 134 128
-1131.452 326.751 1052.747 159 147 141
-1131.452 327.251 1052.761 158 145 139
-1131.452 327.751 1052.792 153 140 132
-1131.452 328.251 1052.840 152 139 131
-1131.452 328.751 1052.901 150 137 129
-1131.452 329.251 1052.942 149 136 128
-1131.452 329.751 1052.933 137 124 116
-1131.452 330.251 1052.894 135 122 112
-1130.952 325.251 1052.809 134 123 117
-1130.952 325.751 1052.792 138 127 121
-1130.952 326.251 1052.769 153 140 133
-1130.952 326.751 1052.759 155 142 134
-1130.952 327.251 1052.766 155 142 134
-1130.952 327.751 1052.795 159 146 137
-1130.952 328.251 1052.849 172 158 148
-1130.952 328.751 1052.901 160 146 136
-1130.952 329.251 1052.927 151 137 127
-1130.952 329.751 1052.901 144 129 117
-1130.952 330.251 1052.868 142 127 114
-1130.452 327.751 1052.764 160 145 134
-1130.452 328.251 1052.804 175 158 144
-1130.452 328.751 1052.834 171 155 140
-1130.452 329.251 1052.842 175 157 143
-1130.452 329.751 1052.813 179 161 144
-1130.452 330.251 1052.797 180 160 143
-1125.452 325.251 1052.987 153 136 128
-1125.452 325.751 1052.962 179 161 151
-1125.452 326.251 1052.956 181 164 154
-1125.452 326.751 1052.966 175 158 147
-1125.452 327.251 1052.980 171 154 144
-1124.952 325.251 1053.071 162 144 134
-1124.952 325.751 1053.050 186 168 158
-1124.952 326.251 1053.039 185 168 158
-1124.952 326.751 1053.071 176 161 148
-1124.952 327.251 1053.125 172 158 145
-1124.952 327.751 1053.152 168 153 140
-1124.952 328.251 1053.153 170 153 145
-1124.952 328.751 1053.130 168 151 143
-1124.952 329.251 1053.077 169 152 145
-1124.952 329.751 1053.054 159 142 135
-1124.952 330.251 1052.992 157 140 133
-1124.452 325.251 1053.190 155 137 123
-1124.452 325.751 1053.180 181 163 149
-1124.452 326.251 1053.180 183 164 151
-1124.452 326.751 1053.206 179 164 151
-1124.452 327.251 1053.249 179 166 152
-1124.452 327.751 1053.276 174 160 147
-1124.452 328.251 1053.283 168 154 143
-1124.452 328.751 1053.272 163 149 139
-1124.452 329.251 1053.227 167 149 141
-1124.452 329.751 1053.193 166 148 141
-1124.452 330.251 1053.130 164 147 140
-1128.952 325.251 1052.725 202 184 166
-1128.952 325.751 1052.730 206 187 171
-1128.952 326.251 1052.706 205 186 170
-1128.952 326.751 1052.683 208 189 170
-1128.952 327.251 1052.678 212 191 172
-1128.952 327.751 1052.677 213 192 173
-1128.952 328.251 1052.680 214 196 174
-1128.952 328.751 1052.672 218 200 178
-1128.952 329.251 1052.654 223 202 181
-1128.952 329.751 1052.643 228 207 186
-1128.952 330.251 1052.647 228 207 186
-1128.452 325.251 1052.681 196 179 158
-1128.452 325.751 1052.686 202 184 163
-1128.452 326.251 1052.689 209 188 168
-1128.452 326.751 1052.668 213 192 172
-1128.452 327.251 1052.671 222 201 180
-1128.452 327.751 1052.667 222 201 180
-1128.452 328.251 1052.670 222 205 181
-1128.452 328.751 1052.660 227 209 187
-1128.452 329.251 1052.644 224 206 184
-1128.452 329.751 1052.637 226 208 188
-1128.452 330.251 1052.653 222 204 184
-1127.952 325.251 1052.646 186 166 148
-1127.952 325.751 1052.648 195 174 155
-1127.952 326.251 1052.663 202 181 160
-1127.952 326.751 1052.667 212 191 171
-1127.952 327.251 1052.684 223 202 182
-1127.952 327.751 1052.681 222 201 182
-1127.952 328.251 1052.684 220 202 182
-1127.952 328.751 1052.680 223 205 185
-1127.952 329.251 1052.676 219 201 181
-1127.952 329.751 1052.676 219 201 181
-1127.952 330.251 1052.686 216 198 178
-1127.452 325.251 1052.639 188 169 154
-1127.452 325.751 1052.640 191 172 155
-1127.452 326.251 1052.656 199 181 161
-1127.452 326.751 1052.683 204 186 166
-1127.452 327.251 1052.703 212 193 176
-1127.452 327.751 1052.702 218 199 182
-1127.452 328.251 1052.704 224 206 186
-1127.452 328.751 1052.714 222 204 184
-1127.452 329.251 1052.725 219 201 181
-1127.452 329.751 1052.730 223 205 185
-1127.452 330.251 1052.730 223 202 183
-1126.952 325.251 1052.667 194 175 161
-1126.952 325.751 1052.672 199 180 165
-1126.952 326.251 1052.694 200 181 164
-1126.952 326.751 1052.715 198 179 162
-1126.952 327.251 1052.731 210 191 176
-1126.952 327.751 1052.724 214 195 180
-1126.952 328.251 1052.730 215 196 179
-1126.952 328.751 1052.737 216 197 180
-1126.952 329.251 1052.751 213 194 177
-1126.952 329.751 1052.755 208 189 172
-1126.952 330.251 1052.766 209 188 171
-1126.452 325.251 1052.742 173 155 143
-1126.452 325.751 1052.744 176 158 144
-1126.452 326.251 1052.758 173 156 140
-1126.452 326.751 1052.765 179 162 147
-1126.452 327.251 1052.771 188 170 157
-1126.452 327.751 1052.762 197 179 166
-1126.452 328.251 1052.762 200 184 168
-1126.452 328.751 1052.755 198 183 166
-1126.452 329.251 1052.771 194 177 161
-1126.452 329.751 1052.777 197 179 163
-1126.452 330.251 1052.792 197 179 163
-1125.952 325.251 1052.876 145 127 118
-1125.952 325.751 1052.849 161 143 132
-1125.952 326.251 1052.852 163 146 133
-1125.952 326.751 1052.857 163 146 133
-1125.952 327.251 1052.870 168 151 140
-1125.952 327.751 1052.862 170 153 142
-1125.952 328.251 1052.855 170 155 143
-1125.952 328.751 1052.837 169 154 142
-1125.952 329.251 1052.831 174 159 146
-1125.952 329.751 1052.808 185 168 156
-1125.952 330.251 1052.821 187 169 158
-1125.452 327.751 1052.985 162 145 135
-1125.452 328.251 1052.983 160 147 138
-1125.452 328.751 1052.968 163 149 140
-1125.452 329.251 1052.946 162 148 139
-1125.452 329.751 1052.908 162 148 139
-1125.452 330.251 1052.882 160 146 137
-1119.952 325.251 1053.534 218 193 171
-1119.952 325.751 1053.584 215 190 168
-1119.952 326.251 1053.624 220 195 173
-1119.952 326.751 1053.659 222 197 175
-1119.952 327.251 1053.682 221 196 174
-1119.452 325.251 1053.541 222 197 175
-1119.452 325.751 1053.599 216 191 170
-1119.452 326.251 1053.643 220 195 173
-1119.452 326.751 1053.677 221 196 174
-1119.452 327.251 1053.698 218 193 171
-1119.452 327.751 1053.714 221 196 174
-1119.452 328.251 1053.705 210 188 165
-1119.452 328.751 1053.683 206 184 161
-1119.452 329.251 1053.676 203 181 160
-1119.452 329.751 1053.670 206 184 163
-1119.452 330.251 1053.640 192 169 151
-1118.952 325.251 1053.557 222 197 175
-1118.952 325.751 1053.594 219 194 172
-1118.952 326.251 1053.655 216 191 170
-1118.952 326.751 1053.695 222 197 175
-1118.952 327.251 1053.718 220 195 173
-1118.952 327.751 1053.730 222 197 175
-1118.952 328.251 1053.723 222 200 177
-1118.952 328.751 1053.702 213 191 168
-1118.952 329.251 1053.696 207 185 162
-1118.952 329.751 1053.709 202 180 159
-1118.952 330.251 1053.699 209 184 164
-1123.952 325.251 1053.319 176 156 139
-1123.952 325.751 1053.300 189 169 152
-1123.952 326.251 1053.303 187 168 154
-1123.952 326.751 1053.312 170 152 138
-1123.952 327.251 1053.341 170 153 139
-1123.952 327.751 1053.401 175 158 146
-1123.952 328.251 1053.406 174 158 145
-1123.952 328.751 1053.401 160 145 132
-1123.952 329.251 1053.365 154 140 129
-1123.952 329.751 1053.315 159 145 136
-1123.952 330.251 1053.250 159 145 137
-1123.452 325.251 1053.406 194 172 151
-1123.452 325.751 1053.395 199 177 157
-1123.452 326.251 1053.401 209 188 171
-1123.452 326.751 1053.423 191 171 154
-1123.452 327.251 1053.456 174 155 140
-1123.452 327.751 1053.514 177 158 143
-1123.452 328.251 1053.523 183 166 149
-1123.452 328.751 1053.528 176 159 145
-1123.452 329.251 1053.490 170 154 141
-1123.452 329.751 1053.409 154 137 127
-1123.452 330.251 1053.329 159 145 136
-1122.952 325.251 1053.453 211 186 164
-1122.952 325.751 1053.467 206 181 159
-1122.952 326.251 1053.496 214 192 171
-1122.952 326.751 1053.511 212 190 171
-1122.952 327.251 1053.531 202 181 160
-1122.952 327.751 1053.568 198 177 158
-1122.952 328.251 1053.592 197 179 161
-1122.952 328.751 1053.604 195 176 160
-1122.952 329.251 1053.578 188 170 155
-1122.952 329.751 1053.494 158 140 129
-1122.952 330.251 1053.379 145 128 118
-1122.452 325.251 1053.494 212 185 164
-1122.452 325.751 1053.521 212 185 164
-1122.452 326.251 1053.551 218 192 171
-1122.452 326.751 1053.559 222 199 176
-1122.452 327.251 1053.580 217 195 171
-1122.452 327.751 1053.600 210 188 165
-1122.452 328.251 1053.620 203 183 163
-1122.452 328.751 1053.625 201 180 163
-1122.452 329.251 1053.603 197 179 163
-1122.452 329.751 1053.524 176 157 144
-1122.452 330.251 1053.407 150 131 121
-1121.952 325.251 1053.517 209 183 161
-1121.952 325.751 1053.561 207 181 159
-1121.952 326.251 1053.591 222 196 175
-1121.952 326.751 1053.600 220 196 173
-1121.952 327.251 1053.607 214 190 167
-1121.952 327.751 1053.618 210 186 163
-1121.952 328.251 1053.637 212 188 170
-1121.952 328.751 1053.639 200 177 159
-1121.952 329.251 1053.610 202 181 164
-1121.952 329.751 1053.524 173 152 138
-1121.952 330.251 1053.414 157 137 126
-1121.452 325.251 1053.523 213 188 166
-1121.452 325.751 1053.593 211 186 164
-1121.452 326.251 1053.606 221 196 174
-1121.452 326.751 1053.608 219 194 172
-1121.452 327.251 1053.613 213 188 166
-1121.452 327.751 1053.634 211 186 164
-1121.452 328.251 1053.650 214 189 170
-1121.452 328.751 1053.659 213 190 171
-1121.452 329.251 1053.615 196 175 158
-1121.452 329.751 1053.523 170 148 134
-1121.452 330.251 1053.425 187 168 154
-1120.952 325.251 1053.517 217 192 171
-1120.952 325.751 1053.583 220 195 173
-1120.952 326.251 1053.609 226 201 179
-1120.952 326.751 1053.632 223 198 176
-1120.952 327.251 1053.637 216 191 170
-1120.952 327.751 1053.643 215 190 168
-1120.952 328.251 1053.649 212 187 165
-1120.952 328.751 1053.651 214 191 172
-1120.952 329.251 1053.614 203 180 162
-1120.952 329.751 1053.561 166 143 128
-1120.952 330.251 1053.471 179 157 144
-1120.452 325.251 1053.534 224 199 177
-1120.452 325.751 1053.591 217 192 171
-1120.452 326.251 1053.621 224 199 177
-1120.452 326.751 1053.652 226 201 179
-1120.452 327.251 1053.665 220 195 173
-1120.452 327.751 1053.664 214 189 167
-1120.452 328.251 1053.665 212 190 167
-1120.452 328.751 1053.662 211 189 168
-1120.452 329.251 1053.634 213 190 172
-1120.452 329.751 1053.598 171 150 133
-1120.452 330.251 1053.514 179 157 142
-1119.952 327.751 1053.682 213 188 166
-1119.952 328.251 1053.681 199 177 154
-1119.952 328.751 1053.673 205 184 161
-1119.952 329.251 1053.651 211 188 168
-1119.952 329.751 1053.626 196 173 155
-1119.952 330.251 1053.565 174 151 135
-1114.452 325.251 1053.470 230 208 189
-1114.452 325.751 1053.478 230 208 189
-1114.452 326.251 1053.506 230 208 189
-1114.452 326.751 1053.574 230 208 189
-1114.452 327.251 1053.659 230 208 189
-1113.952 325.251 1053.447 230 208 189
-1113.952 325.751 1053.451 230 208 189
-1113.952 326.251 1053.475 228 207 188
-1113.952 326.751 1053.542 230 208 189
-1113.952 327.251 1053.635 230 208 189
-1113.952 327.751 1053.734 225 204 185
-1113.952 328.251 1053.767 225 204 185
-1113.952 328.751 1053.791 230 208 189
-1113.952 329.251 1053.812 230 208 187
-1113.952 329.751 1053.816 225 203 182
-1113.952 330.251 1053.815 222 200 179
-1113.452 325.251 1053.436 230 208 189
-1113.452 325.751 1053.458 230 208 189
-1113.452 326.251 1053.486 228 207 188
-1113.452 326.751 1053.535 230 208 189
-1113.452 327.251 1053.603 230 208 189
-1113.452 327.751 1053.699 225 204 185
-1113.452 328.251 1053.740 224 203 184
-1113.452 328.751 1053.772 230 208 189
-1113.452 329.251 1053.797 227 206 187
-1113.452 329.751 1053.806 226 204 183
-1113.452 330.251 1053.797 223 201 180
-1118.452 325.251 1053.572 211 185 162
-1118.452 325.751 1053.625 214 188 165
-1118.452 326.251 1053.672 216 191 168
-1118.452 326.751 1053.695 214 188 165
-1118.452 327.251 1053.704 219 193 171
-1118.452 327.751 1053.713 222 197 173
-1118.452 328.251 1053.727 217 195 171
-1118.452 328.751 1053.710 214 189 166
-1118.452 329.251 1053.703 210 185 163
-1118.452 329.751 1053.725 209 184 162
-1118.452 330.251 1053.718 215 188 167
-1117.952 325.251 1053.579 217 193 171
-1117.952 325.751 1053.635 209 184 161
-1117.952 326.251 1053.663 217 192 170
-1117.952 326.751 1053.682 215 191 168
-1117.952 327.251 1053.689 215 190 167
-1117.952 327.751 1053.692 215 190 167
-1117.952 328.251 1053.703 211 186 164
-1117.952 328.751 1053.693 214 188 167
-1117.952 329.251 1053.694 207 181 160
-1117.952 329.751 1053.707 203 176 155
-1117.952 330.251 1053.712 217 190 170
-1117.452 325.251 1053.611 223 198 176
-1117.452 325.751 1053.633 216 191 170
-1117.452 326.251 1053.661 215 190 168
-1117.452 326.751 1053.684 218 193 171
-1117.452 327.251 1053.685 221 196 174
-1117.452 327.751 1053.680 216 191 170
-1117.452 328.251 1053.686 212 185 164
-1117.452 328.751 1053.684 218 191 171
-1117.452 329.251 1053.687 213 186 165
-1117.452 329.751 1053.698 212 185 164
-1117.452 330.251 1053.718 218 190 168
-1116.952 325.251 1053.626 227 202 180
-1116.952 325.751 1053.637 223 198 176
-1116.952 326.251 1053.663 218 193 171
-1116.952 326.751 1053.687 218 193 171
-1116.952 327.251 1053.686 225 200 178
-1116.952 327.751 1053.681 217 192 171
-1116.952 328.251 1053.682 211 186 166
-1116.952 328.751 1053.685 219 193 171
-1116.952 329.251 1053.697 220 193 172
-1116.952 329.751 1053.696 219 193 171
-1116.952 330.251 1053.718 218 192 170
-1116.452 325.251 1053.594 228 206 183
-1116.452 325.751 1053.633 227 205 182
-1116.452 326.251 1053.660 222 200 177
-1116.452 326.751 1053.678 220 198 175
-1116.452 327.251 1053.681 226 204 182
-1116.452 327.751 1053.679 220 198 175
-1116.452 328.251 1053.680 220 195 175
-1116.452 328.751 1053.685 222 197 176
-1116.452 329.251 1053.690 225 200 178
-1116.452 329.751 1053.693 224 200 176
-1116.452 330.251 1053.714 220 194 171
-1115.952 325.251 1053.555 228 206 185
-1115.952 325.751 1053.593 231 208 187
-1115.952 326.251 1053.637 227 205 184
-1115.952 326.751 1053.674 222 200 179
-1115.952 327.251 1053.686 226 204 183
-1115.952 327.751 1053.693 230 207 186
-1115.952 328.251 1053.708 227 206 185
-1115.952 328.751 1053.710 224 203 182
-1115.952 329.251 1053.700 221 199 176
-1115.952 329.751 1053.696 220 198 174
-1115.952 330.251 1053.719 222 199 175
-1115.452 325.251 1053.538 227 206 187
-1115.452 325.751 1053.554 231 209 190
-1115.452 326.251 1053.593 230 208 189
-1115.452 326.751 1053.643 226 205 186
-1115.452 327.251 1053.681 227 206 187
-1115.452 327.751 1053.702 227 206 187
-1115.452 328.251 1053.732 227 206 185
-1115.452 328.751 1053.760 225 204 183
-1115.452 329.251 1053.761 225 204 183
-1115.452 329.751 1053.753 209 187 164
-1115.452 330.251 1053.731 223 201 178
-1114.952 325.251 1053.522 228 207 188
-1114.952 325.751 1053.533 230 208 189
-1114.952 326.251 1053.555 230 208 189
-1114.952 326.751 1053.608 227 206 187
-1114.952 327.251 1053.662 228 207 188
-1114.952 327.751 1053.707 227 206 187
-1114.952 328.251 1053.744 228 207 186
-1114.952 328.751 1053.788 225 204 183
-1114.952 329.251 1053.804 224 203 182
-1114.952 329.751 1053.801 219 197 174
-1114.952 330.251 1053.784 226 204 181
-1114.452 327.751 1053.731 227 206 187
-1114.452 328.251 1053.769 227 206 186
-1114.452 328.751 1053.795 231 209 188
-1114.452 329.251 1053.815 223 202 181
-1114.452 329.751 1053.815 221 199 178
-1114.452 330.251 1053.812 222 200 178
-1109.452 325.251 1053.665 225 203 182
-1109.452 325.751 1053.680 225 203 182
-1109.452 326.251 1053.690 226 204 183
-1109.452 326.751 1053.704 227 205 184
-1109.452 327.251 1053.699 228 206 185
-1108.952 325.251 1053.700 225 205 181
-1108.952 325.751 1053.711 223 203 179
-1108.952 326.251 1053.721 226 206 182
-1108.952 326.751 1053.724 227 207 183
-1108.952 327.251 1053.714 230 209 185
-1108.952 327.751 1053.704 227 207 183
-1108.952 328.251 1053.702 225 203 180
-1108.952 328.751 1053.705 224 202 179
-1108.952 329.251 1053.735 226 204 181
-1108.952 329.751 1053.752 226 204 181
-1108.952 330.251 1053.756 225 203 180
-1108.452 325.251 1053.727 221 199 176
-1108.452 325.751 1053.732 221 199 176
-1108.452 326.251 1053.739 226 204 181
-1108.452 326.751 1053.732 228 206 183
-1108.452 327.251 1053.717 231 208 185
-1108.452 327.751 1053.709 228 206 183
-1108.452 328.251 1053.708 225 203 180
-1108.452 328.751 1053.713 224 202 179
-1108.452 329.251 1053.735 225 203 180
-1108.452 329.751 1053.753 226 204 181
-1108.452 330.251 1053.754 228 206 183
-1112.952 325.251 1053.445 230 208 189
-1112.952 325.751 1053.479 230 208 189
-1112.952 326.251 1053.512 228 207 188
-1112.952 326.751 1053.552 230 208 189
-1112.952 327.251 1053.585 230 208 189
-1112.952 327.751 1053.656 226 205 186
-1112.952 328.251 1053.707 228 207 188
-1112.952 328.751 1053.753 231 209 190
-1112.952 329.251 1053.789 227 206 187
-1112.952 329.751 1053.796 226 203 185
-1112.952 330.251 1053.772 224 202 181
-1112.452 325.251 1053.456 228 208 188
-1112.452 325.751 1053.490 230 209 190
-1112.452 326.251 1053.521 230 209 190
-1112.452 326.751 1053.559 231 210 191
-1112.452 327.251 1053.581 228 208 189
-1112.452 327.751 1053.642 227 207 188
-1112.452 328.251 1053.688 227 206 189
-1112.452 328.751 1053.735 230 208 189
-1112.452 329.251 1053.781 231 209 190
-1112.452 329.751 1053.787 228 205 187
-1112.452 330.251 1053.774 227 205 184
-1111.952 325.251 1053.474 226 208 188
-1111.952 325.751 1053.507 230 211 191
-1111.952 326.251 1053.524 233 214 194
-1111.952 326.751 1053.557 232 213 193
-1111.952 327.251 1053.581 228 210 190
-1111.952 327.751 1053.636 227 209 189
-1111.952 328.251 1053.668 230 210 191
-1111.952 328.751 1053.712 230 208 189
-1111.952 329.251 1053.752 228 207 188
-1111.952 329.751 1053.757 228 207 188
-1111.952 330.251 1053.769 227 206 185
-1111.452 325.251 1053.518 228 207 188
-1111.452 325.751 1053.532 231 209 190
-1111.452 326.251 1053.542 233 211 192
-1111.452 326.751 1053.565 235 214 195
-1111.452 327.251 1053.585 233 212 193
-1111.452 327.751 1053.628 232 210 191
-1111.452 328.251 1053.641 231 209 190
-1111.452 328.751 1053.671 228 207 188
-1111.452 329.251 1053.727 228 207 188
-1111.452 329.751 1053.760 228 207 186
-1111.452 330.251 1053.783 230 207 186
-1110.952 325.251 1053.543 228 207 188
-1110.952 325.751 1053.561 230 208 189
-1110.952 326.251 1053.586 230 208 189
-1110.952 326.751 1053.603 233 211 192
-1110.952 327.251 1053.609 233 212 193
-1110.952 327.751 1053.623 228 207 188
-1110.952 328.251 1053.632 231 209 190
-1110.952 328.751 1053.655 227 206 187
-1110.952 329.251 1053.721 225 204 183
-1110.952 329.751 1053.768 228 206 185
-1110.952 330.251 1053.793 228 206 185
-1110.452 325.251 1053.566 226 205 184
-1110.452 325.751 1053.593 227 206 185
-1110.452 326.251 1053.617 227 206 185
-1110.452 326.751 1053.639 226 205 184
-1110.452 327.251 1053.650 228 207 186
-1110.452 327.751 1053.647 224 203 182
-1110.452 328.251 1053.639 227 206 187
-1110.452 328.751 1053.658 226 204 184
-1110.452 329.251 1053.720 224 202 181
-1110.452 329.751 1053.769 227 205 184
-1110.452 330.251 1053.803 227 204 183
-1109.952 325.251 1053.612 226 204 183
-1109.952 325.751 1053.635 225 203 182
-1109.952 326.251 1053.651 225 203 182
-1109.952 326.751 1053.671 223 201 180
-1109.952 327.251 1053.679 227 205 184
-1109.952 327.751 1053.674 226 204 183
-1109.952 328.251 1053.667 225 204 183
-1109.952 328.751 1053.675 225 203 182
-1109.952 329.251 1053.721 225 203 182
-1109.952 329.751 1053.756 225 203 181
-1109.952 330.251 1053.789 227 202 180
-1109.452 327.751 1053.694 225 203 182
-1109.452 328.251 1053.695 224 202 181
-1109.452 328.751 1053.701 226 204 183
-1109.452 329.251 1053.732 227 205 184
-1109.452 329.751 1053.751 227 202 180
-1109.452 330.251 1053.767 226 201 179
-1103.952 325.251 1053.687 216 190 166
-1103.952 325.751 1053.719 222 196 172
-1103.952 326.251 1053.762 225 199 175
-1103.952 326.751 1053.771 226 200 175
-1103.952 327.251 1053.758 227 201 177
-1103.452 325.251 1053.688 225 199 174
-1103.452 325.751 1053.714 224 198 173
-1103.452 326.251 1053.757 225 199 174
-1103.452 326.751 1053.771 227 201 176
-1103.452 327.251 1053.771 224 198 173
-1103.452 327.751 1053.784 223 197 172
-1103.452 328.251 1053.791 223 196 170
-1103.452 328.751 1053.815 221 194 167
-1103.452 329.251 1053.820 222 195 168
-1103.452 329.751 1053.829 225 195 170
-1103.452 330.251 1053.860 219 189 163
-1102.952 325.251 1053.689 225 199 174
-1102.952 325.751 1053.705 225 199 174
-1102.952 326.251 1053.739 226 200 175
-1102.952 326.751 1053.760 224 198 173
-1102.952 327.251 1053.778 221 195 171
-1102.952 327.751 1053.801 219 192 168
-1107.952 325.251 1053.748 222 200 177
