-1069.452 410.251 1055.447 224 189 159
-1069.452 410.751 1055.484 221 186 156
-1069.452 411.251 1055.514 217 183 152
-1068.952 410.751 1055.482 218 184 153
-1068.952 411.251 1055.515 217 183 154
-1068.452 410.751 1055.462 218 185 154
-1068.452 411.251 1055.500 221 186 158
-1067.952 410.751 1055.434 215 183 151
-1067.952 411.251 1055.492 216 183 154
-1067.452 410.751 1055.415 214 179 151
-1067.452 411.251 1055.479 210 177 146
-1066.952 410.751 1055.408 214 179 150
-1066.952 411.251 1055.476 210 176 146
-1066.452 410.751 1055.410 214 179 150
-1066.452 411.251 1055.486 214 180 149
-1060.452 411.251 1055.719 221 187 160
-1059.952 411.251 1055.720 218 184 157
-1064.952 411.251 1055.579 215 181 151
-1064.452 411.251 1055.604 216 184 153
-1063.952 411.251 1055.614 210 176 148
-1063.452 411.251 1055.639 212 179 150
-1062.952 411.251 1055.680 214 180 152
-1061.952 411.251 1055.723 217 184 155
-1061.452 411.251 1055.728 213 179 151
-1060.952 411.251 1055.732 216 183 155
-1055.452 411.251 1055.616 211 177 149
-1054.952 411.251 1055.614 212 179 150
-1059.452 411.251 1055.728 214 180 153
-1058.952 411.251 1055.735 212 179 151
-1056.952 411.251 1055.630 212 179 150
-1056.452 411.251 1055.611 212 179 150
-1055.952 411.251 1055.614 213 179 151
-1049.952 411.251 1055.698 209 175 147
-1049.452 411.251 1055.853 201 168 140
-1052.952 411.251 1055.514 212 179 148
-1052.452 411.251 1055.488 212 179 149
-1051.952 411.251 1055.476 212 179 148
-1051.452 411.251 1055.475 212 179 148
-1050.952 411.251 1055.505 213 179 151
-1050.452 411.251 1055.595 211 177 149
-1048.952 410.751 1056.291 189 156 137
-1048.952 411.251 1056.185 195 161 136
-1048.452 410.751 1056.738 177 144 127
-1048.452 411.251 1056.683 184 151 128
-1047.952 410.751 1057.213 168 135 119
-1047.952 411.251 1057.220 184 151 132
-1098.452 411.751 1055.496 230 199 173
-1098.452 412.251 1055.548 231 200 174
-1098.452 412.751 1055.601 228 198 172
-1098.452 413.251 1055.661 230 199 173
-1098.452 413.751 1055.735 231 200 174
-1097.952 411.751 1055.447 230 200 174
-1097.952 412.251 1055.500 230 201 175
-1097.952 412.751 1055.566 230 200 174
-1097.952 413.251 1055.628 228 200 173
-1097.952 413.751 1055.700 232 202 176
-1097.952 414.251 1055.752 231 202 175
-1097.952 414.751 1055.810 225 195 170
-1097.952 415.251 1055.872 226 196 171
-1097.952 415.751 1055.941 230 199 173
-1097.952 416.251 1056.031 228 198 172
-1097.952 416.751 1056.117 231 200 174
-1097.452 411.751 1055.420 231 203 176
-1097.452 412.251 1055.483 231 203 176
-1097.452 412.751 1055.559 231 203 176
-1097.452 413.251 1055.624 230 202 175
-1097.452 413.751 1055.699 230 202 175
-1097.452 414.251 1055.750 227 200 173
-1097.452 414.751 1055.807 227 197 171
-1097.452 415.251 1055.865 228 198 172
-1097.452 415.751 1055.917 228 198 172
-1097.452 416.251 1055.987 228 198 172
-1097.452 416.751 1056.069 227 197 171
-1099.452 412.251 1055.717 223 193 167
-1099.452 412.751 1055.755 225 195 170
-1099.452 413.251 1055.804 228 198 172
-1099.452 413.751 1055.838 230 199 173
-1099.452 414.251 1055.880 228 198 172
-1098.952 411.751 1055.589 230 199 173
-1098.952 412.251 1055.622 232 201 175
-1098.952 412.751 1055.664 230 199 173
-1098.952 413.251 1055.705 228 198 172
-1098.952 413.751 1055.767 230 199 173
-1098.952 414.251 1055.826 231 200 174
-1098.952 414.751 1055.873 231 200 174
-1098.952 415.251 1055.959 230 199 173
-1098.952 415.751 1056.080 230 199 173
-1098.952 416.251 1056.160 233 202 176
-1098.952 416.751 1056.177 230 199 173
-1098.452 414.251 1055.789 232 201 175
-1098.452 414.751 1055.838 227 197 171
-1098.452 415.251 1055.898 226 196 171
-1098.452 415.751 1055.999 230 199 173
-1098.452 416.251 1056.100 227 197 171
-1098.452 416.751 1056.157 230 199 173
-1093.452 411.751 1055.488 227 197 171
-1093.452 412.251 1055.514 227 197 171
-1093.452 412.751 1055.564 226 196 171
-1093.452 413.251 1055.634 225 195 170
-1093.452 413.751 1055.691 225 195 170
-1092.952 411.751 1055.480 225 198 171
-1092.952 412.251 1055.506 225 198 171
-1092.952 412.751 1055.555 225 198 171
-1092.952 413.251 1055.625 225 198 171
-1092.952 413.751 1055.683 226 199 172
-1092.952 414.251 1055.739 226 199 172
-1092.952 414.751 1055.849 231 203 176
-1092.952 415.251 1055.945 232 204 177
-1092.952 415.751 1056.000 231 203 176
-1092.952 416.251 1056.078 231 203 176
-1092.952 416.751 1056.149 231 203 176
-1092.452 411.751 1055.465 225 198 171
-1092.452 412.251 1055.493 226 199 172
-1092.452 412.751 1055.543 226 199 172
-1092.452 413.251 1055.613 228 201 174
-1092.452 413.751 1055.681 231 203 176
-1092.452 414.251 1055.751 231 203 176
-1092.452 414.751 1055.828 233 205 178
-1092.452 415.251 1055.919 233 205 178
-1092.452 415.751 1056.002 231 203 176
-1092.452 416.251 1056.094 231 203 176
-1092.452 416.751 1056.154 231 203 176
-1096.952 411.751 1055.416 230 202 175
-1096.952 412.251 1055.481 227 200 173
-1096.952 412.751 1055.555 227 200 173
-1096.952 413.251 1055.613 226 199 172
-1096.952 413.751 1055.697 228 201 174
-1096.952 414.251 1055.772 228 201 174
-1096.952 414.751 1055.824 226 196 171
-1096.952 415.251 1055.865 228 198 172
-1096.952 415.751 1055.913 228 198 172
-1096.952 416.251 1055.971 227 197 171
-1096.952 416.751 1056.044 227 197 171
-1096.452 411.751 1055.421 226 199 172
-1096.452 412.251 1055.478 224 196 171
-1096.452 412.751 1055.557 224 197 171
-1096.452 413.251 1055.622 224 197 171
-1096.452 413.751 1055.694 227 199 172
-1096.452 414.251 1055.778 228 201 174
-1096.452 414.751 1055.835 228 198 172
-1096.452 415.251 1055.875 227 197 171
-1096.452 415.751 1055.919 225 195 170
-1096.452 416.251 1055.971 222 192 166
-1096.452 416.751 1056.047 222 192 166
-1095.952 411.751 1055.440 225 195 170
-1095.952 412.251 1055.504 226 196 171
-1095.952 412.751 1055.576 226 196 171
-1095.952 413.251 1055.638 227 197 171
-1095.952 413.751 1055.697 227 197 171
-1095.952 414.251 1055.784 225 195 170
-1095.952 414.751 1055.845 223 193 167
-1095.952 415.251 1055.888 222 192 166
-1095.952 415.751 1055.941 220 190 164
-1095.952 416.251 1055.993 219 189 163
-1095.952 416.751 1056.072 219 189 163
-1095.452 411.751 1055.450 226 196 171
-1095.452 412.251 1055.508 226 196 171
-1095.452 412.751 1055.560 222 192 166
-1095.452 413.251 1055.628 222 192 166
-1095.452 413.751 1055.692 217 187 161
-1095.452 414.251 1055.779 215 185 159
-1095.452 414.751 1055.847 217 187 161
-1095.452 415.251 1055.893 214 184 158
-1095.452 415.751 1055.958 216 186 160
-1095.452 416.251 1056.033 217 187 161
-1095.452 416.751 1056.116 218 188 162
-1094.952 411.751 1055.447 221 191 165
-1094.952 412.251 1055.500 223 193 167
-1094.952 412.751 1055.554 214 184 158
-1094.952 413.251 1055.630 213 184 157
-1094.952 413.751 1055.706 213 184 157
-1094.952 414.251 1055.789 220 190 164
-1094.952 414.751 1055.853 222 192 166
-1094.952 415.251 1055.894 223 193 167
-1094.952 415.751 1055.963 225 195 170
-1094.952 416.251 1056.050 224 194 168
-1094.952 416.751 1056.137 233 202 176
-1094.452 411.751 1055.445 224 194 168
-1094.452 412.251 1055.492 230 199 173
-1094.452 412.751 1055.553 228 198 172
-1094.452 413.251 1055.636 232 201 175
-1094.452 413.751 1055.708 231 200 174
-1094.452 414.251 1055.774 234 204 178
-1094.452 414.751 1055.839 231 203 176
-1094.452 415.251 1055.910 232 204 177
-1094.452 415.751 1055.988 230 202 175
-1094.452 416.251 1056.058 228 201 174
-1094.452 416.751 1056.142 232 204 177
-1093.952 411.751 1055.477 232 201 175
-1093.952 412.251 1055.500 230 199 173
-1093.952 412.751 1055.550 232 201 175
-1093.952 413.251 1055.632 231 200 174
-1093.952 413.751 1055.694 227 197 171
-1093.952 414.251 1055.758 228 198 172
-1093.952 414.751 1055.854 228 201 174
-1093.952 415.251 1055.940 228 201 174
-1093.952 415.751 1056.001 228 201 174
-1093.952 416.251 1056.054 228 201 174
-1093.952 416.751 1056.125 228 201 174
-1093.452 414.251 1055.758 226 196 171
-1093.452 414.751 1055.868 226 199 172
-1093.452 415.251 1055.961 228 201 174
-1093.452 415.751 1056.010 228 201 174
-1093.452 416.251 1056.057 230 202 175
-1093.452 416.751 1056.131 228 201 174
-1087.952 411.751 1055.825 214 180 153
-1087.952 412.251 1055.922 217 184 156
-1087.952 412.751 1056.025 212 179 151
-1087.952 413.251 1056.157 213 177 151
-1087.952 413.751 1056.314 202 167 140
-1087.952 414.251 1056.417 212 176 150
-1087.452 411.751 1055.878 217 186 158
-1087.452 412.251 1056.023 215 184 156
-1087.452 412.751 1056.188 215 183 155
-1087.452 413.251 1056.324 213 179 152
-1087.452 413.751 1056.480 200 167 139
-1087.452 414.251 1056.593 212 179 151
-1087.452 414.751 1056.672 215 181 154
-1087.452 415.251 1056.786 214 180 153
-1087.452 415.751 1056.862 215 179 153
-1087.452 416.251 1056.943 192 157 129
-1087.452 416.751 1057.077 204 168 140
-1086.952 411.751 1055.924 216 185 157
-1086.952 412.251 1056.113 211 180 152
-1086.952 412.751 1056.348 216 185 157
-1086.952 413.251 1056.527 219 185 158
-1086.952 413.751 1056.706 207 173 146
-1086.952 414.251 1056.832 214 180 153
-1086.952 414.751 1056.948 217 184 156
-1086.952 415.251 1057.064 219 185 158
-1086.952 415.751 1057.138 211 175 149
-1086.952 416.251 1057.211 196 161 133
-1091.952 411.751 1055.450 226 199 172
-1091.952 412.251 1055.485 227 200 173
-1091.952 412.751 1055.527 227 200 173
-1091.952 413.251 1055.596 230 202 175
-1091.952 413.751 1055.675 231 203 176
-1091.952 414.251 1055.747 230 202 175
-1091.952 414.751 1055.813 231 203 176
-1091.952 415.251 1055.911 232 204 177
-1091.952 415.751 1056.005 231 203 176
-1091.952 416.251 1056.097 230 202 175
-1091.952 416.751 1056.151 230 202 175
-1091.452 411.751 1055.401 228 198 172
-1091.452 412.251 1055.460 228 198 172
-1091.452 412.751 1055.511 228 198 172
-1091.452 413.251 1055.588 231 200 174
-1091.452 413.751 1055.681 233 202 176
-1091.452 414.251 1055.758 233 202 176
-1091.452 414.751 1055.821 232 201 173
-1091.452 415.251 1055.914 230 199 171
-1091.452 415.751 1056.006 231 200 172
-1091.452 416.251 1056.101 231 200 172
-1091.452 416.751 1056.169 231 200 172
-1090.952 411.751 1055.393 231 200 174
-1090.952 412.251 1055.469 231 200 174
-1090.952 412.751 1055.536 227 197 171
-1090.952 413.251 1055.605 228 198 172
-1090.952 413.751 1055.688 230 199 173
-1090.952 414.251 1055.784 230 199 173
-1090.952 414.751 1055.858 228 198 171
-1090.952 415.251 1055.938 224 194 166
-1090.952 415.751 1056.015 223 193 165
-1090.952 416.251 1056.097 226 196 168
-1090.952 416.751 1056.178 223 193 165
-1090.452 411.751 1055.442 231 200 174
-1090.452 412.251 1055.517 231 200 174
-1090.452 412.751 1055.579 225 195 170
-1090.452 413.251 1055.647 223 193 167
-1090.452 413.751 1055.737 224 194 168
-1090.452 414.251 1055.840 226 196 171
-1090.452 414.751 1055.899 223 193 165
-1090.452 415.251 1055.962 220 190 162
-1090.452 415.751 1056.046 218 188 160
-1090.452 416.251 1056.122 218 188 160
-1090.452 416.751 1056.190 219 189 161
-1089.952 411.751 1055.510 230 201 173
-1089.952 412.251 1055.564 231 201 174
-1089.952 412.751 1055.622 221 191 164
-1089.952 413.251 1055.695 212 183 155
-1089.952 413.751 1055.782 214 184 157
-1089.952 414.251 1055.873 222 192 165
-1089.952 414.751 1055.948 221 189 161
-1089.952 415.251 1056.033 218 186 158
-1089.952 415.751 1056.117 217 185 158
-1089.952 416.251 1056.199 218 185 157
-1089.952 416.751 1056.252 221 189 161
-1089.452 411.751 1055.563 227 197 170
-1089.452 412.251 1055.619 223 193 165
-1089.452 412.751 1055.695 220 190 162
-1089.452 413.251 1055.776 206 175 147
-1089.452 413.751 1055.846 207 176 148
-1089.452 414.251 1055.931 218 187 159
-1089.452 414.751 1056.049 220 186 159
-1089.452 415.251 1056.173 214 180 153
-1089.452 415.751 1056.261 216 183 155
-1089.452 416.251 1056.318 216 183 154
-1089.452 416.751 1056.351 222 188 160
-1088.952 411.751 1055.617 217 186 158
-1088.952 412.251 1055.717 214 184 155
-1088.952 412.751 1055.836 215 184 156
-1088.952 413.251 1055.923 210 176 149
-1088.952 413.751 1055.992 208 174 147
-1088.952 414.251 1056.082 216 183 155
-1088.952 414.751 1056.191 216 183 155
-1088.952 415.251 1056.286 213 179 152
-1088.952 415.751 1056.354 207 173 146
-1088.952 416.251 1056.402 210 176 148
-1088.952 416.751 1056.461 217 184 155
-1088.452 411.751 1055.700 210 179 151
-1088.452 412.251 1055.812 211 177 150
-1088.452 412.751 1055.936 208 174 147
-1088.452 413.251 1056.057 210 176 149
-1088.452 413.751 1056.169 206 170 144
-1088.452 414.251 1056.248 217 181 155
-1088.452 414.751 1056.315 210 176 149
-1088.452 415.251 1056.407 212 179 151
-1088.452 415.751 1056.519 208 174 147
-1088.452 416.251 1056.627 203 169 141
-1088.452 416.751 1056.708 211 176 148
-1087.952 414.751 1056.491 213 179 152
-1087.952 415.251 1056.595 212 179 151
-1087.952 415.751 1056.703 211 176 149
-1087.952 416.251 1056.802 197 162 134
-1087.952 416.751 1056.928 207 171 143
-1085.952 411.751 1056.111 225 191 164
-1085.952 412.251 1056.322 217 186 158
-1085.952 412.751 1056.562 230 198 171
-1085.952 413.251 1056.838 224 193 165
-1085.452 411.751 1056.197 217 184 156
-1085.452 412.251 1056.446 221 190 162
-1085.452 412.751 1056.698 233 201 173
-1085.452 413.251 1057.010 223 192 164
-1084.952 411.751 1056.295 222 188 161
-1084.952 412.251 1056.597 230 198 171
-1084.952 412.751 1056.835 232 200 172
-1084.952 413.251 1057.133 221 190 162
-1084.452 411.751 1056.450 219 185 158
-1084.452 412.251 1056.732 233 201 173
-1084.452 412.751 1056.998 226 195 167
-1083.952 411.751 1056.628 222 188 161
-1083.952 412.251 1056.885 228 197 170
-1083.952 412.751 1057.150 220 189 161
-1083.452 411.751 1056.759 224 193 165
-1083.452 412.251 1057.025 226 195 167
-1082.952 411.751 1056.882 228 197 170
-1082.952 412.251 1057.119 227 196 168
-1082.452 411.751 1056.964 233 201 173
-1082.452 412.251 1057.176 225 194 166
-1081.952 411.751 1057.036 234 203 175
-1081.952 412.251 1057.264 222 191 163
-1081.452 411.751 1057.066 234 203 175
-1086.452 411.751 1055.987 226 192 165
-1086.452 412.251 1056.200 216 185 157
-1086.452 412.751 1056.451 218 187 159
-1086.452 413.251 1056.677 221 190 162
-1086.452 413.751 1056.891 214 180 153
-1086.452 414.251 1057.062 219 185 158
-1086.452 414.751 1057.205 216 183 155
-1085.952 413.751 1057.083 211 177 150
-1076.952 411.751 1055.829 226 191 161
-1076.952 412.251 1056.002 222 185 156
-1076.952 412.751 1056.205 221 183 153
-1076.952 413.251 1056.470 220 181 150
-1076.952 413.751 1056.804 220 184 152
-1076.452 411.751 1055.741 213 179 148
-1076.452 412.251 1055.872 214 177 148
-1076.452 412.751 1056.018 218 179 150
-1076.452 413.251 1056.198 214 175 144
-1076.452 413.751 1056.493 219 184 151
-1076.452 414.251 1056.756 226 190 158
-1076.452 414.751 1056.897 226 188 159
-1076.452 415.251 1057.000 208 169 140
-1076.452 415.751 1057.042 190 152 123
-1076.452 416.251 1057.035 205 167 137
-1076.452 416.751 1057.025 217 179 149
-1075.952 411.751 1055.689 210 175 145
-1075.952 412.251 1055.806 213 176 147
-1075.952 412.751 1055.923 219 180 151
-1075.952 413.251 1056.039 216 177 146
-1075.952 413.751 1056.266 218 183 150
-1075.952 414.251 1056.484 224 188 156
-1075.952 414.751 1056.626 223 186 157
-1075.952 415.251 1056.721 209 172 143
-1075.952 415.751 1056.730 202 166 136
-1075.952 416.251 1056.707 205 168 139
-1075.952 416.751 1056.668 216 179 150
-1080.952 411.751 1057.016 233 201 173
-1080.452 411.751 1056.902 228 197 170
-1080.452 412.251 1057.198 234 203 175
-1079.952 411.751 1056.813 225 194 166
-1079.952 412.251 1057.104 234 201 173
-1079.452 411.751 1056.676 221 190 161
-1079.452 412.251 1056.940 232 197 170
-1079.452 412.751 1057.206 233 199 171
-1078.952 411.751 1056.448 219 185 157
-1078.952 412.251 1056.745 221 187 159
-1078.952 412.751 1057.012 228 193 164
-1078.952 413.251 1057.261 231 193 164
-1078.452 411.751 1056.226 219 185 157
-1078.452 412.251 1056.540 215 183 153
-1078.452 412.751 1056.812 219 184 154
-1078.452 413.251 1057.075 223 186 157
-1077.952 411.751 1056.070 216 184 153
-1077.952 412.251 1056.338 215 181 150
-1077.952 412.751 1056.633 220 184 154
-1077.952 413.251 1056.929 220 184 152
-1077.952 413.751 1057.211 223 186 154
-1077.452 411.751 1055.948 222 189 158
-1077.452 412.251 1056.178 219 184 154
-1077.452 412.751 1056.440 218 183 153
-1077.452 413.251 1056.748 219 184 151
-1077.452 413.751 1057.044 223 184 153
-1076.952 414.251 1057.073 228 192 160
-1076.952 414.751 1057.184 227 188 159
-1076.952 415.251 1057.252 208 169 140
-1071.952 411.751 1055.630 211 172 141
-1071.952 412.251 1055.646 212 171 141
-1071.952 412.751 1055.661 215 172 141
-1071.952 413.251 1055.672 216 173 141
-1071.952 413.751 1055.686 213 172 140
-1071.452 411.751 1055.620 212 173 142
-1071.452 412.251 1055.625 213 172 142
-1071.452 412.751 1055.631 214 170 140
-1071.452 413.251 1055.647 213 170 138
-1071.452 413.751 1055.664 215 174 142
-1071.452 414.251 1055.668 219 179 146
-1071.452 414.751 1055.678 213 176 147
-1071.452 415.251 1055.708 214 177 148
-1071.452 415.751 1055.753 215 180 150
-1071.452 416.251 1055.820 220 185 155
-1071.452 416.751 1055.891 219 184 156
-1070.952 411.751 1055.602 217 179 148
-1070.952 412.251 1055.608 216 175 145
-1070.952 412.751 1055.612 213 171 141
-1070.952 413.251 1055.621 210 168 136
-1070.952 413.751 1055.645 208 168 135
-1070.952 414.251 1055.659 210 171 140
-1070.952 414.751 1055.672 209 174 144
-1070.952 415.251 1055.703 212 177 147
-1070.952 415.751 1055.760 218 184 153
-1070.952 416.251 1055.832 224 190 159
-1070.952 416.751 1055.910 222 188 160
-1075.452 411.751 1055.663 217 183 152
-1075.452 412.251 1055.762 220 184 154
-1075.452 412.751 1055.876 223 184 155
-1075.452 413.251 1055.973 221 183 151
-1075.452 413.751 1056.132 219 184 151
-1075.452 414.251 1056.310 222 186 154
-1075.452 414.751 1056.418 216 179 150
-1075.452 415.251 1056.460 210 173 144
-1075.452 415.751 1056.464 209 172 143
-1075.452 416.251 1056.453 211 174 145
-1075.452 416.751 1056.422 217 180 151
-1074.952 411.751 1055.659 221 186 156
-1074.952 412.251 1055.729 220 184 154
-1074.952 412.751 1055.827 221 183 153
-1074.952 413.251 1055.932 218 179 148
-1074.952 413.751 1056.048 214 179 146
-1074.952 414.251 1056.163 218 183 150
-1074.952 414.751 1056.233 207 170 141
-1074.952 415.251 1056.253 213 176 147
-1074.952 415.751 1056.278 206 169 140
-1074.952 416.251 1056.295 212 175 146
-1074.952 416.751 1056.293 218 181 152
-1074.452 411.751 1055.666 215 180 150
-1074.452 412.251 1055.721 213 176 147
-1074.452 412.751 1055.791 210 171 142
-1074.452 413.251 1055.882 211 172 141
-1074.452 413.751 1055.980 210 174 142
-1074.452 414.251 1056.049 212 176 144
-1074.452 414.751 1056.084 209 174 144
-1074.452 415.251 1056.103 216 181 151
-1074.452 415.751 1056.125 208 173 143
-1074.452 416.251 1056.125 206 171 141
-1074.452 416.751 1056.109 213 179 148
-1073.952 411.751 1055.657 214 177 146
-1073.952 412.251 1055.713 215 175 145
-1073.952 412.751 1055.776 212 170 141
-1073.952 413.251 1055.837 211 170 138
-1073.952 413.751 1055.893 210 170 138
-1073.952 414.251 1055.927 212 174 142
-1073.952 414.751 1055.941 215 180 148
-1073.952 415.251 1055.960 213 179 147
-1073.952 415.751 1055.975 213 179 147
-1073.952 416.251 1055.964 209 174 143
-1073.952 416.751 1055.944 213 179 148
-1073.452 411.751 1055.659 211 172 141
-1073.452 412.251 1055.712 207 167 136
-1073.452 412.751 1055.757 209 167 135
-1073.452 413.251 1055.787 212 169 137
-1073.452 413.751 1055.812 212 171 139
-1073.452 414.251 1055.823 213 173 140
-1073.452 414.751 1055.830 214 179 144
-1073.452 415.251 1055.854 215 179 146
-1073.452 415.751 1055.875 213 179 146
-1073.452 416.251 1055.886 215 180 148
-1073.452 416.751 1055.889 214 179 147
-1072.952 411.751 1055.658 213 174 143
-1072.952 412.251 1055.706 205 164 134
-1072.952 412.751 1055.734 208 166 134
-1072.952 413.251 1055.749 211 168 136
-1072.952 413.751 1055.761 210 169 137
-1072.952 414.251 1055.767 211 170 138
-1072.952 414.751 1055.777 217 179 147
-1072.952 415.251 1055.805 216 180 148
-1072.952 415.751 1055.830 215 179 147
-1072.952 416.251 1055.855 218 183 150
-1072.952 416.751 1055.878 213 177 147
-1072.452 411.751 1055.646 213 174 143
-1072.452 412.251 1055.678 209 168 138
-1072.452 412.751 1055.701 212 169 138
-1072.452 413.251 1055.709 213 170 138
-1072.452 413.751 1055.718 209 168 136
-1072.452 414.251 1055.728 211 170 138
-1072.452 414.751 1055.743 216 177 146
-1072.452 415.251 1055.775 218 179 148
-1072.452 415.751 1055.808 216 177 146
-1072.452 416.251 1055.842 216 179 150
-1072.452 416.751 1055.885 214 177 148
-1071.952 414.251 1055.692 212 171 139
-1071.952 414.751 1055.702 212 173 142
-1071.952 415.251 1055.735 216 179 148
-1071.952 415.751 1055.777 216 179 150
-1071.952 416.251 1055.828 216 179 150
-1071.952 416.751 1055.885 214 177 149
-1066.452 411.751 1055.552 215 181 153
-1066.452 412.251 1055.604 212 179 150
-1066.452 412.751 1055.662 212 179 150
-1066.452 413.251 1055.736 213 179 152
-1066.452 413.751 1055.793 213 179 152
-1065.952 411.751 1055.583 218 184 156
-1065.952 412.251 1055.624 216 183 154
-1065.952 412.751 1055.672 206 172 144
-1065.952 413.251 1055.755 212 179 151
-1065.952 413.751 1055.838 214 180 153
-1065.952 414.251 1055.873 211 177 150
-1065.952 414.751 1055.886 211 176 148
-1065.952 415.251 1055.867 213 179 150
-1065.952 415.751 1055.844 215 180 152
-1065.952 416.251 1055.846 216 181 153
-1065.952 416.751 1055.848 215 180 150
-1065.452 411.751 1055.598 216 183 154
-1065.452 412.251 1055.647 217 184 155
-1065.452 412.751 1055.716 212 179 150
-1065.452 413.251 1055.799 209 175 148
-1065.452 413.751 1055.867 216 183 155
-1065.452 414.251 1055.902 216 183 155
-1065.452 414.751 1055.906 208 173 145
-1065.452 415.251 1055.874 208 173 145
-1065.452 415.751 1055.850 207 172 144
-1065.452 416.251 1055.853 208 173 145
-1065.452 416.751 1055.857 213 179 148
-1070.452 411.751 1055.565 219 184 154
-1070.452 412.251 1055.583 220 184 154
-1070.452 412.751 1055.597 215 179 149
-1070.452 413.251 1055.604 210 171 142
-1070.452 413.751 1055.628 207 168 139
-1070.452 414.251 1055.656 211 172 143
-1070.452 414.751 1055.681 210 174 142
-1070.452 415.251 1055.719 212 177 146
-1070.452 415.751 1055.785 220 186 156
-1070.452 416.251 1055.868 219 185 157
-1070.452 416.751 1055.934 218 187 159
-1069.952 411.751 1055.549 219 184 154
-1069.952 412.251 1055.572 219 184 154
-1069.952 412.751 1055.586 221 184 155
-1069.952 413.251 1055.599 220 183 153
-1069.952 413.751 1055.621 217 179 150
-1069.952 414.251 1055.658 217 180 151
-1069.952 414.751 1055.706 217 180 150
-1069.952 415.251 1055.764 216 181 151
-1069.952 415.751 1055.827 221 186 157
-1069.952 416.251 1055.897 221 187 159
-1069.952 416.751 1055.949 216 184 156
-1069.452 411.751 1055.549 218 184 153
-1069.452 412.251 1055.571 218 184 153
-1069.452 412.751 1055.580 215 180 150
-1069.452 413.251 1055.602 215 180 150
-1069.452 413.751 1055.640 215 180 150
-1069.452 414.251 1055.694 214 179 149
-1069.452 414.751 1055.755 215 179 149
-1069.452 415.251 1055.804 214 179 149
-1069.452 415.751 1055.847 219 184 156
-1069.452 416.251 1055.892 219 184 156
-1069.452 416.751 1055.933 218 184 156
-1068.952 411.751 1055.552 220 185 157
-1068.952 412.251 1055.579 218 184 155
-1068.952 412.751 1055.604 217 183 154
-1068.952 413.251 1055.639 216 183 154
-1068.952 413.751 1055.676 211 177 149
-1068.952 414.251 1055.726 210 176 148
-1068.952 414.751 1055.778 212 175 146
-1068.952 415.251 1055.813 212 177 147
-1068.952 415.751 1055.841 213 179 150
-1068.952 416.251 1055.877 217 183 154
-1068.952 416.751 1055.913 218 184 155
-1068.452 411.751 1055.544 223 188 160
-1068.452 412.251 1055.589 218 184 156
-1068.452 412.751 1055.631 215 181 153
-1068.452 413.251 1055.676 216 184 155
-1068.452 413.751 1055.716 213 180 152
-1068.452 414.251 1055.753 210 176 148
-1068.452 414.751 1055.784 212 177 149
-1068.452 415.251 1055.811 213 179 150
-1068.452 415.751 1055.836 210 175 147
-1068.452 416.251 1055.867 210 175 147
-1068.452 416.751 1055.894 217 183 154
-1067.952 411.751 1055.542 213 179 151
-1067.952 412.251 1055.606 211 177 149
-1067.952 412.751 1055.655 213 180 152
-1067.952 413.251 1055.692 214 183 153
-1067.952 413.751 1055.733 214 184 154
-1067.952 414.251 1055.773 211 179 150
-1067.952 414.751 1055.795 213 179 150
-1067.952 415.251 1055.812 214 179 151
-1067.952 415.751 1055.817 212 176 149
-1067.952 416.251 1055.840 210 174 147
-1067.952 416.751 1055.877 213 176 149
-1067.452 411.751 1055.541 215 181 153
-1067.452 412.251 1055.604 215 181 153
-1067.452 412.751 1055.655 212 179 150
-1067.452 413.251 1055.702 214 180 153
-1067.452 413.751 1055.752 217 184 156
-1067.452 414.251 1055.792 216 183 155
-1067.452 414.751 1055.808 213 179 150
-1067.452 415.251 1055.819 216 181 153
-1067.452 415.751 1055.820 214 179 151
-1067.452 416.251 1055.834 212 177 149
-1067.452 416.751 1055.863 210 175 145
-1066.952 411.751 1055.541 212 179 150
-1066.952 412.251 1055.609 211 177 149
-1066.952 412.751 1055.667 217 184 155
-1066.952 413.251 1055.721 213 179 152
-1066.952 413.751 1055.775 214 180 153
-1066.952 414.251 1055.809 215 181 154
-1066.952 414.751 1055.822 215 180 152
-1066.952 415.251 1055.828 217 183 154
-1066.952 415.751 1055.828 216 181 153
-1066.952 416.251 1055.834 214 179 151
-1066.952 416.751 1055.847 213 179 148
-1066.452 414.251 1055.819 216 183 155
-1066.452 414.751 1055.845 215 180 152
-1066.452 415.251 1055.840 216 181 153
-1066.452 415.751 1055.826 217 183 154
-1066.452 416.251 1055.838 216 181 153
-1066.452 416.751 1055.853 215 180 150
-1060.952 411.751 1055.766 213 179 152
-1060.952 412.251 1055.802 213 179 152
-1060.952 412.751 1055.804 214 180 153
-1060.952 413.251 1055.802 215 181 154
-1060.952 413.751 1055.816 212 179 151
-1060.452 411.751 1055.735 216 183 155
-1060.452 412.251 1055.766 218 184 157
-1060.452 412.751 1055.782 215 181 154
-1060.452 413.251 1055.788 216 183 155
-1060.452 413.751 1055.811 212 179 151
-1060.452 414.251 1055.830 208 174 147
-1060.452 414.751 1055.834 211 177 149
-1060.452 415.251 1055.831 212 179 150
-1060.452 415.751 1055.816 212 179 150
-1060.452 416.251 1055.803 210 176 148
-1060.452 416.751 1055.788 216 183 154
-1059.952 411.751 1055.719 216 183 155
-1059.952 412.251 1055.739 217 184 156
-1059.952 412.751 1055.757 215 181 154
-1059.952 413.251 1055.770 217 184 156
-1059.952 413.751 1055.796 214 180 153
-1059.952 414.251 1055.818 210 176 149
-1059.952 414.751 1055.837 206 172 144
-1059.952 415.251 1055.847 212 179 150
-1059.952 415.751 1055.824 212 179 150
-1059.952 416.251 1055.807 213 179 151
-1059.952 416.751 1055.800 216 183 154
-1064.952 411.751 1055.621 217 184 155
-1064.952 412.251 1055.682 216 183 154
-1064.952 412.751 1055.762 214 180 152
-1064.952 413.251 1055.826 210 176 149
-1064.952 413.751 1055.866 213 179 152
-1064.952 414.251 1055.899 213 179 152
-1064.952 414.751 1055.908 215 180 152
-1064.952 415.251 1055.885 217 183 154
-1064.952 415.751 1055.864 211 176 148
-1064.952 416.251 1055.857 208 173 145
-1064.952 416.751 1055.851 213 179 148
-1064.452 411.751 1055.631 218 184 156
-1064.452 412.251 1055.699 215 181 153
-1064.452 412.751 1055.783 214 180 152
-1064.452 413.251 1055.838 211 177 149
-1064.452 413.751 1055.874 210 176 149
-1064.452 414.251 1055.891 215 181 154
-1064.452 414.751 1055.897 215 181 153
-1064.452 415.251 1055.882 215 181 153
-1064.452 415.751 1055.864 215 180 152
-1064.452 416.251 1055.860 213 179 151
-1064.452 416.751 1055.862 213 179 148
-1063.952 411.751 1055.644 213 179 151
-1063.952 412.251 1055.715 213 179 151
-1063.952 412.751 1055.786 211 177 149
-1063.952 413.251 1055.834 206 172 144
-1063.952 413.751 1055.861 210 176 148
-1063.952 414.251 1055.875 214 180 152
-1063.952 414.751 1055.879 214 180 152
-1063.952 415.251 1055.867 213 179 151
-1063.952 415.751 1055.857 212 179 150
-1063.952 416.251 1055.853 211 177 149
-1063.952 416.751 1055.856 216 183 154
-1063.452 411.751 1055.678 212 179 150
-1063.452 412.251 1055.748 212 179 150
-1063.452 412.751 1055.805 210 176 148
-1063.452 413.251 1055.845 213 179 151
-1063.452 413.751 1055.852 213 179 151
-1063.452 414.251 1055.857 214 180 152
-1063.452 414.751 1055.858 213 179 151
-1063.452 415.251 1055.838 212 179 150
-1063.452 415.751 1055.819 211 177 149
-1063.452 416.251 1055.815 211 177 149
-1063.452 416.751 1055.815 215 181 153
-1062.952 411.751 1055.736 211 177 149
-1062.952 412.251 1055.793 212 179 150
-1062.952 412.751 1055.838 211 177 149
-1062.952 413.251 1055.851 214 180 152
-1062.952 413.751 1055.842 217 184 155
-1062.952 414.251 1055.833 213 179 151
-1062.952 414.751 1055.822 212 179 150
-1062.952 415.251 1055.796 212 179 150
-1062.952 415.751 1055.777 212 179 150
-1062.952 416.251 1055.769 213 179 151
-1062.952 416.751 1055.773 213 179 151
-1062.452 411.751 1055.760 205 171 143
-1062.452 412.251 1055.811 209 175 147
-1062.452 412.751 1055.846 213 179 151
-1062.452 413.251 1055.845 214 180 152
-1062.452 413.751 1055.830 215 181 153
-1062.452 414.251 1055.811 215 181 153
-1062.452 414.751 1055.790 213 179 151
-1062.452 415.251 1055.763 212 179 150
-1062.452 415.751 1055.740 215 181 153
-1062.452 416.251 1055.719 215 181 153
-1062.452 416.751 1055.725 212 179 150
-1061.952 411.751 1055.782 212 179 150
-1061.952 412.251 1055.819 212 179 150
-1061.952 412.751 1055.841 213 179 151
-1061.952 413.251 1055.839 215 181 153
-1061.952 413.751 1055.822 215 181 153
-1061.952 414.251 1055.802 215 181 153
-1061.952 414.751 1055.784 215 181 153
-1061.952 415.251 1055.757 212 179 150
-1061.952 415.751 1055.736 215 181 153
-1061.952 416.251 1055.718 215 181 153
-1061.952 416.751 1055.713 212 179 150
-1061.452 411.751 1055.777 211 177 149
-1061.452 412.251 1055.811 211 177 149
-1061.452 412.751 1055.818 214 180 152
-1061.452 413.251 1055.818 214 180 152
-1061.452 413.751 1055.819 214 180 152
-1061.452 414.251 1055.812 213 179 151
-1061.452 414.751 1055.798 215 181 153
-1061.452 415.251 1055.779 212 179 150
-1061.452 415.751 1055.763 214 180 152
-1061.452 416.251 1055.744 212 179 150
-1061.452 416.751 1055.729 213 179 151
-1060.952 414.251 1055.828 213 179 152
-1060.952 414.751 1055.823 214 180 152
-1060.952 415.251 1055.811 210 176 148
-1060.952 415.751 1055.796 214 180 152
-1060.952 416.251 1055.781 210 176 148
-1060.952 416.751 1055.764 215 181 153
-1055.952 411.751 1055.646 215 181 153
-1055.952 412.251 1055.673 215 181 153
-1055.952 412.751 1055.703 218 184 156
-1055.952 413.251 1055.728 217 184 155
-1055.952 413.751 1055.752 217 184 155
-1055.452 411.751 1055.636 213 179 151
-1055.452 412.251 1055.653 213 179 151
-1055.452 412.751 1055.675 214 180 152
-1055.452 413.251 1055.696 216 183 154
-1055.452 413.751 1055.717 218 184 156
-1055.452 414.251 1055.733 213 179 151
-1055.452 414.751 1055.757 213 179 151
-1055.452 415.251 1055.786 217 184 155
-1055.452 415.751 1055.824 214 180 152
-1055.452 416.251 1055.887 212 179 150
-1055.452 416.751 1055.980 215 181 153
-1054.952 411.751 1055.623 214 180 152
-1054.952 412.251 1055.628 214 180 152
-1054.952 412.751 1055.641 214 180 152
-1054.952 413.251 1055.663 214 180 152
-1054.952 413.751 1055.686 218 184 156
-1054.952 414.251 1055.711 217 184 155
-1054.952 414.751 1055.749 214 180 152
-1054.952 415.251 1055.800 216 183 154
-1054.952 415.751 1055.858 214 180 152
-1054.952 416.251 1055.938 212 179 150
-1054.952 416.751 1056.032 215 181 153
-1059.452 411.751 1055.728 216 183 155
-1059.452 412.251 1055.746 215 181 154
-1059.452 412.751 1055.764 217 184 156
-1059.452 413.251 1055.785 218 184 157
-1059.452 413.751 1055.802 216 183 155
-1059.452 414.251 1055.819 210 176 149
-1059.452 414.751 1055.843 208 174 146
-1059.452 415.251 1055.847 214 180 152
-1059.452 415.751 1055.825 216 183 154
-1059.452 416.251 1055.809 216 183 154
-1059.452 416.751 1055.805 217 184 155
-1058.952 411.751 1055.745 216 183 155
-1058.952 412.251 1055.763 216 183 155
-1058.952 412.751 1055.778 217 184 156
-1058.952 413.251 1055.793 219 185 158
-1058.952 413.751 1055.805 216 183 155
-1058.952 414.251 1055.818 213 179 152
-1058.952 414.751 1055.831 213 179 151
-1058.952 415.251 1055.833 216 183 154
-1058.952 415.751 1055.814 215 181 153
-1058.952 416.251 1055.801 216 183 154
-1058.952 416.751 1055.800 217 184 155
-1058.452 411.751 1055.739 214 180 153
-1058.452 412.251 1055.766 216 183 155
-1058.452 412.751 1055.786 215 181 154
-1058.452 413.251 1055.806 217 184 156
-1058.452 413.751 1055.824 214 180 153
-1058.452 414.251 1055.827 215 181 154
-1058.452 414.751 1055.826 215 181 153
-1058.452 415.251 1055.820 215 181 153
-1058.452 415.751 1055.809 213 179 151
-1058.452 416.251 1055.803 214 180 152
-1058.452 416.751 1055.802 216 183 154
-1057.952 411.751 1055.720 213 179 152
-1057.952 412.251 1055.751 213 179 152
-1057.952 412.751 1055.783 214 180 153
-1057.952 413.251 1055.815 216 183 154
-1057.952 413.751 1055.833 214 180 153
-1057.952 414.251 1055.821 216 183 154
-1057.952 414.751 1055.808 216 183 154
-1057.952 415.251 1055.801 216 183 154
-1057.952 415.751 1055.801 214 180 152
-1057.952 416.251 1055.806 214 180 152
-1057.952 416.751 1055.805 216 183 154
-1057.452 411.751 1055.691 213 179 151
-1057.452 412.251 1055.726 213 179 151
-1057.452 412.751 1055.776 214 180 152
-1057.452 413.251 1055.810 213 179 151
-1057.452 413.751 1055.821 214 180 152
-1057.452 414.251 1055.806 214 180 152
-1057.452 414.751 1055.794 216 183 154
-1057.452 415.251 1055.785 216 183 154
-1057.452 415.751 1055.790 214 180 152
-1057.452 416.251 1055.804 216 183 154
-1057.452 416.751 1055.809 215 181 153
-1056.952 411.751 1055.665 213 179 151
-1056.952 412.251 1055.705 214 180 152
-1056.952 412.751 1055.761 216 183 154
-1056.952 413.251 1055.796 214 180 152
-1056.952 413.751 1055.809 216 183 154
-1056.952 414.251 1055.799 215 181 153
-1056.952 414.751 1055.781 215 181 153
-1056.952 415.251 1055.768 216 183 154
-1056.952 415.751 1055.776 215 181 153
-1056.952 416.251 1055.796 214 180 152
-1056.952 416.751 1055.821 213 179 151
-1056.452 411.751 1055.650 214 180 152
-1056.452 412.251 1055.682 215 181 153
-1056.452 412.751 1055.729 217 184 155
-1056.452 413.251 1055.766 214 180 152
-1056.452 413.751 1055.786 216 183 154
-1056.452 414.251 1055.791 216 183 154
-1056.452 414.751 1055.775 215 181 153
-1056.452 415.251 1055.769 217 184 155
-1056.452 415.751 1055.787 216 183 154
-1056.452 416.251 1055.813 214 180 152
-1056.452 416.751 1055.868 215 181 153
-1055.952 414.251 1055.766 215 181 153
-1055.952 414.751 1055.767 215 181 153
-1055.952 415.251 1055.777 216 183 154
-1055.952 415.751 1055.806 215 181 153
-1055.952 416.251 1055.850 214 180 152
-1055.952 416.751 1055.928 215 181 153
-1050.452 411.751 1055.607 212 179 150
-1050.452 412.251 1055.549 214 180 152
-1050.452 412.751 1055.512 213 181 153
-1050.452 413.251 1055.496 215 184 156
-1050.452 413.751 1055.501 215 184 156
-1049.952 411.751 1055.736 209 175 147
-1049.952 412.251 1055.740 212 179 151
-1049.952 412.751 1055.683 211 179 151
-1049.952 413.251 1055.634 213 183 154
-1049.952 413.751 1055.630 214 184 156
-1049.952 414.251 1055.699 215 184 157
-1049.952 414.751 1055.831 214 184 155
-1049.952 415.251 1055.980 211 180 152
-1049.952 415.751 1056.171 215 184 156
-1049.952 416.251 1056.460 219 188 160
-1049.952 416.751 1056.762 223 192 164
-1049.452 411.751 1055.857 201 168 140
-1049.452 412.251 1055.927 206 172 145
-1049.452 412.751 1055.944 208 176 148
-1049.452 413.251 1055.907 210 179 153
-1049.452 413.751 1055.905 214 183 157
-1049.452 414.251 1055.994 211 179 154
-1049.452 414.751 1056.155 214 184 155
-1049.452 415.251 1056.287 214 184 155
-1049.452 415.751 1056.443 211 180 152
-1049.452 416.251 1056.769 215 184 156
-1049.452 416.751 1057.115 212 181 152
-1054.452 411.751 1055.600 215 181 153
-1054.452 412.251 1055.594 215 181 153
-1054.452 412.751 1055.599 215 181 153
-1054.452 413.251 1055.626 215 181 154
-1054.452 413.751 1055.650 215 181 154
-1054.452 414.251 1055.678 216 183 155
-1054.452 414.751 1055.717 213 183 151
-1054.452 415.251 1055.792 214 184 152
-1054.452 415.751 1055.875 212 181 150
-1054.452 416.251 1055.959 212 181 150
-1054.452 416.751 1056.065 213 183 151
-1053.952 411.751 1055.568 215 181 153
-1053.952 412.251 1055.547 215 181 153
-1053.952 412.751 1055.550 213 179 151
-1053.952 413.251 1055.578 213 179 152
-1053.952 413.751 1055.592 213 179 152
-1053.952 414.251 1055.615 213 179 152
-1053.952 414.751 1055.659 212 181 152
-1053.952 415.251 1055.760 214 184 154
-1053.952 415.751 1055.864 211 180 151
-1053.952 416.251 1055.953 212 181 152
-1053.952 416.751 1056.082 214 184 154
-1053.452 411.751 1055.534 215 181 153
-1053.452 412.251 1055.508 214 180 152
-1053.452 412.751 1055.510 210 176 148
-1053.452 413.251 1055.529 209 175 148
-1053.452 413.751 1055.542 210 176 149
-1053.452 414.251 1055.562 210 176 149
-1053.452 414.751 1055.618 211 180 151
-1053.452 415.251 1055.737 213 183 153
-1053.452 415.751 1055.852 211 180 151
-1053.452 416.251 1055.959 212 181 152
-1053.452 416.751 1056.127 213 183 153
-1052.952 411.751 1055.497 213 179 151
-1052.952 412.251 1055.485 213 179 151
-1052.952 412.751 1055.489 213 179 151
-1052.952 413.251 1055.497 211 177 150
-1052.952 413.751 1055.513 210 176 149
-1052.952 414.251 1055.539 210 176 149
-1052.952 414.751 1055.610 211 180 151
-1052.952 415.251 1055.742 214 184 154
-1052.952 415.751 1055.864 212 181 152
-1052.952 416.251 1056.003 211 180 151
-1052.952 416.751 1056.209 212 181 152
-1052.452 411.751 1055.475 211 177 149
-1052.452 412.251 1055.478 210 176 148
-1052.452 412.751 1055.488 214 180 152
-1052.452 413.251 1055.490 212 179 151
-1052.452 413.751 1055.505 213 179 152
-1052.452 414.251 1055.539 210 176 149
-1052.452 414.751 1055.620 212 181 153
-1052.452 415.251 1055.759 212 181 153
-1052.452 415.751 1055.891 210 179 151
-1052.452 416.251 1056.059 209 179 150
-1052.452 416.751 1056.283 210 179 151
-1051.952 411.751 1055.466 212 179 150
-1051.952 412.251 1055.471 209 175 147
-1051.952 412.751 1055.482 214 180 152
-1051.952 413.251 1055.488 212 179 151
-1051.952 413.751 1055.503 215 181 154
-1051.952 414.251 1055.541 213 179 152
-1051.952 414.751 1055.621 212 181 153
-1051.952 415.251 1055.760 212 181 153
-1051.952 415.751 1055.910 209 179 150
-1051.952 416.251 1056.111 209 179 150
-1051.952 416.751 1056.334 212 181 153
-1051.452 411.751 1055.468 211 177 149
-1051.452 412.251 1055.461 210 176 148
-1051.452 412.751 1055.469 213 181 152
-1051.452 413.251 1055.478 215 184 156
-1051.452 413.751 1055.494 213 183 154
-1051.452 414.251 1055.526 213 183 154
-1051.452 414.751 1055.594 213 183 153
-1051.452 415.251 1055.739 210 179 150
-1051.452 415.751 1055.931 210 179 151
-1051.452 416.251 1056.160 212 181 153
-1051.452 416.751 1056.361 214 183 156
-1050.952 411.751 1055.505 212 179 150
-1050.952 412.251 1055.461 210 176 148
-1050.952 412.751 1055.463 211 179 149
-1050.952 413.251 1055.473 214 184 155
-1050.952 413.751 1055.486 214 184 155
-1050.952 414.251 1055.507 213 183 154
-1050.952 414.751 1055.558 209 179 149
-1050.952 415.251 1055.700 208 177 148
-1050.952 415.751 1055.924 214 184 155
-1050.952 416.251 1056.182 216 185 157
-1050.952 416.751 1056.397 215 184 157
-1050.452 414.251 1055.531 216 185 157
-1050.452 414.751 1055.598 213 183 153
-1050.452 415.251 1055.746 210 179 151
-1050.452 415.751 1055.993 210 179 151
-1050.452 416.251 1056.274 218 187 159
-1050.452 416.751 1056.525 219 188 160
-1048.952 411.751 1056.138 198 164 137
-1048.952 412.251 1056.158 200 167 139
-1048.952 412.751 1056.241 204 171 145
-1048.952 413.251 1056.263 206 174 149
-1048.952 413.751 1056.314 209 177 152
-1048.952 414.251 1056.413 209 177 152
-1048.952 414.751 1056.631 209 177 152
-1048.952 415.251 1056.829 210 179 151
-1048.952 415.751 1056.974 208 177 149
-1048.952 416.251 1057.264 211 180 152
-1048.452 411.751 1056.649 191 159 134
-1048.452 412.251 1056.602 196 162 136
-1048.452 412.751 1056.632 195 162 137
-1048.452 413.251 1056.685 199 168 142
-1048.452 413.751 1056.785 201 169 144
-1048.452 414.251 1056.957 201 169 144
-1048.452 414.751 1057.228 200 169 144
-1047.952 411.751 1057.157 188 156 135
-1047.952 412.251 1057.101 190 156 134
-1047.952 412.751 1057.082 195 159 136
-1047.952 413.251 1057.116 192 157 133
-1047.952 413.751 1057.216 194 160 136
-1098.452 417.251 1056.174 226 196 171
-1098.452 417.751 1056.164 228 201 174
-1097.952 417.251 1056.165 232 201 175
-1097.952 417.751 1056.165 231 203 176
-1097.952 418.251 1056.134 231 203 176
-1097.952 418.751 1056.101 226 197 171
-1097.952 419.251 1056.174 226 196 171
-1097.952 419.751 1056.285 215 185 159
-1097.952 420.251 1056.331 213 183 156
-1097.952 420.751 1056.371 218 187 161
-1097.952 421.251 1056.410 219 189 163
-1097.952 421.751 1056.441 220 190 164
-1097.452 417.251 1056.138 223 193 167
-1097.452 417.751 1056.165 227 197 171
-1097.452 418.251 1056.163 230 199 173
-1097.452 418.751 1056.175 227 197 171
-1097.452 419.251 1056.253 224 194 168
-1097.452 419.751 1056.321 223 191 166
-1097.452 420.251 1056.352 218 186 161
-1097.452 420.751 1056.391 216 185 159
-1097.452 421.251 1056.418 217 187 161
-1097.452 421.751 1056.441 219 189 163
-1098.452 418.251 1056.128 230 202 175
-1098.452 418.751 1056.108 226 199 172
-1098.452 419.251 1056.142 224 194 168
-1098.452 419.751 1056.248 212 183 156
-1098.452 420.251 1056.319 211 181 155
-1099.452 417.251 1056.203 226 196 171
-1099.452 417.751 1056.180 226 199 175
-1099.452 418.251 1056.168 227 199 175
-1099.452 418.751 1056.187 223 195 171
-1099.452 419.251 1056.206 222 194 171
-1099.452 419.751 1056.242 222 193 170
-1099.452 420.251 1056.311 221 191 167
-1099.452 420.751 1056.345 224 194 170
-1099.452 421.251 1056.364 223 193 167
-1099.452 421.751 1056.374 225 195 170
-1098.952 417.251 1056.172 224 194 168
-1098.952 417.751 1056.156 226 198 174
-1098.952 418.251 1056.138 228 200 176
-1098.952 418.751 1056.142 225 197 173
-1098.952 419.251 1056.162 225 197 173
-1098.952 419.751 1056.227 221 191 167
-1098.952 420.251 1056.309 219 189 165
-1098.952 420.751 1056.351 219 189 164
-1098.952 421.251 1056.385 219 189 163
-1098.952 421.751 1056.396 224 194 168
-1098.452 420.751 1056.360 216 186 160
-1098.452 421.251 1056.398 221 191 165
-1098.452 421.751 1056.424 224 194 168
-1093.452 417.251 1056.222 231 203 176
-1093.452 417.751 1056.298 232 201 175
-1093.452 418.251 1056.342 231 200 174
-1093.452 418.751 1056.384 228 200 173
-1093.452 419.251 1056.455 228 201 174
-1093.452 419.751 1056.498 226 198 174
-1093.452 420.251 1056.511 231 202 178
-1092.952 417.251 1056.200 232 204 177
-1092.952 417.751 1056.269 231 204 179
-1092.952 418.251 1056.336 230 202 178
-1092.952 418.751 1056.404 232 205 180
-1092.952 419.251 1056.465 230 203 178
-1092.952 419.751 1056.503 225 199 174
-1092.952 420.251 1056.531 226 200 175
-1092.952 420.751 1056.555 233 206 181
-1092.952 421.251 1056.586 233 207 182
-1092.952 421.751 1056.577 230 203 178
-1092.452 417.251 1056.184 232 204 177
-1092.452 417.751 1056.260 233 204 179
-1092.452 418.251 1056.357 232 203 178
-1092.452 418.751 1056.426 232 204 179
-1092.452 419.251 1056.473 230 202 177
-1092.452 419.751 1056.519 224 196 172
-1092.452 420.251 1056.562 230 201 177
-1092.452 420.751 1056.598 231 203 179
-1092.452 421.251 1056.624 230 203 178
-1092.452 421.751 1056.638 230 201 177
-1096.952 417.251 1056.112 224 194 168
-1096.952 417.751 1056.153 225 195 167
-1096.952 418.251 1056.175 225 195 167
-1096.952 418.751 1056.216 224 194 166
-1096.952 419.251 1056.294 221 190 162
-1096.952 419.751 1056.349 218 187 159
-1096.952 420.251 1056.377 215 184 156
-1096.952 420.751 1056.416 214 184 156
-1096.952 421.251 1056.432 216 186 160
-1096.952 421.751 1056.442 219 189 163
-1096.452 417.251 1056.120 220 190 164
-1096.452 417.751 1056.169 219 189 161
-1096.452 418.251 1056.197 219 189 161
-1096.452 418.751 1056.232 221 191 163
-1096.452 419.251 1056.303 218 187 159
-1096.452 419.751 1056.361 218 187 159
-1096.452 420.251 1056.395 215 184 156
-1096.452 420.751 1056.429 214 184 157
-1096.452 421.251 1056.440 218 191 164
-1096.452 421.751 1056.444 221 194 167
-1095.952 417.251 1056.145 212 183 156
-1095.952 417.751 1056.200 218 187 158
-1095.952 418.251 1056.244 219 188 160
-1095.952 418.751 1056.280 219 188 160
-1095.952 419.251 1056.329 216 186 159
-1095.952 419.751 1056.381 219 189 162
-1095.952 420.251 1056.416 221 193 165
-1095.952 420.751 1056.452 225 199 173
-1095.952 421.251 1056.459 226 200 175
-1095.952 421.751 1056.459 226 200 175
-1095.452 417.251 1056.179 218 188 162
-1095.452 417.751 1056.240 223 193 167
-1095.452 418.251 1056.295 227 197 171
-1095.452 418.751 1056.321 228 200 173
-1095.452 419.251 1056.353 226 199 172
-1095.452 419.751 1056.406 227 199 175
-1095.452 420.251 1056.450 230 201 177
-1095.452 420.751 1056.482 230 203 178
-1095.452 421.251 1056.478 232 205 180
-1095.452 421.751 1056.476 228 202 177
-1094.952 417.251 1056.202 231 200 174
-1094.952 417.751 1056.269 231 203 176
-1094.952 418.251 1056.321 233 206 179
-1094.952 418.751 1056.349 230 201 177
-1094.952 419.251 1056.392 224 198 173
-1094.952 419.751 1056.444 230 203 178
-1094.952 420.251 1056.477 233 206 183
-1094.952 420.751 1056.500 226 200 176
-1094.952 421.251 1056.498 228 202 177
-1094.952 421.751 1056.499 228 202 177
-1094.452 417.251 1056.220 230 202 175
-1094.452 417.751 1056.295 228 200 176
-1094.452 418.251 1056.344 232 203 179
-1094.452 418.751 1056.376 231 202 178
-1094.452 419.251 1056.436 227 201 176
-1094.452 419.751 1056.482 228 202 179
-1094.452 420.251 1056.497 232 205 182
-1094.452 420.751 1056.505 227 202 179
-1094.452 421.251 1056.510 227 201 178
-1094.452 421.751 1056.522 230 203 180
-1093.952 417.251 1056.217 228 201 174
-1093.952 417.751 1056.299 228 199 173
-1093.952 418.251 1056.346 226 198 173
-1093.952 418.751 1056.385 226 199 173
-1093.952 419.251 1056.453 226 199 174
-1093.952 419.751 1056.496 228 202 177
-1093.952 420.251 1056.505 230 203 179
-1093.952 420.751 1056.508 232 205 181
-1093.952 421.251 1056.515 231 204 181
-1093.952 421.751 1056.529 231 204 181
-1093.452 420.751 1056.516 233 205 182
-1093.452 421.251 1056.532 233 207 184
-1093.452 421.751 1056.542 231 204 181
-1089.952 417.251 1056.303 219 187 159
-1089.952 417.751 1056.391 218 185 158
-1089.952 418.251 1056.496 213 180 152
-1089.952 418.751 1056.643 208 177 150
-1089.952 419.251 1056.741 211 180 153
-1089.952 419.751 1056.831 217 186 159
-1089.452 417.251 1056.422 220 186 158
-1089.452 417.751 1056.524 212 179 150
-1089.452 418.251 1056.654 211 177 149
-1089.452 418.751 1056.784 215 181 154
-1089.452 419.251 1056.975 212 181 153
-1089.452 419.751 1057.089 212 181 153
-1089.452 420.251 1057.153 213 181 156
-1089.452 420.751 1057.243 214 181 156
-1088.952 417.251 1056.554 216 183 154
-1088.952 417.751 1056.692 213 179 148
-1088.952 418.251 1056.798 212 177 149
-1088.952 418.751 1056.913 214 179 151
-1088.952 419.251 1057.116 216 183 154
-1088.952 419.751 1057.256 218 184 157
-1088.452 417.251 1056.762 212 177 149
-1088.452 417.751 1056.888 213 176 147
-1088.452 418.251 1057.053 215 179 149
-1088.452 418.751 1057.191 210 174 145
-1087.952 417.251 1057.028 210 173 146
-1087.952 417.751 1057.155 211 174 145
-1087.452 417.251 1057.220 209 170 144
-1091.952 417.251 1056.181 231 203 176
-1091.952 417.751 1056.261 233 203 176
-1091.952 418.251 1056.350 231 201 174
-1091.952 418.751 1056.420 231 201 174
-1091.952 419.251 1056.473 230 200 173
-1091.952 419.751 1056.529 223 194 168
-1091.952 420.251 1056.580 224 196 170
-1091.952 420.751 1056.633 225 197 172
-1091.952 421.251 1056.665 220 192 168
-1091.952 421.751 1056.684 226 197 173
-1091.452 417.251 1056.212 231 200 172
-1091.452 417.751 1056.289 230 199 173
-1091.452 418.251 1056.349 228 198 172
-1091.452 418.751 1056.408 226 196 171
-1091.452 419.251 1056.497 228 198 172
-1091.452 419.751 1056.564 227 197 171
-1091.452 420.251 1056.642 220 190 164
-1091.452 420.751 1056.716 222 192 167
-1091.452 421.251 1056.749 217 187 161
-1091.452 421.751 1056.772 220 190 164
-1090.952 417.251 1056.231 221 191 163
-1090.952 417.751 1056.310 223 191 166
-1090.952 418.251 1056.377 224 192 167
-1090.952 418.751 1056.448 224 192 167
-1090.952 419.251 1056.533 223 191 166
-1090.952 419.751 1056.648 221 189 164
-1090.952 420.251 1056.730 213 181 156
-1090.952 420.751 1056.777 213 183 157
-1090.952 421.251 1056.844 210 180 154
-1090.952 421.751 1056.898 211 179 154
-1090.452 417.251 1056.249 218 188 160
-1090.452 417.751 1056.324 219 188 160
