-1168.452 426.751 1073.800 186 174 161
-1168.452 427.251 1073.817 184 171 160
-1162.952 422.251 1072.435 169 156 147
-1162.952 422.751 1072.895 163 150 142
-1162.952 423.251 1073.114 160 147 139
-1162.952 423.751 1073.238 168 155 147
-1162.952 424.251 1073.337 177 163 154
-1162.452 422.251 1072.039 169 156 147
-1162.452 422.751 1072.510 168 155 147
-1162.452 423.251 1072.910 161 148 140
-1162.452 423.751 1073.115 162 149 141
-1162.452 424.251 1073.231 160 146 137
-1162.452 424.751 1073.370 189 175 166
-1162.452 425.251 1073.501 181 168 159
-1162.452 425.751 1073.578 184 170 161
-1162.452 426.251 1073.639 159 146 137
-1162.452 426.751 1073.693 169 157 147
-1162.452 427.251 1073.777 180 168 156
-1161.952 422.251 1071.593 188 172 163
-1161.952 422.751 1072.085 179 164 156
-1161.952 423.251 1072.567 175 160 153
-1161.952 423.751 1072.938 170 156 149
-1161.952 424.251 1073.125 170 156 147
-1161.952 424.751 1073.317 170 156 147
-1161.952 425.251 1073.477 173 160 151
-1161.952 425.751 1073.563 169 156 147
-1161.952 426.251 1073.635 158 145 136
-1161.952 426.751 1073.708 168 155 145
-1161.952 427.251 1073.774 176 163 154
-1166.452 422.251 1073.447 186 173 157
-1166.452 422.751 1073.496 201 185 171
-1166.452 423.251 1073.539 212 196 181
-1166.452 423.751 1073.598 212 196 182
-1166.452 424.251 1073.695 203 186 175
-1166.452 424.751 1073.799 179 166 154
-1165.952 422.251 1073.423 179 167 152
-1165.952 422.751 1073.473 201 186 171
-1165.952 423.251 1073.525 207 191 176
-1165.952 423.751 1073.585 197 181 168
-1165.952 424.251 1073.701 197 181 168
-1165.952 424.751 1073.813 187 173 160
-1165.452 422.251 1073.385 190 176 165
-1165.452 422.751 1073.440 190 176 163
-1165.452 423.251 1073.502 203 188 175
-1165.452 423.751 1073.563 195 179 166
-1165.452 424.251 1073.681 203 187 172
-1165.452 424.751 1073.796 187 173 159
-1165.452 426.751 1073.832 180 168 156
-1165.452 427.251 1073.840 185 172 163
-1164.952 422.251 1073.327 189 175 166
-1164.952 422.751 1073.375 179 164 153
-1164.952 423.251 1073.470 197 184 171
-1164.952 423.751 1073.543 211 197 184
-1164.952 424.251 1073.650 215 199 184
-1164.952 424.751 1073.734 206 193 178
-1164.952 425.251 1073.818 191 177 164
-1164.952 425.751 1073.827 197 184 171
-1164.952 426.251 1073.828 198 186 172
-1164.952 426.751 1073.818 196 184 172
-1164.952 427.251 1073.824 198 185 176
-1164.452 422.251 1073.210 166 152 144
-1164.452 422.751 1073.293 170 156 146
-1164.452 423.251 1073.393 191 177 164
-1164.452 423.751 1073.530 202 188 175
-1164.452 424.251 1073.609 188 172 159
-1164.452 424.751 1073.658 185 171 158
-1164.452 425.251 1073.703 189 175 162
-1164.452 425.751 1073.711 179 166 154
-1164.452 426.251 1073.778 189 177 165
-1164.452 426.751 1073.789 197 185 173
-1164.452 427.251 1073.813 197 184 175
-1163.952 422.251 1073.045 159 146 140
-1163.952 422.751 1073.222 167 153 144
-1163.952 423.251 1073.328 181 168 156
-1163.952 423.751 1073.480 203 189 176
-1163.952 424.251 1073.549 191 174 163
-1163.952 424.751 1073.580 194 180 170
-1163.952 425.251 1073.624 191 177 166
-1163.952 425.751 1073.652 173 159 149
-1163.952 426.251 1073.701 180 168 157
-1163.952 426.751 1073.737 179 166 156
-1163.952 427.251 1073.787 179 166 156
-1163.452 422.251 1072.764 169 156 147
-1163.452 422.751 1073.089 156 143 134
-1163.452 423.251 1073.233 160 147 139
-1163.452 423.751 1073.358 187 173 164
-1163.452 424.251 1073.456 207 193 184
-1163.452 424.751 1073.528 197 184 174
-1163.452 425.251 1073.594 190 177 168
-1163.452 425.751 1073.633 171 158 149
-1163.452 426.251 1073.662 170 157 148
-1163.452 426.751 1073.697 164 152 143
-1163.452 427.251 1073.775 174 162 150
-1162.952 424.751 1073.455 181 168 158
-1162.952 425.251 1073.543 186 173 164
-1162.952 425.751 1073.603 184 171 162
-1162.952 426.251 1073.648 169 156 147
-1162.952 426.751 1073.686 168 156 147
-1162.952 427.251 1073.775 175 163 151
-1157.452 422.251 1068.530 216 191 171
-1157.452 422.751 1069.332 214 192 175
-1157.452 423.251 1070.166 211 194 178
-1157.452 423.751 1070.630 196 180 166
-1157.452 424.251 1071.049 179 164 155
-1156.952 422.251 1068.388 213 188 168
-1156.952 422.751 1069.124 214 192 174
-1156.952 423.251 1069.852 201 184 170
-1156.952 423.751 1070.441 184 167 156
-1156.952 424.251 1070.974 172 159 150
-1156.952 424.751 1071.360 169 156 147
-1156.952 425.251 1071.654 174 160 151
-1156.952 425.751 1071.934 168 154 145
-1156.952 426.251 1072.198 167 152 143
-1156.952 426.751 1072.454 172 158 149
-1156.952 427.251 1072.865 173 160 152
-1156.452 422.251 1068.388 208 184 163
-1156.452 422.751 1068.998 205 183 167
-1156.452 423.251 1069.669 196 179 164
-1156.452 423.751 1070.313 172 155 145
-1156.452 424.251 1070.828 170 156 147
-1156.452 424.751 1071.223 170 156 147
-1156.452 425.251 1071.521 161 147 138
-1156.452 425.751 1071.775 167 152 143
-1156.452 426.251 1072.122 173 159 150
-1156.452 426.751 1072.466 173 159 150
-1156.452 427.251 1072.818 172 159 151
-1161.452 422.251 1070.975 206 189 178
-1161.452 422.751 1071.593 199 184 172
-1161.452 423.251 1072.279 184 169 160
-1161.452 423.751 1072.664 174 160 151
-1161.452 424.251 1072.985 179 164 157
-1161.452 424.751 1073.240 168 152 145
-1161.452 425.251 1073.408 150 137 129
-1161.452 425.751 1073.547 158 145 137
-1161.452 426.251 1073.639 160 147 139
-1161.452 426.751 1073.702 168 156 147
-1161.452 427.251 1073.761 184 170 161
-1160.952 422.251 1070.384 204 187 172
-1160.952 422.751 1071.066 203 187 174
-1160.952 423.251 1071.833 197 184 172
-1160.952 423.751 1072.329 177 163 152
-1160.952 424.251 1072.743 172 157 150
-1160.952 424.751 1073.131 173 158 151
-1160.952 425.251 1073.294 168 154 146
-1160.952 425.751 1073.516 162 149 141
-1160.952 426.251 1073.646 170 157 149
-1160.952 426.751 1073.705 169 157 149
-1160.952 427.251 1073.766 188 175 166
-1160.452 422.251 1069.917 209 192 176
-1160.452 422.751 1070.591 204 188 173
-1160.452 423.251 1071.289 197 183 170
-1160.452 423.751 1071.892 184 169 158
-1160.452 424.251 1072.413 179 163 156
-1160.452 424.751 1072.969 175 160 153
-1160.452 425.251 1073.168 176 163 155
-1160.452 425.751 1073.413 173 160 152
-1160.452 426.251 1073.616 184 170 162
-1160.452 426.751 1073.706 184 170 162
-1160.452 427.251 1073.770 170 157 149
-1159.952 422.251 1069.443 210 189 171
-1159.952 422.751 1070.236 208 190 173
-1159.952 423.251 1070.935 199 184 171
-1159.952 423.751 1071.592 185 171 159
-1159.952 424.251 1072.062 180 167 157
-1159.952 424.751 1072.746 175 161 153
-1159.952 425.251 1073.006 170 155 148
-1159.952 425.751 1073.286 170 155 148
-1159.952 426.251 1073.551 175 160 153
-1159.952 426.751 1073.657 179 166 156
-1159.952 427.251 1073.737 186 172 163
-1159.452 422.251 1069.199 211 190 171
-1159.452 422.751 1070.069 211 192 176
-1159.452 423.251 1070.705 205 189 174
-1159.452 423.751 1071.448 187 173 160
-1159.452 424.251 1071.808 183 168 159
-1159.452 424.751 1072.448 176 162 154
-1159.452 425.251 1072.828 168 153 146
-1159.452 425.751 1073.135 162 147 140
-1159.452 426.251 1073.404 162 147 140
-1159.452 426.751 1073.515 162 148 139
-1159.452 427.251 1073.657 198 184 175
-1158.952 422.251 1069.042 215 192 174
-1158.952 422.751 1069.946 212 192 176
-1158.952 423.251 1070.622 211 194 180
-1158.952 423.751 1071.243 187 171 159
-1158.952 424.251 1071.654 179 164 155
-1158.952 424.751 1072.141 174 160 152
-1158.952 425.251 1072.573 172 157 150
-1158.952 425.751 1072.923 172 157 150
-1158.952 426.251 1073.175 168 152 145
-1158.952 426.751 1073.319 162 148 139
-1158.952 427.251 1073.505 189 175 166
-1158.452 422.251 1068.825 217 194 175
-1158.452 422.751 1069.738 213 193 175
-1158.452 423.251 1070.568 214 195 181
-1158.452 423.751 1070.966 191 174 162
-1158.452 424.251 1071.418 181 168 158
-1158.452 424.751 1071.863 175 160 152
-1158.452 425.251 1072.237 170 155 148
-1158.452 425.751 1072.601 169 154 147
-1158.452 426.251 1072.926 171 156 149
-1158.452 426.751 1073.131 168 153 144
-1158.452 427.251 1073.335 171 157 148
-1157.952 422.251 1068.669 216 194 173
-1157.952 422.751 1069.524 213 193 175
-1157.952 423.251 1070.431 214 196 182
-1157.952 423.751 1070.797 192 176 162
-1157.952 424.251 1071.154 183 168 159
-1157.952 424.751 1071.622 179 164 156
-1157.952 425.251 1072.003 173 158 151
-1157.952 425.751 1072.279 172 157 150
-1157.952 426.251 1072.634 170 155 148
-1157.952 426.751 1072.932 164 150 141
-1157.952 427.251 1073.172 167 152 143
-1157.452 424.751 1071.466 174 159 151
-1157.452 425.251 1071.830 170 155 148
-1157.452 425.751 1072.099 170 155 148
-1157.452 426.251 1072.373 169 154 147
-1157.452 426.751 1072.672 168 154 145
-1157.452 427.251 1073.019 168 154 145
-1152.452 423.251 1068.384 232 210 189
-1152.452 423.751 1068.991 226 206 186
-1152.452 424.251 1069.800 219 203 187
-1152.452 424.751 1070.661 198 183 167
-1152.452 425.251 1071.279 186 171 160
-1152.452 425.751 1071.601 189 175 166
-1151.952 423.751 1068.597 230 208 187
-1151.952 424.251 1069.171 223 205 188
-1151.952 424.751 1070.085 207 189 174
-1151.952 425.251 1070.775 189 172 160
-1151.952 425.751 1071.287 186 170 159
-1151.952 426.251 1071.532 185 169 160
-1151.952 426.751 1071.889 184 171 159
-1151.952 427.251 1072.238 183 168 157
-1151.452 424.251 1068.607 223 202 182
-1151.452 424.751 1069.262 217 197 180
-1151.452 425.251 1069.993 208 189 175
-1151.452 425.751 1070.479 199 181 168
-1151.452 426.251 1070.990 191 173 161
-1151.452 426.751 1071.452 188 172 159
-1151.452 427.251 1071.760 186 172 159
-1150.952 424.751 1068.542 221 200 182
-1150.952 425.251 1069.031 212 193 178
-1150.952 425.751 1069.509 210 191 176
-1150.952 426.251 1070.030 206 188 174
-1150.952 426.751 1070.526 204 186 172
-1150.952 427.251 1070.927 197 183 167
-1155.952 422.251 1068.444 197 174 156
-1155.952 422.751 1068.896 194 172 157
-1155.952 423.251 1069.583 195 176 162
-1155.952 423.751 1070.213 188 170 158
-1155.952 424.251 1070.672 176 160 150
-1155.952 424.751 1071.088 166 150 140
-1155.952 425.251 1071.491 168 154 145
-1155.952 425.751 1071.798 183 168 159
-1155.952 426.251 1072.174 176 162 153
-1155.952 426.751 1072.587 175 161 152
-1155.952 427.251 1072.844 169 156 148
-1155.452 422.251 1068.392 192 171 154
-1155.452 422.751 1068.810 189 170 155
-1155.452 423.251 1069.520 197 179 163
-1155.452 423.751 1070.112 188 170 157
-1155.452 424.251 1070.573 166 149 136
-1155.452 424.751 1071.042 173 156 146
-1155.452 425.251 1071.543 177 160 150
-1155.452 425.751 1071.912 185 171 162
-1155.452 426.251 1072.369 189 175 166
-1155.452 426.751 1072.667 171 157 148
-1155.452 427.251 1072.898 166 152 144
-1154.952 422.751 1068.766 189 170 155
-1154.952 423.251 1069.453 206 187 172
-1154.952 423.751 1069.930 203 184 170
-1154.952 424.251 1070.453 187 169 157
-1154.952 424.751 1071.017 190 173 161
-1154.952 425.251 1071.580 185 168 158
-1154.952 425.751 1072.023 188 174 163
-1154.952 426.251 1072.543 189 175 166
-1154.952 426.751 1072.748 168 153 144
-1154.952 427.251 1073.029 147 134 126
-1154.452 422.751 1068.733 207 189 174
-1154.452 423.251 1069.347 209 190 175
-1154.452 423.751 1069.861 218 197 180
-1154.452 424.251 1070.348 216 198 184
-1154.452 424.751 1070.993 209 191 179
-1154.452 425.251 1071.591 203 186 176
-1154.452 425.751 1072.088 193 176 166
-1154.452 426.251 1072.538 187 173 164
-1154.452 426.751 1072.829 179 167 157
-1154.452 427.251 1073.157 184 170 162
-1153.952 422.751 1068.637 212 194 177
-1153.952 423.251 1069.189 214 195 178
-1153.952 423.751 1069.803 215 195 178
-1153.952 424.251 1070.305 217 199 184
-1153.952 424.751 1071.008 207 190 175
-1153.952 425.251 1071.621 200 184 173
-1153.952 425.751 1072.084 194 179 170
-1153.952 426.251 1072.364 196 183 173
-1153.952 426.751 1072.814 196 184 173
-1153.952 427.251 1073.152 189 176 166
-1153.452 422.751 1068.448 211 192 175
-1153.452 423.251 1069.053 220 201 184
-1153.452 423.751 1069.629 218 199 182
-1153.452 424.251 1070.247 211 194 178
-1153.452 424.751 1071.023 196 180 164
-1153.452 425.251 1071.611 196 183 171
-1153.452 425.751 1071.985 197 184 174
-1153.452 426.251 1072.219 196 184 174
-1153.452 426.751 1072.745 199 186 177
-1153.452 427.251 1073.017 194 181 172
-1152.952 423.251 1068.736 226 205 186
-1152.952 423.751 1069.333 221 202 183
-1152.952 424.251 1070.153 213 197 181
-1152.952 424.751 1070.977 197 181 167
-1152.952 425.251 1071.521 194 180 170
-1152.952 425.751 1071.812 193 179 171
-1152.952 426.251 1072.157 191 179 170
-1152.952 426.751 1072.597 198 185 176
-1152.952 427.251 1072.839 192 179 171
-1152.452 426.251 1071.921 187 174 165
-1152.452 426.751 1072.277 191 179 170
-1152.452 427.251 1072.620 189 176 167
-1150.452 425.251 1068.328 219 198 181
-1150.452 425.751 1068.703 215 196 181
-1150.452 426.251 1069.184 211 192 177
-1150.452 426.751 1069.532 212 193 178
-1150.452 427.251 1069.922 210 192 178
-1149.952 426.251 1068.525 215 196 181
-1149.952 426.751 1068.835 214 195 180
-1149.952 427.251 1069.151 213 195 180
-1149.452 426.751 1068.369 211 192 178
-1149.452 427.251 1068.567 208 191 175
-1173.452 427.751 1073.760 164 151 142
-1173.452 428.251 1073.791 168 154 145
-1172.952 427.751 1073.760 133 122 116
-1172.952 428.251 1073.785 138 127 119
-1172.452 427.751 1073.761 139 129 120
-1172.452 428.251 1073.807 144 134 125
-1174.452 427.751 1073.756 181 168 154
-1174.452 428.251 1073.814 168 153 140
-1173.952 427.751 1073.756 174 161 151
-1173.952 428.251 1073.804 169 155 144
-1176.952 427.751 1073.834 202 186 171
-1175.952 427.751 1073.789 188 171 155
-1175.452 427.751 1073.773 177 161 146
-1174.952 427.751 1073.771 184 168 153
-1174.952 428.251 1073.837 176 160 145
-1169.952 427.751 1073.792 175 160 147
-1169.452 427.751 1073.801 176 162 151
-1168.952 427.751 1073.822 174 160 149
-1171.952 427.751 1073.796 162 151 142
-1171.452 427.751 1073.785 188 174 163
-1171.452 428.251 1073.825 198 184 173
-1170.952 427.751 1073.800 199 185 172
-1170.952 428.251 1073.839 180 167 153
-1170.452 427.751 1073.786 205 189 174
-1170.452 428.251 1073.845 195 179 166
-1171.952 428.251 1073.822 184 170 161
-1162.952 427.751 1073.845 181 169 157
-1162.452 427.751 1073.835 179 167 154
-1161.952 427.751 1073.832 171 158 149
-1157.952 427.751 1073.456 175 161 152
-1157.452 427.751 1073.312 174 160 151
-1157.452 428.251 1073.534 173 159 150
-1157.452 428.751 1073.675 179 166 157
-1157.452 429.251 1073.833 180 168 159
-1156.952 427.751 1073.158 176 163 154
-1156.952 428.251 1073.456 174 161 152
-1156.952 428.751 1073.597 189 176 167
-1156.952 429.251 1073.765 191 179 168
-1156.452 427.751 1073.077 177 164 155
-1156.452 428.251 1073.392 169 156 147
-1156.452 428.751 1073.561 179 166 156
-1156.452 429.251 1073.711 195 184 171
-1159.952 427.751 1073.804 171 157 148
-1159.452 427.751 1073.753 186 172 163
-1159.452 428.251 1073.823 171 157 148
-1158.952 427.751 1073.674 200 186 177
-1158.952 428.251 1073.759 168 153 144
-1158.952 428.751 1073.827 160 147 139
-1158.452 427.751 1073.556 188 174 165
-1158.452 428.251 1073.701 179 166 156
-1158.452 428.751 1073.779 171 158 150
-1157.952 428.251 1073.629 172 158 149
-1157.952 428.751 1073.744 177 164 156
-1161.452 427.751 1073.817 179 167 157
-1160.952 427.751 1073.824 186 173 164
-1160.452 427.751 1073.830 185 172 164
-1151.952 427.751 1072.576 172 158 148
-1151.952 428.251 1072.731 170 156 146
-1151.952 428.751 1072.923 175 161 151
-1151.952 429.251 1073.158 179 164 154
-1151.952 429.751 1073.348 180 167 156
-1151.952 430.251 1073.445 191 177 167
-1151.452 427.751 1072.148 177 163 150
-1151.452 428.251 1072.329 171 157 146
-1151.452 428.751 1072.456 168 154 144
-1151.452 429.251 1072.706 168 154 145
-1151.452 429.751 1073.012 169 154 147
-1151.452 430.251 1073.291 175 161 152
-1151.452 430.751 1073.405 184 169 158
-1151.452 431.251 1073.521 181 168 156
-1151.452 431.751 1073.673 198 184 173
-1151.452 432.251 1073.838 202 188 177
-1150.952 427.751 1071.401 195 181 168
-1150.952 428.251 1071.795 189 175 162
-1150.952 428.751 1071.988 179 164 153
-1150.952 429.251 1072.253 169 154 146
-1150.952 429.751 1072.616 171 157 149
-1150.952 430.251 1073.068 170 155 148
-1150.952 430.751 1073.248 175 158 148
-1150.952 431.251 1073.368 177 160 150
-1150.952 431.751 1073.520 189 172 162
-1150.952 432.251 1073.654 196 179 170
-1150.952 432.751 1073.727 193 179 165
-1155.952 427.751 1073.091 171 158 149
-1155.952 428.251 1073.349 172 159 150
-1155.952 428.751 1073.530 180 168 158
-1155.952 429.251 1073.678 200 188 176
-1155.452 427.751 1073.210 163 150 141
-1155.452 428.251 1073.349 172 159 150
-1155.452 428.751 1073.501 187 174 165
-1155.452 429.251 1073.638 193 181 170
-1155.452 429.751 1073.818 186 174 162
-1154.952 427.751 1073.307 150 137 128
-1154.952 428.251 1073.360 159 146 137
-1154.952 428.751 1073.465 192 179 171
-1154.952 429.251 1073.596 192 180 168
-1154.952 429.751 1073.775 185 173 161
-1154.452 427.751 1073.320 181 168 159
-1154.452 428.251 1073.355 183 169 160
-1154.452 428.751 1073.457 192 179 171
-1154.452 429.251 1073.571 180 168 156
-1154.452 429.751 1073.715 177 166 153
-1153.952 427.751 1073.279 185 173 162
-1153.952 428.251 1073.325 184 170 159
-1153.952 428.751 1073.449 191 179 168
-1153.952 429.251 1073.553 181 169 158
-1153.952 429.751 1073.665 185 173 162
-1153.452 427.751 1073.173 195 183 173
-1153.452 428.251 1073.275 197 184 175
-1153.452 428.751 1073.401 194 181 171
-1153.452 429.251 1073.537 172 160 148
-1153.452 429.751 1073.616 187 175 163
-1153.452 430.251 1073.803 195 184 171
-1152.952 427.751 1073.017 184 171 162
-1152.952 428.251 1073.176 188 175 166
-1152.952 428.751 1073.325 193 181 171
-1152.952 429.251 1073.453 179 168 155
-1152.952 429.751 1073.547 184 172 160
-1152.952 430.251 1073.667 203 191 177
-1152.952 430.751 1073.840 193 181 170
-1152.452 427.751 1072.806 175 162 154
-1152.452 428.251 1073.020 173 160 151
-1152.452 428.751 1073.198 186 173 163
-1152.452 429.251 1073.353 188 176 164
-1152.452 429.751 1073.485 189 177 163
-1152.452 430.251 1073.552 196 184 171
-1152.452 430.751 1073.695 202 188 177
-1151.952 430.751 1073.528 196 183 171
-1151.952 431.251 1073.698 198 184 173
-1149.452 427.751 1068.777 208 191 175
-1148.952 428.251 1068.594 210 193 177
-1148.952 428.751 1068.881 214 197 181
-1148.952 429.251 1069.484 215 198 182
-1148.952 429.751 1069.899 214 197 181
-1148.952 430.251 1070.453 212 195 179
-1148.952 430.751 1070.581 212 195 179
-1148.952 431.251 1070.853 209 192 176
-1148.952 431.751 1071.050 202 184 168
-1148.952 432.251 1071.285 196 177 162
-1148.952 432.751 1071.727 196 177 162
-1148.452 429.251 1068.576 214 195 180
-1148.452 429.751 1068.843 217 198 183
-1148.452 430.251 1069.505 217 198 183
-1148.452 430.751 1069.681 220 201 184
-1148.452 431.251 1069.775 222 203 186
-1148.452 431.751 1069.884 216 197 180
-1148.452 432.251 1070.096 210 191 174
-1148.452 432.751 1070.491 209 188 171
-1147.952 430.251 1068.698 221 199 185
-1147.952 430.751 1068.827 220 201 183
-1147.952 431.251 1068.991 222 202 184
-1147.952 431.751 1069.090 222 201 183
-1147.952 432.251 1069.189 216 195 177
-1147.952 432.751 1069.311 217 195 177
-1147.452 432.251 1068.469 222 197 177
-1147.452 432.751 1068.482 221 194 175
-1150.452 427.751 1070.481 207 189 177
-1150.452 428.251 1070.908 201 184 171
-1150.452 428.751 1071.384 191 174 163
-1150.452 429.251 1071.702 185 168 158
-1150.452 429.751 1072.166 184 167 156
-1150.452 430.251 1072.518 187 173 162
-1150.452 430.751 1072.937 191 174 165
-1150.452 431.251 1073.104 175 158 150
-1150.452 431.751 1073.271 175 160 151
-1150.452 432.251 1073.409 172 158 149
-1150.452 432.751 1073.448 167 153 143
-1149.952 427.751 1069.594 211 194 179
-1149.952 428.251 1069.872 209 191 177
-1149.952 428.751 1070.471 204 186 173
-1149.952 429.251 1071.181 199 184 170
-1149.952 429.751 1071.540 195 179 165
-1149.952 430.251 1071.774 194 177 165
-1149.952 430.751 1072.335 194 179 166
-1149.952 431.251 1072.519 187 170 159
-1149.952 431.751 1072.790 177 160 148
-1149.952 432.251 1072.877 173 158 146
-1149.952 432.751 1072.930 177 162 150
-1149.452 428.251 1069.152 211 194 178
-1149.452 428.751 1069.574 210 193 177
-1149.452 429.251 1070.353 210 193 177
-1149.452 429.751 1070.754 206 189 173
-1149.452 430.251 1071.148 203 185 171
-1149.452 430.751 1071.471 205 187 173
-1149.452 431.251 1071.810 193 175 161
-1149.452 431.751 1072.116 187 169 155
-1149.452 432.251 1072.212 180 162 148
-1149.452 432.751 1072.419 184 167 152
-1147.952 433.251 1069.508 214 191 174
-1147.952 433.751 1069.775 210 185 165
-1147.952 434.251 1070.312 210 185 164
-1147.952 434.751 1070.357 212 187 165
-1147.452 433.251 1068.557 203 176 157
-1147.452 433.751 1068.647 209 181 162
-1147.452 434.251 1068.923 208 179 161
-1147.452 434.751 1068.917 216 189 168
-1147.452 435.251 1068.995 213 186 165
-1147.452 435.751 1069.257 217 190 170
-1147.452 436.251 1069.540 218 192 170
-1147.452 436.751 1069.609 218 192 171
-1147.452 437.251 1069.680 217 190 170
-1147.452 437.751 1069.868 215 188 167
-1147.452 438.251 1070.080 219 194 174
-1146.952 436.751 1068.427 210 184 161
-1146.952 437.251 1068.588 217 190 170
-1146.952 437.751 1068.726 217 190 170
-1146.952 438.251 1068.963 214 189 167
-1148.452 433.251 1070.728 209 188 171
-1147.952 435.251 1070.526 218 193 172
-1147.952 435.751 1070.834 215 190 170
-1147.952 436.251 1070.932 215 190 170
-1147.952 436.751 1071.051 212 188 166
-1147.952 437.251 1071.088 210 187 163
-1147.952 437.751 1071.161 214 190 170
-1147.952 438.251 1071.291 219 196 178
-1150.452 433.251 1073.536 179 166 155
-1150.452 433.751 1073.646 195 179 166
-1150.452 434.251 1073.754 204 188 175
-1150.452 434.751 1073.762 194 179 165
-1150.452 435.251 1073.790 193 177 164
-1149.952 433.251 1073.103 176 162 150
-1149.952 433.751 1073.253 175 159 146
-1149.952 434.251 1073.346 189 173 160
-1149.952 434.751 1073.411 184 168 155
-1149.952 435.251 1073.505 184 168 155
-1149.952 435.751 1073.543 184 168 154
-1149.952 436.251 1073.649 174 158 145
-1149.952 436.751 1073.745 180 166 152
-1149.952 437.251 1073.693 191 177 165
-1149.952 437.751 1073.657 180 167 155
-1149.952 438.251 1073.695 175 161 150
-1149.452 433.251 1072.597 193 175 161
-1149.452 433.751 1072.690 190 172 158
-1149.452 434.251 1072.773 196 179 164
-1149.452 434.751 1072.854 196 179 164
-1149.452 435.251 1073.119 194 176 162
-1149.452 435.751 1073.273 196 179 164
-1149.452 436.251 1073.336 181 163 149
-1149.452 436.751 1073.359 185 168 154
-1149.452 437.251 1073.297 192 176 161
-1149.452 437.751 1073.302 175 159 146
-1149.452 438.251 1073.345 170 153 143
-1148.952 433.251 1071.881 202 184 168
-1148.952 433.751 1072.094 198 179 164
-1148.952 434.251 1072.260 205 186 171
-1148.952 434.751 1072.392 205 186 171
-1148.952 435.251 1072.605 204 185 171
-1148.952 435.751 1072.788 206 187 172
-1148.952 436.251 1072.887 207 188 173
-1148.952 436.751 1072.837 195 177 162
-1148.952 437.251 1072.787 205 188 171
-1148.952 437.751 1072.847 202 184 170
-1148.952 438.251 1072.841 194 176 163
-1148.452 433.751 1071.033 206 185 167
-1148.452 434.251 1071.458 210 188 171
-1148.452 434.751 1071.569 211 190 171
-1148.452 435.251 1071.753 218 197 178
-1148.452 435.751 1072.023 221 200 181
-1148.452 436.251 1072.132 218 197 178
-1148.452 436.751 1072.139 206 185 166
-1148.452 437.251 1072.132 205 184 163
-1148.452 437.751 1072.219 210 190 172
-1148.452 438.251 1072.255 211 192 177
-1167.452 426.251 1073.850 166 153 141
-1167.452 426.751 1073.849 151 141 131
-1167.452 427.251 1073.853 153 140 131
-1166.952 425.751 1073.863 174 162 150
-1166.952 426.251 1073.861 152 139 130
-1166.952 426.751 1073.860 141 131 121
-1166.952 427.251 1073.863 156 146 136
-1166.452 425.251 1073.851 162 148 137
-1166.452 425.751 1073.885 150 136 127
-1166.452 426.251 1073.884 138 125 116
-1166.452 426.751 1073.879 140 127 118
-1166.452 427.251 1073.884 155 142 133
-1165.952 425.251 1073.869 179 164 152
-1165.952 425.751 1073.894 168 153 142
-1165.952 426.251 1073.886 167 154 142
-1165.952 426.751 1073.862 161 149 138
-1165.952 427.251 1073.870 179 166 156
-1165.452 425.251 1073.867 183 168 155
-1165.452 425.751 1073.884 184 169 156
-1165.452 426.251 1073.852 184 172 158
-1173.452 428.751 1073.872 200 186 174
-1173.452 429.251 1073.976 186 172 159
-1173.452 429.751 1074.142 198 183 167
-1173.452 430.251 1074.222 199 184 168
-1173.452 430.751 1074.249 198 183 166
-1173.452 431.251 1074.282 174 158 143
-1173.452 431.751 1074.359 180 164 151
-1173.452 432.251 1074.417 194 179 165
-1173.452 432.751 1074.526 201 185 171
-1172.952 428.751 1073.866 179 166 156
-1172.952 429.251 1073.945 187 173 162
-1172.952 429.751 1074.082 185 168 158
-1172.952 430.251 1074.205 189 173 160
-1172.952 430.751 1074.293 186 173 157
-1172.952 431.251 1074.323 187 174 158
-1172.952 431.751 1074.368 179 163 148
-1172.952 432.251 1074.397 177 161 146
-1172.952 432.751 1074.488 196 180 165
-1172.452 428.751 1073.866 155 142 133
-1172.452 429.251 1073.940 150 136 125
-1172.452 429.751 1074.048 169 152 142
-1172.452 430.251 1074.192 183 167 153
-1172.452 430.751 1074.309 179 167 150
-1172.452 431.251 1074.337 174 161 145
-1172.452 431.751 1074.370 163 147 132
-1172.452 432.251 1074.388 169 153 138
-1172.452 432.751 1074.445 184 168 152
-1177.452 424.751 1073.245 200 184 170
-1177.452 426.751 1073.500 186 170 155
-1177.452 427.251 1073.623 200 184 168
-1177.452 428.251 1074.014 195 179 163
-1177.452 428.751 1074.099 192 176 160
-1177.452 429.251 1074.134 191 175 159
-1177.452 429.751 1074.137 193 177 161
-1177.452 430.751 1074.147 201 185 171
-1176.952 401.251 1061.175 215 194 175
-1176.952 428.251 1073.992 206 190 174
-1176.952 428.751 1074.087 207 191 175
-1176.952 429.251 1074.154 211 195 179
-1176.952 429.751 1074.158 209 193 177
-1176.952 430.251 1074.165 210 194 178
-1176.952 430.751 1074.242 204 188 173
-1176.952 431.251 1074.316 196 180 165
-1176.952 431.751 1074.302 186 170 155
-1176.952 432.251 1074.282 181 166 150
-1176.952 432.751 1074.235 184 168 152
-1176.452 383.751 1058.509 217 195 174
-1176.452 428.251 1073.961 203 187 171
-1176.452 428.751 1074.054 212 196 180
-1176.452 429.251 1074.127 209 193 177
-1176.452 429.751 1074.240 198 183 166
-1176.452 430.251 1074.294 205 189 173
-1176.452 430.751 1074.343 201 185 171
-1176.452 431.251 1074.350 197 181 166
-1176.452 431.751 1074.309 193 177 162
-1176.452 432.251 1074.279 193 177 162
-1176.452 432.751 1074.237 193 177 162
-1175.952 428.251 1073.915 192 175 159
-1175.952 428.751 1074.034 204 188 172
-1175.952 429.251 1074.109 206 190 174
-1175.952 430.251 1074.409 188 175 158
-1175.952 430.751 1074.410 191 175 160
-1175.952 431.251 1074.367 189 173 158
-1175.952 431.751 1074.307 167 150 137
-1175.952 432.251 1074.268 163 147 134
-1175.952 432.751 1074.229 166 149 134
-1175.452 428.251 1073.866 174 158 143
-1175.452 428.751 1074.026 181 166 149
-1175.452 429.251 1074.135 194 179 162
-1175.452 429.751 1074.327 198 183 166
-1175.452 430.251 1074.414 189 176 159
-1175.452 430.751 1074.408 184 168 152
-1175.452 431.251 1074.366 185 169 154
-1175.452 431.751 1074.317 168 151 138
-1175.452 432.251 1074.294 156 140 127
-1175.452 432.751 1074.278 185 169 154
-1174.952 428.751 1073.963 194 179 163
-1174.952 429.251 1074.129 195 179 164
-1174.952 429.751 1074.283 193 177 162
-1174.952 430.251 1074.346 194 179 162
-1174.952 430.751 1074.358 194 179 162
-1174.952 431.251 1074.320 195 179 164
-1174.952 431.751 1074.310 193 177 164
-1174.952 432.251 1074.334 192 176 163
-1174.952 432.751 1074.370 207 191 176
-1174.452 428.751 1073.910 189 174 160
-1174.452 429.251 1074.099 196 180 165
-1174.452 429.751 1074.196 197 181 166
-1174.452 430.251 1074.274 202 186 171
-1174.452 430.751 1074.285 208 192 177
-1174.452 431.251 1074.281 206 190 175
-1174.452 431.751 1074.307 199 184 171
-1174.452 432.251 1074.371 196 180 167
-1174.452 432.751 1074.434 200 184 170
-1173.952 428.751 1073.885 203 189 176
-1173.952 429.251 1074.030 200 184 171
-1173.952 429.751 1074.149 200 184 170
-1173.952 430.251 1074.233 206 190 175
-1173.952 430.751 1074.252 207 191 175
-1173.952 431.251 1074.270 187 171 156
-1173.952 431.751 1074.314 177 161 148
-1173.952 432.251 1074.406 195 179 166
-1173.952 432.751 1074.504 197 181 166
-1173.452 425.751 1073.542 186 172 163
-1167.952 427.751 1073.869 175 163 151
-1167.952 428.251 1073.900 179 166 154
-1167.952 428.751 1073.924 198 184 171
-1167.952 429.251 1073.967 203 189 178
-1167.952 429.751 1074.073 193 181 170
-1167.452 427.751 1073.883 188 175 166
-1167.452 428.251 1073.896 197 184 172
-1167.452 428.751 1073.925 205 191 178
-1167.452 429.251 1073.974 209 195 184
-1167.452 429.751 1074.072 192 179 171
-1167.452 430.251 1074.126 177 164 155
-1167.452 430.751 1074.183 171 161 152
-1167.452 431.251 1074.266 157 147 137
-1167.452 431.751 1074.382 169 159 149
-1167.452 432.251 1074.493 174 164 154
-1167.452 432.751 1074.544 170 160 149
-1166.952 427.751 1073.896 186 173 164
-1166.952 428.251 1073.901 202 188 177
-1166.952 428.751 1073.933 202 187 174
-1166.952 429.251 1073.988 174 160 149
-1166.952 429.751 1074.088 179 166 156
-1166.952 430.251 1074.149 167 156 146
-1166.952 430.751 1074.209 167 156 147
-1166.952 431.251 1074.322 172 162 153
-1166.952 431.751 1074.486 179 169 159
-1166.952 432.251 1074.547 169 159 149
-1166.952 432.751 1074.592 148 138 128
-1171.952 428.751 1073.875 172 158 148
-1171.952 429.251 1073.945 152 138 127
-1171.952 429.751 1074.052 160 145 132
-1171.952 430.251 1074.162 181 166 152
-1171.952 430.751 1074.239 180 168 151
-1171.952 431.251 1074.321 180 168 151
-1171.952 431.751 1074.343 180 164 149
-1171.952 432.251 1074.374 199 184 168
-1171.952 432.751 1074.401 210 194 179
-1171.452 428.751 1073.886 190 176 164
-1171.452 429.251 1073.932 173 159 146
-1171.452 429.751 1074.034 197 184 171
-1171.452 430.251 1074.117 211 195 182
-1171.452 430.751 1074.171 206 193 177
-1171.452 431.251 1074.254 195 183 166
-1171.452 431.751 1074.321 192 176 161
-1171.452 432.251 1074.348 201 185 171
-1171.452 432.751 1074.384 216 200 185
-1170.952 428.751 1073.891 183 168 155
-1170.952 429.251 1073.939 186 172 159
-1170.952 429.751 1074.039 219 205 192
-1170.952 430.251 1074.098 207 193 180
-1170.952 430.751 1074.135 200 187 171
-1170.952 431.251 1074.182 187 174 158
-1170.952 431.751 1074.257 176 160 145
-1170.952 432.251 1074.332 193 177 162
-1170.952 432.751 1074.365 192 176 161
-1170.452 428.751 1073.894 180 167 153
-1170.452 429.251 1073.943 197 184 171
-1170.452 429.751 1074.027 219 205 192
-1170.452 430.251 1074.079 210 196 183
-1170.452 430.751 1074.126 210 197 181
-1170.452 431.251 1074.160 195 183 166
-1170.452 431.751 1074.224 176 160 145
-1170.452 432.251 1074.315 199 184 168
-1170.452 432.751 1074.367 206 190 175
-1169.952 428.251 1073.878 207 195 182
-1169.952 428.751 1073.922 197 185 172
-1169.952 429.251 1073.969 176 164 151
-1169.952 429.751 1074.036 193 179 168
-1169.952 430.251 1074.077 220 205 192
-1169.952 430.751 1074.133 215 200 186
-1169.952 431.251 1074.182 203 189 174
-1169.952 431.751 1074.249 197 181 166
-1169.952 432.251 1074.334 204 188 173
-1169.952 432.751 1074.378 219 203 188
-1169.452 428.251 1073.896 171 158 149
-1169.452 428.751 1073.956 156 143 134
-1169.452 429.251 1074.001 151 138 129
-1169.452 429.751 1074.032 169 155 144
-1169.452 430.251 1074.077 184 169 156
-1169.452 430.751 1074.129 192 176 163
-1169.452 431.251 1074.217 205 189 176
-1169.452 431.751 1074.270 204 188 175
-1169.452 432.251 1074.321 201 185 171
-1169.452 432.751 1074.377 217 201 186
-1168.952 428.251 1073.898 166 153 141
-1168.952 428.751 1073.964 147 134 125
-1168.952 429.251 1074.011 150 138 126
-1168.952 429.751 1074.039 168 154 143
-1168.952 430.251 1074.086 179 164 151
-1168.952 430.751 1074.153 174 160 149
-1168.952 431.251 1074.242 198 184 171
-1168.952 431.751 1074.292 201 187 174
-1168.952 432.251 1074.325 185 171 158
-1168.952 432.751 1074.389 195 181 167
-1168.452 427.751 1073.861 179 164 153
-1168.452 428.251 1073.908 193 181 170
-1168.452 428.751 1073.948 189 177 165
-1168.452 429.251 1073.982 160 148 136
-1168.452 429.751 1074.039 167 152 141
-1168.452 430.251 1074.106 184 170 159
-1168.452 430.751 1074.171 195 181 171
-1168.452 431.251 1074.249 198 184 173
-1168.452 431.751 1074.304 202 188 177
-1168.452 432.251 1074.348 204 190 178
-1168.452 432.751 1074.441 208 194 181
-1167.952 430.251 1074.141 193 181 171
-1167.952 430.751 1074.190 183 169 160
-1167.952 431.251 1074.255 168 155 145
-1167.952 431.751 1074.333 179 166 155
-1167.952 432.251 1074.394 184 171 159
-1167.952 432.751 1074.507 197 185 173
-1162.952 428.251 1073.882 179 168 155
-1162.952 428.751 1073.977 189 177 165
-1162.952 429.251 1074.050 202 190 178
-1162.952 429.751 1074.102 179 168 155
-1162.952 430.251 1074.210 175 162 153
-1162.952 430.751 1074.246 177 168 158
-1162.952 431.251 1074.289 175 167 157
-1162.452 428.251 1073.868 170 157 146
-1162.452 428.751 1073.955 179 168 155
-1162.452 429.251 1074.026 205 193 181
-1162.452 429.751 1074.077 162 150 138
-1162.452 430.251 1074.145 160 147 138
-1162.452 430.751 1074.204 156 145 139
-1162.452 431.251 1074.250 158 149 141
-1162.452 431.751 1074.322 171 162 153
-1162.452 432.251 1074.365 169 160 151
-1162.452 432.751 1074.423 168 156 147
-1161.952 428.251 1073.865 173 160 151
-1161.952 428.751 1073.914 188 175 166
-1161.952 429.251 1073.995 199 186 177
-1161.952 429.751 1074.039 183 169 160
-1161.952 430.251 1074.091 160 147 138
-1161.952 430.751 1074.156 161 150 144
-1161.952 431.251 1074.210 163 154 147
-1161.952 431.751 1074.271 161 152 144
-1161.952 432.251 1074.334 172 163 154
-1161.952 432.751 1074.381 174 163 154
-1166.452 427.751 1073.929 181 168 159
-1166.452 428.251 1073.940 171 158 149
-1166.452 428.751 1073.967 175 162 153
-1166.452 429.251 1074.044 173 160 151
-1166.452 429.751 1074.133 184 171 162
-1166.452 430.251 1074.203 173 160 151
-1166.452 430.751 1074.276 164 154 144
-1166.452 431.251 1074.367 173 163 153
-1166.452 431.751 1074.493 174 164 154
-1166.452 432.251 1074.551 176 167 156
-1166.452 432.751 1074.614 176 167 156
-1165.952 427.751 1073.939 183 169 160
-1165.952 428.251 1073.958 173 160 151
-1165.952 428.751 1073.996 159 146 137
-1165.952 429.251 1074.078 176 163 154
-1165.952 429.751 1074.187 190 177 168
-1165.952 430.251 1074.253 191 179 170
-1165.952 430.751 1074.309 179 168 158
-1165.952 431.251 1074.392 180 170 160
-1165.952 431.751 1074.460 169 159 149
-1165.952 432.251 1074.505 173 163 153
-1165.952 432.751 1074.583 175 166 155
-1165.452 427.751 1073.912 177 164 155
-1165.452 428.251 1073.948 157 144 135
-1165.452 428.751 1073.989 164 151 142
-1165.452 429.251 1074.080 174 161 152
-1165.452 429.751 1074.208 183 169 160
-1165.452 430.251 1074.275 184 170 161
-1165.452 430.751 1074.324 184 173 163
-1165.452 431.251 1074.405 181 171 161
-1165.452 431.751 1074.443 171 161 151
-1165.452 432.251 1074.463 163 153 143
-1165.452 432.751 1074.533 163 153 143
-1164.952 427.751 1073.873 179 166 156
-1164.952 428.251 1073.921 166 152 143
-1164.952 428.751 1073.971 157 144 135
-1164.952 429.251 1074.081 176 163 154
-1164.952 429.751 1074.214 184 170 161
-1164.952 430.251 1074.302 175 162 153
-1164.952 430.751 1074.370 168 158 148
-1164.952 431.251 1074.440 160 150 140
-1164.952 431.751 1074.458 160 150 140
-1164.952 432.251 1074.463 162 152 142
-1164.952 432.751 1074.514 170 160 150
-1164.452 427.751 1073.861 172 159 150
-1164.452 428.251 1073.911 175 162 153
-1164.452 428.751 1073.971 168 155 146
-1164.452 429.251 1074.089 175 162 153
-1164.452 429.751 1074.210 184 171 162
-1164.452 430.251 1074.300 172 159 150
-1164.452 430.751 1074.356 157 147 137
-1164.452 431.251 1074.449 159 149 139
-1164.452 431.751 1074.471 159 149 139
-1164.452 432.251 1074.474 184 174 164
-1164.452 432.751 1074.505 180 170 160
-1163.952 427.751 1073.859 179 167 157
-1163.952 428.251 1073.905 186 173 164
-1163.952 428.751 1073.976 179 167 157
-1163.952 429.251 1074.078 191 179 170
-1163.952 429.751 1074.167 179 166 156
-1163.952 430.251 1074.272 169 156 147
-1163.952 430.751 1074.321 174 164 154
-1163.952 431.251 1074.416 176 167 156
-1163.952 431.751 1074.468 177 168 157
-1163.952 432.251 1074.472 179 169 159
-1163.952 432.751 1074.490 188 179 168
-1163.452 427.751 1073.854 184 172 160
-1163.452 428.251 1073.898 190 179 166
-1163.452 428.751 1073.985 187 175 163
-1163.452 429.251 1074.062 192 180 168
-1163.452 429.751 1074.124 188 176 164
-1163.452 430.251 1074.249 183 169 160
-1163.452 430.751 1074.280 171 161 152
-1163.452 431.251 1074.352 184 174 165
-1163.452 431.751 1074.440 183 173 164
-1163.452 432.251 1074.453 175 167 157
-1163.452 432.751 1074.468 171 159 150
-1162.952 431.751 1074.378 169 160 151
-1162.952 432.251 1074.417 168 158 149
-1162.952 432.751 1074.452 164 153 143
-1157.952 429.251 1073.873 164 151 143
-1157.952 429.751 1073.940 166 152 144
-1157.952 430.251 1073.989 168 157 148
-1157.952 430.751 1074.066 172 159 152
-1157.952 431.251 1074.112 175 163 155
-1157.952 431.751 1074.171 166 153 144
-1157.452 429.751 1073.913 174 161 153
-1157.452 430.251 1073.976 166 154 146
-1157.452 430.751 1074.081 159 146 138
-1157.452 431.251 1074.120 161 148 139
-1157.452 431.751 1074.193 179 167 155
-1157.452 432.251 1074.275 193 181 170
-1157.452 432.751 1074.338 199 187 173
-1156.952 429.751 1073.875 184 172 161
-1156.952 430.251 1073.968 179 168 156
-1156.952 430.751 1074.084 171 154 146
-1156.952 431.251 1074.133 179 161 153
-1156.952 431.751 1074.218 199 183 172
-1156.952 432.251 1074.291 207 191 178
-1156.952 432.751 1074.357 204 188 174
-1156.452 429.751 1073.860 187 175 163
-1156.452 430.251 1073.971 191 179 167
-1156.452 430.751 1074.064 194 180 171
-1156.452 431.251 1074.134 196 183 173
-1156.452 431.751 1074.215 207 193 182
-1156.452 432.251 1074.295 204 190 177
-1156.452 432.751 1074.358 180 168 153
-1161.452 428.251 1073.861 176 163 154
-1161.452 428.751 1073.896 187 174 165
-1161.452 429.251 1073.966 179 167 157
-1161.452 429.751 1074.006 179 166 156
-1161.452 430.251 1074.048 167 153 145
-1161.452 430.751 1074.107 169 158 152
-1161.452 431.251 1074.153 167 157 150
-1161.452 431.751 1074.221 172 163 156
-1161.452 432.251 1074.308 168 158 151
-1161.452 432.751 1074.348 162 150 142
-1160.952 428.251 1073.876 174 161 152
-1160.952 428.751 1073.895 179 167 157
-1160.952 429.251 1073.947 169 156 147
-1160.952 429.751 1073.990 188 175 166
-1160.952 430.251 1074.034 166 152 144
-1160.952 430.751 1074.083 152 141 137
-1160.952 431.251 1074.124 158 149 142
-1160.952 431.751 1074.190 163 154 147
-1160.952 432.251 1074.279 176 168 160
-1160.952 432.751 1074.338 176 164 157
-1160.452 428.251 1073.890 174 161 153
-1160.452 428.751 1073.897 166 152 144
-1160.452 429.251 1073.926 168 154 146
-1160.452 429.751 1073.973 184 170 162
-1160.452 430.251 1074.037 172 162 153
-1160.452 430.751 1074.071 158 147 143
-1160.452 431.251 1074.122 142 133 126
-1160.452 431.751 1074.188 174 166 158
-1160.452 432.251 1074.256 179 170 163
-1160.452 432.751 1074.325 173 163 155
-1159.952 428.251 1073.875 164 150 141
-1159.952 428.751 1073.895 171 158 150
-1159.952 429.251 1073.914 180 168 159
-1159.952 429.751 1073.966 179 166 157
-1159.952 430.251 1074.044 180 170 161
-1159.952 430.751 1074.068 164 155 148
-1159.952 431.251 1074.125 155 146 139
-1159.952 431.751 1074.192 162 153 146
-1159.952 432.251 1074.247 157 148 141
-1159.952 432.751 1074.306 162 153 146
-1159.452 428.751 1073.874 170 157 149
-1159.452 429.251 1073.910 179 166 157
-1159.452 429.751 1073.962 176 163 155
-1159.452 430.251 1074.027 166 155 146
-1159.452 430.751 1074.068 162 151 147
-1159.452 431.251 1074.119 163 152 148
-1159.452 431.751 1074.187 144 133 129
-1159.452 432.251 1074.247 141 130 124
-1159.452 432.751 1074.293 138 127 121
-1158.952 429.251 1073.909 172 159 151
-1158.952 429.751 1073.958 168 155 147
-1158.952 430.251 1074.004 170 160 152
-1158.952 430.751 1074.069 170 159 155
-1158.952 431.251 1074.109 163 152 148
-1158.952 431.751 1074.179 143 132 128
-1158.952 432.251 1074.251 148 137 131
-1158.952 432.751 1074.290 143 132 126
-1158.452 429.251 1073.891 167 153 145
-1158.452 429.751 1073.953 163 150 142
-1158.452 430.251 1073.997 170 160 151
-1158.452 430.751 1074.065 183 171 167
-1158.452 431.251 1074.107 171 160 154
-1158.452 431.751 1074.169 154 144 137
-1158.452 432.251 1074.258 155 145 136
-1158.452 432.751 1074.296 159 149 140
-1157.952 432.251 1074.264 172 161 151
-1157.952 432.751 1074.307 184 172 161
-1154.452 430.251 1073.886 189 177 165
-1154.452 430.751 1073.979 185 173 161
-1154.452 431.251 1074.051 184 171 159
-1154.452 431.751 1074.186 186 174 162
-1153.952 430.251 1073.873 190 179 167
-1153.952 430.751 1073.966 180 168 155
-1153.952 431.251 1074.035 181 169 157
-1153.952 431.751 1074.148 181 169 157
-1153.952 432.251 1074.183 184 172 160
-1153.952 432.751 1074.201 183 170 157
-1153.452 430.751 1073.926 180 168 156
-1153.452 431.251 1074.018 179 167 154
-1153.452 431.751 1074.099 184 171 159
-1153.452 432.251 1074.139 181 169 157
-1153.452 432.751 1074.157 181 169 155
-1152.952 431.251 1074.002 188 176 164
-1152.952 431.751 1074.075 190 179 166
-1152.952 432.251 1074.095 187 175 163
-1152.952 432.751 1074.109 184 171 157
-1152.452 431.251 1073.894 199 185 174
-1152.452 431.751 1074.038 196 183 171
-1152.452 432.251 1074.051 195 181 171
-1152.452 432.751 1074.078 201 187 174
-1151.952 431.751 1073.865 192 179 167
-1151.952 432.251 1074.007 198 184 173
-1151.952 432.751 1074.045 200 186 173
-1151.452 432.751 1073.895 200 186 173
-1155.952 429.751 1073.853 191 179 167
-1155.952 430.251 1073.946 180 168 156
-1155.952 430.751 1074.028 185 171 162
-1155.952 431.251 1074.104 186 172 161
-1155.952 431.751 1074.188 207 193 182
-1155.952 432.251 1074.277 209 195 184
-1155.952 432.751 1074.330 189 175 162
-1155.452 430.251 1073.909 181 169 157
-1155.452 430.751 1074.002 183 168 157
-1155.452 431.251 1074.083 190 176 165
-1155.452 431.751 1074.182 204 190 179
-1155.452 432.251 1074.251 217 203 192
-1155.452 432.751 1074.292 201 187 174
-1154.952 430.251 1073.897 184 171 159
-1154.952 430.751 1073.990 184 171 159
-1154.952 431.251 1074.060 186 174 162
-1154.952 431.751 1074.186 194 183 171
-1154.952 432.251 1074.225 198 186 174
-1154.952 432.751 1074.255 188 176 164
-1154.452 432.251 1074.208 184 172 160
-1154.452 432.751 1074.226 184 171 159
-1172.952 433.251 1074.646 203 187 172
-1172.952 433.751 1074.758 196 180 165
-1172.952 434.251 1074.875 188 172 157
-1172.952 434.751 1074.911 190 174 159
-1172.952 435.251 1074.915 200 184 170
-1172.952 435.751 1074.915 203 187 172
-1172.952 436.251 1074.943 203 187 172
-1172.952 436.751 1075.002 212 196 180
-1172.952 437.251 1075.054 204 188 172
-1172.452 433.251 1074.561 202 186 171
-1172.452 433.751 1074.655 209 193 178
-1172.452 434.251 1074.768 201 185 171
-1172.452 434.751 1074.877 202 186 171
-1172.452 435.251 1074.924 214 198 183
-1172.452 435.751 1074.964 201 185 171
-1172.452 436.251 1075.017 207 191 176
-1172.452 436.751 1075.070 213 197 182
-1172.452 437.251 1075.106 209 193 178
-1172.452 437.751 1075.136 210 194 178
-1172.452 438.251 1075.196 202 186 171
-1173.452 433.251 1074.689 199 184 167
-1173.452 433.751 1074.847 179 167 150
-1173.452 434.251 1074.891 153 140 124
-1173.452 434.751 1074.887 149 136 120
-1173.452 435.251 1074.848 152 139 123
-1172.952 437.751 1075.086 203 187 171
-1172.952 438.251 1075.120 195 179 163
-1177.452 382.251 1058.524 213 190 172
-1177.452 395.251 1059.608 210 185 163
-1177.452 398.751 1060.242 232 210 191
-1177.452 414.251 1068.172 227 210 190
-1177.452 415.251 1071.145 211 196 177
-1177.452 432.251 1074.243 171 155 140
-1177.452 433.251 1074.149 175 159 144
-1177.452 433.751 1074.160 179 161 145
-1177.452 435.251 1074.251 208 191 175
-1176.952 383.251 1058.555 223 201 179
-1176.952 433.251 1074.205 190 174 159
-1176.952 433.751 1074.200 195 179 162
-1176.952 434.751 1074.240 209 192 176
-1176.952 435.251 1074.270 204 187 171
-1176.952 436.251 1074.386 208 193 174
-1176.952 436.751 1074.374 208 192 175
-1176.952 437.251 1074.357 210 191 176
-1176.952 438.251 1074.299 183 159 143
-1176.452 433.251 1074.228 200 184 170
-1176.452 433.751 1074.222 194 177 161
-1176.452 434.251 1074.232 202 185 170
-1176.452 434.751 1074.255 207 191 175
-1176.452 435.251 1074.278 210 194 178
-1176.452 435.751 1074.331 206 190 172
-1176.452 436.251 1074.394 205 190 171
-1176.452 436.751 1074.411 206 190 172
-1176.452 437.251 1074.455 199 183 166
-1176.452 437.751 1074.496 218 200 185
-1176.452 438.251 1074.503 222 202 185
-1175.952 429.751 1074.320 194 179 163
-1175.952 433.251 1074.228 189 173 157
-1175.952 433.751 1074.234 203 186 171
-1175.952 434.251 1074.256 202 185 170
-1175.952 434.751 1074.273 197 180 164
-1175.952 435.251 1074.308 211 194 178
-1175.952 435.751 1074.376 215 198 182
-1175.952 436.251 1074.442 208 191 175
-1175.952 436.751 1074.496 202 185 170
-1175.952 437.251 1074.575 198 183 166
-1175.952 437.751 1074.622 204 188 172
-1175.952 438.251 1074.624 210 193 175
-1175.452 433.251 1074.269 198 183 166
-1175.452 433.751 1074.300 205 189 173
-1175.452 434.251 1074.374 205 189 173
-1175.452 434.751 1074.384 201 185 170
-1175.452 435.251 1074.414 210 194 178
-1175.452 435.751 1074.456 217 201 185
-1175.452 436.251 1074.515 211 195 179
-1175.452 436.751 1074.585 209 193 177
-1175.452 437.251 1074.657 208 192 176
-1175.452 437.751 1074.722 205 189 173
-1175.452 438.251 1074.763 202 185 167
-1174.952 433.251 1074.385 196 180 164
-1174.952 433.751 1074.434 205 189 173
-1174.952 434.251 1074.503 198 183 166
-1174.952 434.751 1074.515 199 184 167
-1174.952 435.251 1074.542 205 189 173
-1174.952 435.751 1074.551 217 201 185
-1174.952 436.251 1074.585 204 188 172
-1174.952 436.751 1074.651 208 192 176
-1174.952 437.251 1074.728 214 198 182
-1174.952 437.751 1074.810 209 193 177
-1174.952 438.251 1074.880 201 184 168
-1174.452 433.251 1074.481 193 177 161
-1174.452 433.751 1074.566 196 180 165
-1174.452 434.251 1074.668 192 176 161
-1174.452 434.751 1074.659 189 173 158
-1174.452 435.251 1074.640 186 170 155
-1174.452 435.751 1074.636 197 181 166
-1174.452 436.251 1074.670 193 177 162
-1174.452 436.751 1074.743 208 192 177
-1174.452 437.251 1074.810 210 194 178
-1174.452 437.751 1074.891 210 194 178
-1174.452 438.251 1074.943 210 193 177
-1173.952 433.251 1074.622 193 177 161
-1173.952 433.751 1074.759 179 164 148
-1173.952 434.251 1074.819 157 143 127
-1173.952 434.751 1074.794 156 142 126
-1173.952 435.251 1074.738 151 136 121
-1173.952 435.751 1074.725 154 140 125
-1173.952 436.251 1074.759 180 166 150
-1173.952 436.751 1074.834 200 185 170
-1173.952 437.251 1074.916 209 193 177
-1173.952 437.751 1074.967 210 194 178
-1173.952 438.251 1074.990 204 188 172
-1173.452 426.251 1073.580 168 154 145
-1173.452 435.751 1074.811 188 175 159
-1173.452 436.251 1074.837 206 193 177
-1173.452 436.751 1074.928 205 191 175
-1173.452 437.251 1074.996 206 190 174
-1173.452 437.751 1075.038 201 185 170
-1173.452 438.251 1075.052 200 184 168
-1167.952 433.251 1074.528 200 188 175
-1167.952 433.751 1074.553 198 185 173
-1167.952 434.251 1074.591 198 185 173
-1167.952 434.751 1074.656 203 189 176
-1167.952 435.251 1074.771 205 192 176
-1167.452 433.251 1074.571 163 153 141
-1167.452 433.751 1074.586 172 160 148
-1167.452 434.251 1074.631 191 179 167
-1167.452 434.751 1074.711 201 188 176
-1167.452 435.251 1074.802 201 187 174
-1167.452 435.751 1074.926 195 183 166
-1167.452 436.251 1075.077 202 189 173
-1167.452 436.751 1075.192 206 192 176
-1167.452 437.251 1075.337 204 188 173
-1167.452 437.751 1075.425 204 188 173
-1167.452 438.251 1075.478 204 188 173
-1166.952 433.251 1074.608 144 134 122
-1166.952 433.751 1074.613 157 144 135
-1166.952 434.251 1074.655 175 163 151
-1166.952 434.751 1074.731 194 183 170
-1166.952 435.251 1074.810 192 179 165
-1166.952 435.751 1074.936 199 186 171
-1166.952 436.251 1075.109 209 196 180
-1166.952 436.751 1075.262 199 184 168
-1166.952 437.251 1075.426 195 179 164
-1166.952 437.751 1075.476 195 179 164
-1166.952 438.251 1075.502 197 181 166
-1171.952 433.251 1074.477 205 189 174
-1171.952 433.751 1074.589 208 192 177
-1171.952 434.251 1074.684 200 184 170
-1171.952 434.751 1074.816 195 179 164
-1171.952 435.251 1074.910 202 186 171
-1171.952 435.751 1075.003 200 184 170
-1171.952 436.251 1075.080 204 188 173
