-1070.452 323.251 1057.269 230 216 200
-1070.452 323.751 1057.576 231 217 200
-1070.452 324.251 1058.033 230 215 199
-1070.452 324.751 1058.813 227 214 198
-1069.952 323.751 1057.518 230 216 199
-1069.952 324.251 1057.795 232 215 197
-1069.952 324.751 1058.304 231 216 200
-1069.452 323.751 1057.349 231 214 198
-1069.452 324.251 1057.626 231 215 196
-1069.452 324.751 1058.087 230 215 197
-1068.952 324.251 1057.493 231 215 196
-1068.952 324.751 1057.891 231 214 195
-1068.452 324.251 1057.405 228 211 193
-1068.452 324.751 1057.650 228 211 192
-1067.952 324.251 1057.351 225 208 188
-1067.952 324.751 1057.498 228 211 191
-1067.452 324.251 1057.310 224 205 190
-1067.452 324.751 1057.447 228 210 195
-1066.952 324.751 1057.341 224 206 190
-1066.452 324.751 1057.289 232 213 196
-1054.952 320.751 1057.270 201 181 162
-1054.952 321.251 1057.283 206 188 168
-1054.952 321.751 1057.286 209 188 170
-1054.952 322.251 1057.290 218 197 178
-1054.952 322.751 1057.310 219 198 179
-1054.952 323.251 1057.328 222 201 180
-1054.952 323.751 1057.335 221 200 179
-1055.452 321.751 1057.266 203 185 165
-1055.452 322.251 1057.275 211 193 173
-1055.452 322.751 1057.288 219 198 179
-1055.452 323.251 1057.304 223 202 183
-1055.452 323.751 1057.292 219 198 177
-1055.452 324.251 1057.292 215 194 173
-1055.452 324.751 1057.297 210 188 167
-1054.952 324.251 1057.333 216 195 174
-1054.952 324.751 1057.340 214 193 172
-1049.952 321.251 1057.273 216 194 178
-1049.952 321.751 1057.351 210 189 172
-1049.952 322.251 1057.399 209 188 171
-1049.952 322.751 1057.475 209 189 172
-1049.452 321.751 1057.313 219 198 180
-1049.452 322.251 1057.385 214 193 176
-1049.452 322.751 1057.445 214 194 177
-1049.452 323.251 1057.588 206 187 172
-1049.452 323.751 1057.814 184 167 152
-1049.452 324.251 1057.884 164 146 134
-1049.452 324.751 1057.920 156 138 128
-1050.952 320.751 1057.290 190 172 158
-1050.952 321.251 1057.327 196 175 155
-1050.952 321.751 1057.395 209 188 168
-1050.952 322.251 1057.429 217 196 175
-1050.452 321.251 1057.302 196 175 161
-1050.452 321.751 1057.388 201 180 163
-1050.452 322.251 1057.416 200 179 160
-1050.452 322.751 1057.490 194 174 155
-1050.452 323.251 1057.556 183 164 144
-1050.452 323.751 1057.638 179 161 144
-1050.452 324.251 1057.789 167 149 133
-1050.452 324.751 1057.813 164 147 133
-1049.952 323.251 1057.569 196 177 161
-1049.952 323.751 1057.744 186 169 154
-1049.952 324.251 1057.871 176 158 145
-1049.952 324.751 1057.887 167 149 138
-1054.452 320.251 1057.271 198 180 160
-1054.452 320.751 1057.310 212 194 174
-1054.452 321.251 1057.321 209 191 171
-1054.452 321.751 1057.322 209 191 171
-1054.452 322.251 1057.315 210 192 172
-1054.452 322.751 1057.333 220 202 182
-1054.452 323.251 1057.349 223 202 183
-1054.452 323.751 1057.374 222 201 182
-1054.452 324.251 1057.385 217 196 177
-1054.452 324.751 1057.387 217 195 173
-1053.952 320.251 1057.322 207 189 170
-1053.952 320.751 1057.360 211 193 173
-1053.952 321.251 1057.361 205 187 167
-1053.952 321.751 1057.369 203 185 165
-1053.952 322.251 1057.341 203 185 165
-1053.952 322.751 1057.360 215 196 176
-1053.952 323.251 1057.376 223 202 183
-1053.952 323.751 1057.391 219 198 179
-1053.952 324.251 1057.413 216 195 176
-1053.952 324.751 1057.411 215 194 174
-1053.452 319.751 1057.267 201 184 163
-1053.452 320.251 1057.355 204 186 166
-1053.452 320.751 1057.403 204 186 166
-1053.452 321.251 1057.395 200 183 162
-1053.452 321.751 1057.387 202 184 164
-1053.452 322.251 1057.354 204 186 166
-1053.452 322.751 1057.371 209 188 170
-1053.452 323.251 1057.387 216 195 176
-1053.452 323.751 1057.408 214 193 174
-1053.452 324.251 1057.438 213 192 173
-1053.452 324.751 1057.441 204 184 164
-1052.952 319.751 1057.335 196 179 158
-1052.952 320.251 1057.386 197 179 159
-1052.952 320.751 1057.424 196 179 158
-1052.952 321.251 1057.421 193 175 155
-1052.952 321.751 1057.398 197 176 157
-1052.952 322.251 1057.360 193 172 153
-1052.952 322.751 1057.374 181 160 141
-1052.952 323.251 1057.396 190 169 150
-1052.952 323.751 1057.429 188 168 148
-1052.952 324.251 1057.473 185 168 147
-1052.952 324.751 1057.483 173 154 136
-1052.452 319.751 1057.372 190 172 152
-1052.452 320.251 1057.399 184 166 145
-1052.452 320.751 1057.426 184 167 146
-1052.452 321.251 1057.426 163 145 125
-1052.452 321.751 1057.413 170 149 130
-1052.452 322.251 1057.392 189 168 149
-1052.452 322.751 1057.395 202 181 162
-1052.452 323.251 1057.418 212 191 172
-1052.452 323.751 1057.452 212 194 174
-1052.452 324.251 1057.494 206 188 168
-1052.452 324.751 1057.517 193 175 156
-1051.952 319.751 1057.340 201 184 163
-1051.952 320.251 1057.369 200 183 162
-1051.952 320.751 1057.407 190 172 152
-1051.952 321.251 1057.410 194 176 156
-1051.952 321.751 1057.412 196 174 155
-1051.952 322.251 1057.422 209 188 170
-1051.952 322.751 1057.427 215 194 175
-1051.952 323.251 1057.446 213 195 175
-1051.952 323.751 1057.493 211 193 173
-1051.952 324.251 1057.520 196 179 158
-1051.952 324.751 1057.566 181 163 144
-1051.452 320.251 1057.300 202 189 172
-1051.452 320.751 1057.350 193 175 154
-1051.452 321.251 1057.374 192 172 148
-1051.452 321.751 1057.400 200 179 158
-1051.452 322.251 1057.433 216 195 174
-1051.452 322.751 1057.458 214 194 173
-1051.452 323.251 1057.489 213 195 173
-1051.452 323.751 1057.542 206 190 167
-1051.452 324.251 1057.582 191 175 152
-1051.452 324.751 1057.641 184 168 147
-1050.952 322.751 1057.476 215 196 174
-1050.952 323.251 1057.527 213 195 173
-1050.952 323.751 1057.585 207 191 168
-1050.952 324.251 1057.683 186 169 151
-1050.952 324.751 1057.723 184 167 148
-1044.952 320.251 1057.350 202 184 171
-1044.952 320.751 1057.482 204 187 172
-1044.952 321.251 1057.634 214 198 182
-1044.952 321.751 1057.797 223 206 184
-1044.952 322.251 1057.847 212 195 174
-1044.952 322.751 1057.862 207 189 171
-1044.452 320.251 1057.357 195 177 163
-1044.452 320.751 1057.501 199 181 166
-1044.452 321.251 1057.646 211 194 178
-1044.452 321.751 1057.834 216 199 178
-1044.452 322.251 1057.859 215 199 176
-1044.452 322.751 1057.870 214 196 177
-1044.452 323.251 1057.901 208 187 171
-1044.452 323.751 1057.927 199 179 159
-1044.452 324.251 1057.974 200 177 159
-1044.452 324.751 1058.010 207 185 164
-1082.452 325.251 1060.198 193 174 160
-1082.452 325.751 1060.414 174 155 140
-1082.452 326.251 1060.627 207 188 171
-1082.452 326.751 1060.850 216 197 180
-1082.452 327.251 1061.071 196 177 160
-1082.452 327.751 1061.426 192 173 157
-1082.452 328.251 1061.713 198 179 167
-1081.952 325.251 1060.593 186 168 156
-1081.952 325.751 1060.823 144 125 113
-1081.952 326.251 1060.998 177 159 144
-1081.952 326.751 1061.234 205 187 171
-1081.952 327.251 1061.390 215 197 179
-1081.952 327.751 1061.651 201 184 165
-1081.952 328.251 1061.849 192 174 163
-1081.952 328.751 1062.093 159 142 132
-1081.952 329.251 1062.443 153 138 127
-1081.952 329.751 1062.662 186 171 157
-1081.452 325.251 1061.093 168 150 140
-1081.452 325.751 1061.312 158 140 130
-1081.452 326.251 1061.430 148 130 120
-1081.452 326.751 1061.664 181 163 151
-1081.452 327.251 1061.730 185 168 153
-1081.452 327.751 1061.841 167 149 134
-1081.452 328.251 1061.974 170 152 141
-1081.452 328.751 1062.169 146 129 121
-1081.452 329.251 1062.445 156 142 133
-1081.452 329.751 1062.669 177 163 151
-1048.952 321.751 1057.313 218 197 178
-1048.952 322.251 1057.394 213 192 173
-1048.952 322.751 1057.459 209 189 171
-1048.952 323.251 1057.630 204 185 168
-1048.952 323.751 1057.789 202 184 171
-1048.952 324.251 1057.844 195 177 165
-1048.952 324.751 1057.921 181 163 153
-1048.452 321.751 1057.343 213 192 172
-1048.452 322.251 1057.415 210 189 170
-1048.452 322.751 1057.492 198 180 160
-1048.452 323.251 1057.655 198 179 162
-1048.452 323.751 1057.736 204 187 172
-1048.452 324.251 1057.800 207 189 177
-1048.452 324.751 1057.864 192 174 162
-1047.952 321.251 1057.280 208 187 165
-1047.952 321.751 1057.382 208 186 164
-1047.952 322.251 1057.441 209 188 167
-1047.952 322.751 1057.508 185 168 150
-1047.952 323.251 1057.666 197 180 164
-1047.952 323.751 1057.719 196 179 163
-1047.952 324.251 1057.778 198 180 165
-1047.952 324.751 1057.809 193 174 159
-1047.452 321.251 1057.329 204 184 162
-1047.452 321.751 1057.419 206 185 164
-1047.452 322.251 1057.526 206 185 166
-1047.452 322.751 1057.579 188 170 154
-1047.452 323.251 1057.699 202 185 170
-1047.452 323.751 1057.753 202 185 170
-1047.452 324.251 1057.797 199 180 165
-1047.452 324.751 1057.813 187 168 152
-1046.952 320.751 1057.319 202 184 166
-1046.952 321.251 1057.380 206 188 168
-1046.952 321.751 1057.478 213 192 173
-1046.952 322.251 1057.629 205 186 170
-1046.952 322.751 1057.704 195 177 162
-1046.952 323.251 1057.762 193 175 161
-1046.952 323.751 1057.820 197 180 164
-1046.952 324.251 1057.847 197 179 163
-1046.952 324.751 1057.865 179 159 142
-1046.452 320.751 1057.360 198 180 164
-1046.452 321.251 1057.459 204 185 168
-1046.452 321.751 1057.565 207 188 171
-1046.452 322.251 1057.708 201 183 167
-1046.452 322.751 1057.782 190 173 158
-1046.452 323.251 1057.813 184 167 152
-1046.452 323.751 1057.866 179 160 145
-1046.452 324.251 1057.883 193 174 157
-1046.452 324.751 1057.919 164 142 124
-1045.952 320.251 1057.273 196 179 166
-1045.952 320.751 1057.421 202 184 171
-1045.952 321.251 1057.519 205 188 172
-1045.952 321.751 1057.650 207 188 174
-1045.952 322.251 1057.768 190 171 157
-1045.952 322.751 1057.824 166 147 134
-1045.952 323.251 1057.850 196 179 164
-1045.952 323.751 1057.895 186 168 152
-1045.952 324.251 1057.914 193 172 155
-1045.952 324.751 1057.953 198 177 157
-1045.452 320.251 1057.329 195 179 166
-1045.452 320.751 1057.463 202 186 172
-1045.452 321.251 1057.554 212 196 181
-1045.452 321.751 1057.722 214 194 182
-1045.452 322.251 1057.817 195 177 165
-1045.452 322.751 1057.852 168 149 137
-1045.452 323.251 1057.875 190 172 158
-1045.452 323.751 1057.916 200 181 166
-1045.452 324.251 1057.940 209 188 170
-1045.452 324.751 1057.974 213 189 171
-1044.952 323.251 1057.883 205 185 170
-1044.952 323.751 1057.922 205 184 165
-1044.952 324.251 1057.950 209 186 168
-1044.952 324.751 1057.981 210 188 167
-1085.952 327.751 1057.341 196 169 151
-1085.952 328.251 1057.455 192 170 150
-1085.952 328.751 1057.598 196 170 152
-1085.952 329.251 1057.627 201 175 158
-1085.952 329.751 1057.859 190 163 148
-1085.952 330.251 1058.010 185 159 143
-1085.452 326.251 1057.440 203 179 158
-1085.452 326.751 1057.805 194 168 151
-1085.452 327.251 1058.048 192 167 149
-1085.452 327.751 1058.373 194 168 151
-1085.452 328.251 1058.707 200 177 161
-1085.452 328.751 1058.905 193 170 154
-1085.452 329.251 1058.967 181 158 142
-1085.452 329.751 1059.096 189 167 150
-1085.452 330.251 1059.318 189 167 152
-1084.952 325.251 1057.559 212 189 171
-1084.952 325.751 1057.917 212 189 171
-1084.952 326.251 1058.175 210 187 170
-1084.952 326.751 1058.528 193 170 153
-1084.952 327.251 1058.907 194 171 155
-1084.952 327.751 1059.291 189 167 150
-1084.952 328.251 1059.807 193 172 155
-1084.952 328.751 1060.191 199 177 163
-1084.952 329.251 1060.403 175 153 139
-1084.952 329.751 1060.630 181 159 145
-1084.952 330.251 1060.834 171 149 136
-1084.452 325.251 1058.280 209 186 168
-1084.452 325.751 1058.667 208 185 167
-1084.452 326.251 1058.929 211 189 172
-1084.452 326.751 1059.240 210 187 171
-1084.452 327.251 1059.740 200 177 161
-1084.452 327.751 1060.112 197 174 158
-1084.452 328.251 1060.606 199 177 163
-1084.452 328.751 1061.140 191 172 158
-1084.452 329.251 1061.593 188 169 155
-1084.452 329.751 1061.886 174 155 142
-1084.452 330.251 1062.035 168 148 134
-1083.952 325.251 1058.849 190 169 151
-1083.952 325.751 1059.312 200 179 162
-1083.952 326.251 1059.583 212 191 174
-1083.952 326.751 1059.866 202 181 165
-1083.952 327.251 1060.322 211 189 175
-1083.952 327.751 1060.677 204 183 168
-1083.952 328.251 1061.164 193 173 159
-1083.952 328.751 1061.737 181 163 149
-1083.952 329.251 1062.144 167 149 135
-1083.952 329.751 1062.438 157 140 128
-1083.952 330.251 1062.678 175 157 145
-1083.452 325.251 1059.432 169 147 133
-1083.452 325.751 1059.727 183 161 144
-1083.452 326.251 1059.988 199 179 161
-1083.452 326.751 1060.306 199 177 162
-1083.452 327.251 1060.721 207 185 172
-1083.452 327.751 1061.027 200 179 165
-1083.452 328.251 1061.467 180 161 147
-1083.452 328.751 1061.970 168 149 136
-1083.452 329.251 1062.318 158 142 129
-1083.452 329.751 1062.728 159 143 130
-1082.952 325.251 1059.877 173 151 137
-1082.952 325.751 1060.078 189 168 153
-1082.952 326.251 1060.292 210 189 172
-1082.952 326.751 1060.603 201 180 163
-1082.952 327.251 1060.901 187 166 151
-1082.952 327.751 1061.249 188 167 152
-1082.952 328.251 1061.583 184 166 151
-1082.952 328.751 1062.022 169 151 139
-1082.952 329.251 1062.387 173 157 144
-1082.452 328.751 1062.059 168 151 139
-1082.452 329.251 1062.449 159 143 130
-1082.452 329.751 1062.746 187 171 156
-1080.952 325.251 1061.650 160 143 133
-1080.952 325.751 1061.809 180 163 155
-1080.952 326.251 1061.921 170 153 145
-1080.952 326.751 1062.015 148 131 123
-1080.952 327.251 1062.047 142 125 116
-1080.952 327.751 1062.058 134 119 106
-1080.952 328.251 1062.146 156 137 130
-1080.952 328.751 1062.287 148 133 124
-1080.952 329.251 1062.518 166 150 143
-1080.952 329.751 1062.752 179 164 155
-1080.452 325.251 1062.115 175 158 148
-1080.452 325.751 1062.232 186 169 161
-1080.452 326.251 1062.386 162 145 138
-1080.452 326.751 1062.347 149 132 125
-1080.452 327.251 1062.349 121 104 97
-1080.452 327.751 1062.333 138 123 114
-1080.452 328.251 1062.369 179 161 153
-1080.452 328.751 1062.456 173 157 150
-1080.452 329.251 1062.648 156 141 134
-1079.952 325.251 1062.533 180 166 156
-1079.952 325.751 1062.627 175 160 152
-1079.952 326.251 1062.739 167 151 144
-1079.952 326.751 1062.698 146 131 126
-1079.952 327.251 1062.606 121 107 104
-1079.952 327.751 1062.556 131 118 113
-1079.952 328.251 1062.589 172 158 149
-1079.952 328.751 1062.668 172 157 149
-1074.952 325.251 1062.681 205 189 174
-1074.452 325.251 1062.351 208 192 177
-1073.952 325.251 1061.973 216 199 184
-1073.952 325.751 1062.666 209 192 176
-1073.452 325.251 1061.652 204 187 171
-1073.452 325.751 1062.308 212 194 180
-1072.952 325.251 1061.443 196 179 164
-1072.952 325.751 1061.879 203 185 171
-1072.952 326.251 1062.552 200 184 170
-1072.452 325.251 1061.225 172 156 141
-1072.452 325.751 1061.533 181 166 150
-1072.452 326.251 1061.996 201 185 171
-1071.952 325.251 1060.972 176 161 148
-1071.952 325.751 1061.368 179 164 151
-1071.952 326.251 1061.658 192 176 163
-1071.952 326.751 1062.272 215 199 186
-1071.452 325.251 1060.748 221 207 196
-1071.452 325.751 1061.190 174 160 149
-1071.452 326.251 1061.529 184 170 157
-1071.452 326.751 1061.921 207 191 178
-1071.452 327.251 1062.418 212 196 183
-1070.952 325.251 1060.212 222 210 198
-1070.952 325.751 1061.030 204 190 179
-1070.952 326.251 1061.327 169 155 142
-1070.952 326.751 1061.639 171 156 143
-1070.952 327.251 1062.009 194 179 164
-1070.952 327.751 1062.701 199 184 168
-1066.452 325.251 1057.471 232 214 196
-1066.452 325.751 1057.583 231 213 193
-1066.452 326.251 1057.761 228 211 193
-1066.452 326.751 1058.063 230 213 196
-1066.452 327.251 1058.842 222 209 193
-1065.952 325.251 1057.471 233 216 198
-1065.952 325.751 1057.551 227 210 192
-1065.952 326.251 1057.631 202 186 170
-1065.952 326.751 1057.802 219 203 187
-1065.952 327.251 1058.310 225 209 193
-1065.952 327.751 1059.405 225 210 194
-1065.952 328.251 1060.461 214 199 185
-1065.952 328.751 1060.879 197 183 170
-1065.952 329.251 1061.286 168 151 141
-1065.952 329.751 1061.640 163 146 136
-1065.952 330.251 1061.890 171 154 144
-1065.452 325.251 1057.458 231 213 197
-1065.452 325.751 1057.495 211 195 179
-1065.452 326.251 1057.556 168 152 137
-1065.452 326.751 1057.623 200 184 170
-1065.452 327.251 1057.826 223 207 191
-1065.452 327.751 1058.410 225 209 193
-1065.452 328.251 1059.458 217 201 186
-1065.452 328.751 1060.457 228 212 198
-1065.452 329.251 1060.972 202 185 175
-1065.452 329.751 1061.403 183 166 155
-1065.452 330.251 1061.666 170 153 143
-1070.452 325.251 1059.793 227 215 201
-1070.452 325.751 1060.923 219 207 193
-1070.452 326.251 1061.086 164 150 139
-1070.452 326.751 1061.345 166 151 140
-1070.452 327.251 1061.702 168 151 141
-1070.452 327.751 1062.221 194 179 167
-1069.952 325.251 1059.297 231 217 202
-1069.952 325.751 1060.327 227 213 200
-1069.952 326.251 1060.950 198 184 171
-1069.952 326.751 1061.149 161 146 134
-1069.952 327.251 1061.516 163 146 136
-1069.952 327.751 1061.924 158 141 130
-1069.952 328.251 1062.438 192 174 160
-1069.452 325.251 1058.905 227 214 198
-1069.452 325.751 1059.717 228 215 199
-1069.452 326.251 1060.514 227 214 198
-1069.452 326.751 1061.058 184 168 155
-1069.452 327.251 1061.438 152 135 125
-1069.452 327.751 1061.760 160 143 133
-1069.452 328.251 1062.123 162 144 130
-1069.452 328.751 1062.664 195 179 166
-1068.952 325.251 1058.435 230 213 197
-1068.952 325.751 1059.190 227 211 195
-1068.952 326.251 1060.208 232 215 200
-1068.952 326.751 1060.979 218 202 188
-1068.952 327.251 1061.358 166 149 136
-1068.952 327.751 1061.675 163 146 136
-1068.952 328.251 1061.899 162 144 132
-1068.952 328.751 1062.297 172 155 142
-1068.452 325.251 1058.078 228 213 194
-1068.452 325.751 1058.647 230 213 195
-1068.452 326.251 1059.530 230 213 197
-1068.452 326.751 1060.594 218 202 188
-1068.452 327.251 1061.123 196 180 167
-1068.452 327.751 1061.487 158 144 131
-1068.452 328.251 1061.719 169 151 139
-1068.452 328.751 1062.038 169 152 140
-1068.452 329.251 1062.538 181 166 152
-1067.952 325.251 1057.785 230 212 192
-1067.952 325.751 1058.225 230 212 194
-1067.952 326.251 1058.792 227 211 195
-1067.952 326.751 1059.853 215 199 184
-1067.952 327.251 1060.756 212 197 184
-1067.952 327.751 1061.203 174 160 147
-1067.952 328.251 1061.492 158 142 130
-1067.952 328.751 1061.793 167 148 137
-1067.952 329.251 1062.201 172 154 142
-1067.952 329.751 1062.746 188 170 158
-1067.452 325.251 1057.580 228 209 192
-1067.452 325.751 1057.833 227 210 192
-1067.452 326.251 1058.297 230 212 194
-1067.452 326.751 1059.093 224 209 193
-1067.452 327.251 1060.233 212 198 185
-1067.452 327.751 1060.865 194 180 170
-1067.452 328.251 1061.241 147 133 122
-1067.452 328.751 1061.509 164 150 141
-1067.452 329.251 1061.926 168 150 142
-1067.452 329.751 1062.499 164 147 138
-1066.952 325.251 1057.488 232 212 195
-1066.952 325.751 1057.637 231 213 195
-1066.952 326.251 1057.944 230 212 194
-1066.952 326.751 1058.411 228 214 196
-1066.952 327.251 1059.350 218 204 190
-1066.952 327.751 1060.502 214 200 187
-1066.952 328.251 1061.065 183 168 157
-1066.952 328.751 1061.372 160 146 136
-1066.952 329.251 1061.737 168 150 142
-1066.952 329.751 1062.159 159 142 134
-1066.952 330.251 1062.586 174 156 146
-1066.452 327.751 1060.221 220 207 191
-1066.452 328.251 1060.885 213 199 186
-1066.452 328.751 1061.141 167 152 141
-1066.452 329.251 1061.496 159 142 134
-1066.452 329.751 1061.848 169 152 142
-1066.452 330.251 1062.175 174 156 146
-1061.952 327.751 1057.353 227 210 193
-1061.952 328.251 1057.415 202 185 170
-1061.952 328.751 1057.507 199 180 165
-1061.952 329.251 1057.733 211 192 177
-1061.452 327.751 1057.309 197 180 162
-1061.452 328.251 1057.370 202 185 170
-1061.452 328.751 1057.458 205 186 171
-1061.452 329.251 1057.612 219 200 186
-1061.452 329.751 1057.965 206 187 173
-1061.452 330.251 1058.648 186 168 156
-1060.952 327.751 1057.295 203 186 168
-1060.952 328.251 1057.355 210 191 174
-1060.952 328.751 1057.438 210 192 176
-1060.952 329.251 1057.545 216 199 183
-1060.952 329.751 1057.783 214 196 182
-1060.952 330.251 1058.382 186 170 157
-1060.452 327.751 1057.280 209 192 174
-1060.452 328.251 1057.356 211 193 173
-1060.452 328.751 1057.425 216 197 180
-1060.452 329.251 1057.496 217 198 181
-1060.452 329.751 1057.647 218 200 184
-1060.452 330.251 1058.082 217 199 185
-1059.952 328.251 1057.361 208 186 165
-1059.952 328.751 1057.404 214 193 172
-1059.952 329.251 1057.453 222 201 181
-1059.952 329.751 1057.583 223 202 184
-1059.952 330.251 1057.870 224 204 186
-1064.952 325.751 1057.404 200 184 170
-1064.952 326.251 1057.447 169 153 140
-1064.952 326.751 1057.477 206 190 176
-1064.952 327.251 1057.587 222 206 191
-1064.952 327.751 1057.859 225 209 193
-1064.952 328.251 1058.468 216 200 184
-1064.952 328.751 1059.462 221 205 191
-1064.952 329.251 1060.474 218 202 189
-1064.952 329.751 1061.009 207 190 180
-1064.952 330.251 1061.446 183 166 155
-1064.452 325.751 1057.328 192 176 162
-1064.452 326.251 1057.355 187 171 158
-1064.452 326.751 1057.377 215 200 186
-1064.452 327.251 1057.466 221 205 192
-1064.452 327.751 1057.603 223 207 193
-1064.452 328.251 1057.906 216 199 185
-1064.452 328.751 1058.646 220 204 189
-1064.452 329.251 1059.431 215 199 184
-1064.452 329.751 1060.162 206 189 178
-1064.452 330.251 1061.046 208 191 181
-1063.952 327.251 1057.369 222 210 197
-1063.952 327.751 1057.511 217 204 194
-1063.952 328.251 1057.676 211 194 184
-1063.952 328.751 1058.151 210 193 180
-1063.952 329.251 1058.707 218 201 185
-1063.952 329.751 1059.449 216 199 184
-1063.952 330.251 1060.563 209 193 180
-1063.452 327.251 1057.274 230 215 202
-1063.452 327.751 1057.464 215 201 190
-1063.452 328.251 1057.609 197 181 168
-1063.452 328.751 1057.918 206 188 174
-1063.452 329.251 1058.348 226 209 193
-1063.452 329.751 1058.952 221 204 188
-1063.452 330.251 1059.959 211 195 180
-1062.952 327.751 1057.377 217 204 190
-1062.952 328.251 1057.520 192 176 161
-1062.952 328.751 1057.713 210 193 176
-1062.952 329.251 1058.122 227 208 191
-1062.952 329.751 1058.703 223 206 189
-1062.952 330.251 1059.451 223 206 191
-1062.452 327.751 1057.377 224 208 193
-1062.452 328.251 1057.458 200 184 167
-1062.452 328.751 1057.581 212 195 178
-1062.452 329.251 1057.921 220 201 184
-1062.452 329.751 1058.398 216 197 180
-1062.452 330.251 1059.034 219 202 186
-1061.952 329.751 1058.145 204 185 171
-1061.952 330.251 1058.751 207 189 174
-1055.952 325.251 1057.267 212 190 170
-1055.952 325.751 1057.275 204 183 161
-1055.952 326.251 1057.281 205 184 162
-1055.952 326.751 1057.303 204 183 161
-1055.952 327.251 1057.311 204 183 161
-1055.452 325.251 1057.319 211 189 168
-1055.452 325.751 1057.331 213 191 171
-1055.452 326.251 1057.333 212 190 170
-1055.452 326.751 1057.355 210 188 167
-1055.452 327.251 1057.358 207 185 164
-1055.452 327.751 1057.365 205 184 162
-1055.452 328.251 1057.380 188 171 155
-1055.452 328.751 1057.376 160 142 136
-1055.452 329.251 1057.373 160 145 144
-1055.452 329.751 1057.418 152 141 138
-1055.452 330.251 1057.523 193 183 175
-1054.952 325.251 1057.363 212 190 170
-1054.952 325.751 1057.372 213 191 171
-1054.952 326.251 1057.367 214 192 171
-1054.952 326.751 1057.396 213 191 171
-1054.952 327.251 1057.395 202 181 160
-1054.952 327.751 1057.399 198 176 155
-1054.952 328.251 1057.409 197 176 157
-1054.952 328.751 1057.411 183 162 151
-1054.952 329.251 1057.435 187 168 163
-1054.952 329.751 1057.517 191 174 167
-1054.952 330.251 1057.635 190 176 166
-1059.452 328.251 1057.305 205 184 160
-1059.452 328.751 1057.366 213 191 168
-1059.452 329.251 1057.409 218 196 175
-1059.452 329.751 1057.487 221 199 178
-1059.452 330.251 1057.683 225 203 182
-1058.952 328.751 1057.299 205 184 160
-1058.952 329.251 1057.359 206 184 161
-1058.952 329.751 1057.420 208 186 163
-1058.952 330.251 1057.547 220 198 175
-1058.452 329.251 1057.287 200 179 155
-1058.452 329.751 1057.371 192 170 147
-1058.452 330.251 1057.439 213 191 168
-1057.952 329.251 1057.266 207 187 170
-1057.952 329.751 1057.357 205 186 166
-1057.952 330.251 1057.397 214 193 171
-1057.452 329.251 1057.295 212 193 178
-1057.452 329.751 1057.368 212 193 175
-1057.452 330.251 1057.396 211 193 171
-1056.952 329.251 1057.305 205 187 174
-1056.952 329.751 1057.375 203 186 170
-1056.952 330.251 1057.408 206 188 171
-1056.452 328.751 1057.273 206 190 180
-1056.452 329.251 1057.310 192 177 171
-1056.452 329.751 1057.378 183 169 161
-1056.452 330.251 1057.429 204 192 180
-1055.952 327.751 1057.311 206 185 165
-1055.952 328.251 1057.321 197 184 170
-1055.952 328.751 1057.330 196 183 176
-1055.952 329.251 1057.345 180 169 168
-1055.952 329.751 1057.392 160 152 147
-1055.952 330.251 1057.469 199 191 184
-1050.452 325.251 1057.820 181 166 150
-1050.452 325.751 1057.786 166 149 135
-1050.452 326.251 1057.772 172 156 140
-1050.452 326.751 1057.760 173 157 141
-1050.452 327.251 1057.755 175 159 143
-1049.952 325.251 1057.902 170 156 145
-1049.952 325.751 1057.860 166 151 138
-1049.952 326.251 1057.836 176 162 149
-1049.952 326.751 1057.827 160 147 132
-1049.952 327.251 1057.841 154 141 125
-1049.952 327.751 1057.862 168 155 139
-1049.952 328.251 1057.918 196 183 171
-1049.952 328.751 1057.974 196 184 171
-1049.952 329.251 1058.063 201 189 175
-1049.952 329.751 1058.187 194 180 167
-1049.952 330.251 1058.282 199 184 171
-1049.452 325.251 1057.939 169 155 144
-1049.452 325.751 1057.899 177 163 152
-1049.452 326.251 1057.876 163 149 136
-1049.452 326.751 1057.867 171 158 143
-1049.452 327.251 1057.891 186 173 157
-1049.452 327.751 1057.915 207 194 178
-1049.452 328.251 1057.970 199 184 171
-1049.452 328.751 1058.042 201 187 174
-1049.452 329.251 1058.124 203 191 177
-1049.452 329.751 1058.211 206 192 179
-1049.452 330.251 1058.288 202 187 174
-1054.452 325.251 1057.399 213 191 168
-1054.452 325.751 1057.409 211 189 166
-1054.452 326.251 1057.406 212 191 171
-1054.452 326.751 1057.429 210 190 171
-1054.452 327.251 1057.423 191 172 155
-1054.452 327.751 1057.433 184 164 148
-1054.452 328.251 1057.455 181 163 149
-1054.452 328.751 1057.480 174 156 143
-1054.452 329.251 1057.546 183 166 153
-1054.452 329.751 1057.673 192 176 163
-1054.452 330.251 1057.789 196 179 170
-1053.952 325.251 1057.426 212 190 170
-1053.952 325.751 1057.442 208 187 167
-1053.952 326.251 1057.446 208 187 167
-1053.952 326.751 1057.456 203 183 165
-1053.952 327.251 1057.457 184 164 148
-1053.952 327.751 1057.480 169 150 135
-1053.952 328.251 1057.515 168 147 133
-1053.952 328.751 1057.567 174 155 140
-1053.952 329.251 1057.637 183 164 150
-1053.952 329.751 1057.767 196 179 167
-1053.952 330.251 1057.888 210 194 181
-1053.452 325.251 1057.459 203 183 165
-1053.452 325.751 1057.474 199 179 161
-1053.452 326.251 1057.477 197 179 161
-1053.452 326.751 1057.477 177 158 142
-1053.452 327.251 1057.482 168 149 134
-1053.452 327.751 1057.510 168 149 134
-1053.452 328.251 1057.551 172 151 134
-1053.452 328.751 1057.624 184 163 147
-1053.452 329.251 1057.727 194 175 161
-1053.452 329.751 1057.864 203 185 173
-1053.452 330.251 1058.006 209 193 180
-1052.952 325.251 1057.504 162 143 126
-1052.952 325.751 1057.510 160 141 124
-1052.952 326.251 1057.516 174 155 138
-1052.952 326.751 1057.511 179 160 145
-1052.952 327.251 1057.527 177 158 143
-1052.952 327.751 1057.543 181 162 147
-1052.952 328.251 1057.589 195 174 155
-1052.952 328.751 1057.676 200 180 164
-1052.952 329.251 1057.827 195 177 163
-1052.952 329.751 1057.985 205 187 175
-1052.952 330.251 1058.170 206 191 181
-1052.452 325.251 1057.550 189 172 154
-1052.452 325.751 1057.555 166 146 129
-1052.452 326.251 1057.570 158 139 122
-1052.452 326.751 1057.563 186 168 150
-1052.452 327.251 1057.585 193 174 157
-1052.452 327.751 1057.592 194 175 159
-1052.452 328.251 1057.646 202 181 162
-1052.452 328.751 1057.746 194 175 159
-1052.452 329.251 1057.906 205 187 173
-1052.452 329.751 1058.097 204 188 178
-1052.452 330.251 1058.302 209 196 188
-1051.952 325.251 1057.615 186 169 151
-1051.952 325.751 1057.621 177 160 142
-1051.952 326.251 1057.633 151 134 116
-1051.952 326.751 1057.621 185 167 148
-1051.952 327.251 1057.624 201 184 164
-1051.952 327.751 1057.638 203 184 165
-1051.952 328.251 1057.704 214 195 178
-1051.952 328.751 1057.815 191 174 158
-1051.952 329.251 1057.957 183 167 153
-1051.952 329.751 1058.151 179 166 156
-1051.952 330.251 1058.338 164 153 147
-1051.452 325.251 1057.691 183 166 145
-1051.452 325.751 1057.691 179 162 144
-1051.452 326.251 1057.683 160 143 125
-1051.452 326.751 1057.669 177 160 142
-1051.452 327.251 1057.663 198 181 163
-1051.452 327.751 1057.686 189 172 154
-1051.452 328.251 1057.762 189 172 154
-1051.452 328.751 1057.849 193 177 161
-1051.452 329.251 1057.980 167 153 137
-1051.452 329.751 1058.172 174 162 151
-1051.452 330.251 1058.323 186 173 165
-1050.952 325.251 1057.745 187 170 152
-1050.952 325.751 1057.731 180 163 145
-1050.952 326.251 1057.717 183 166 147
-1050.952 326.751 1057.703 172 155 137
-1050.952 327.251 1057.696 184 167 148
-1050.952 327.751 1057.729 177 160 142
-1050.952 328.251 1057.817 174 157 141
-1050.952 328.751 1057.876 172 156 141
-1050.952 329.251 1057.997 173 159 146
-1050.952 329.751 1058.187 190 179 165
-1050.952 330.251 1058.307 201 187 176
-1050.452 327.751 1057.787 173 157 141
-1050.452 328.251 1057.867 176 160 145
-1050.452 328.751 1057.922 161 147 133
-1050.452 329.251 1058.021 180 168 154
-1050.452 329.751 1058.190 194 180 167
-1050.452 330.251 1058.293 189 175 162
-1044.952 325.251 1058.019 213 191 171
-1044.952 325.751 1058.092 217 195 174
-1044.952 326.251 1058.193 221 200 181
-1044.952 326.751 1058.262 219 199 181
-1044.952 327.251 1058.315 215 196 179
-1044.452 325.251 1058.050 210 188 167
-1044.452 325.751 1058.121 219 197 176
-1044.452 326.251 1058.223 219 198 179
-1044.452 326.751 1058.299 217 197 179
-1044.452 327.251 1058.355 214 195 178
-1044.452 327.751 1058.399 191 172 155
-1044.452 328.251 1058.432 187 167 149
-1044.452 328.751 1058.435 196 175 155
-1044.452 329.251 1058.420 212 192 171
-1044.452 329.751 1058.400 221 200 180
-1044.452 330.251 1058.418 211 192 175
-1043.952 327.751 1058.420 205 186 170
-1043.952 328.251 1058.440 209 190 173
-1043.952 328.751 1058.451 206 187 168
-1043.952 329.251 1058.441 208 190 170
-1043.952 329.751 1058.441 213 195 177
-1043.952 330.251 1058.483 205 187 171
-1085.452 330.751 1059.577 184 160 146
-1085.452 331.251 1059.702 190 168 155
-1085.452 331.751 1059.849 175 155 144
-1085.452 332.251 1060.019 168 147 136
-1085.452 332.751 1060.028 162 142 131
-1085.452 333.251 1059.820 156 136 125
-1085.452 333.751 1059.485 159 139 130
-1085.452 334.251 1059.029 160 140 129
-1085.452 334.751 1058.510 166 146 132
-1084.952 330.751 1060.857 170 148 135
-1084.952 331.251 1061.233 169 149 138
-1084.952 331.751 1061.475 172 152 141
-1084.952 332.251 1061.589 167 146 135
-1084.952 332.751 1061.641 161 141 132
-1084.952 333.251 1061.544 154 134 125
-1084.952 333.751 1061.321 157 137 128
-1084.952 334.251 1060.925 156 136 127
-1084.952 334.751 1060.375 155 137 127
-1084.952 335.251 1060.079 153 135 125
-1084.452 330.751 1062.073 171 150 139
-1084.452 331.251 1062.339 173 153 142
-1084.452 331.751 1062.536 180 160 149
-1084.452 332.251 1062.639 184 163 152
-1084.452 333.751 1062.744 166 145 136
-1084.452 334.251 1062.437 160 140 131
-1084.452 334.751 1062.032 158 140 130
-1084.452 335.251 1061.821 151 132 125
-1048.952 325.251 1057.925 188 174 163
-1048.952 325.751 1057.890 206 192 181
-1048.952 326.251 1057.883 203 189 176
-1048.952 326.751 1057.885 203 190 174
-1048.952 327.251 1057.913 196 184 166
-1048.952 327.751 1057.947 204 190 173
-1048.952 328.251 1058.024 210 192 180
-1048.952 328.751 1058.100 201 186 173
-1048.952 329.251 1058.182 196 183 170
-1048.952 329.751 1058.253 208 196 182
-1048.952 330.251 1058.306 200 186 173
-1048.452 325.251 1057.870 192 175 162
-1048.452 325.751 1057.858 194 179 164
-1048.452 326.251 1057.873 195 179 164
-1048.452 326.751 1057.899 207 190 175
-1048.452 327.251 1057.941 203 187 171
-1048.452 327.751 1057.990 209 193 177
-1048.452 328.251 1058.079 214 198 183
-1048.452 328.751 1058.161 205 189 175
-1048.452 329.251 1058.236 206 190 177
-1048.452 329.751 1058.290 203 189 176
-1048.452 330.251 1058.325 196 183 170
-1047.952 325.251 1057.828 189 170 155
-1047.952 325.751 1057.835 201 184 167
-1047.952 326.251 1057.869 202 185 170
-1047.952 326.751 1057.909 208 191 175
-1047.952 327.251 1057.966 209 192 174
-1047.952 327.751 1058.039 205 189 171
-1047.952 328.251 1058.124 208 195 178
-1047.952 328.751 1058.216 208 193 178
-1047.952 329.251 1058.287 208 190 176
-1047.952 329.751 1058.325 206 188 174
-1047.952 330.251 1058.357 205 187 173
-1047.452 325.251 1057.833 189 170 153
-1047.452 325.751 1057.867 197 179 161
-1047.452 326.251 1057.913 202 184 166
-1047.452 326.751 1057.965 202 185 167
-1047.452 327.251 1058.023 205 188 172
-1047.452 327.751 1058.111 202 185 170
-1047.452 328.251 1058.177 198 185 168
-1047.452 328.751 1058.257 204 188 172
-1047.452 329.251 1058.326 206 189 173
-1047.452 329.751 1058.360 208 189 174
-1047.452 330.251 1058.391 201 184 168
-1046.952 325.251 1057.894 185 164 147
-1046.952 325.751 1057.958 191 172 155
-1046.952 326.251 1057.999 196 177 160
-1046.952 326.751 1058.049 195 179 160
-1046.952 327.251 1058.112 198 181 165
-1046.952 327.751 1058.182 201 184 168
-1046.952 328.251 1058.238 197 181 165
-1046.952 328.751 1058.295 198 183 165
-1046.952 329.251 1058.351 212 193 176
-1046.952 329.751 1058.394 207 188 171
-1046.952 330.251 1058.400 201 183 165
-1046.452 325.251 1057.965 168 146 127
-1046.452 325.751 1058.018 175 154 135
-1046.452 326.251 1058.055 179 160 143
-1046.452 326.751 1058.109 184 166 148
-1046.452 327.251 1058.170 191 174 158
-1046.452 327.751 1058.226 203 187 171
-1046.452 328.251 1058.297 205 189 173
-1046.452 328.751 1058.352 206 188 171
-1046.452 329.251 1058.387 211 192 172
-1046.452 329.751 1058.409 205 184 165
-1046.452 330.251 1058.388 205 186 170
-1045.952 325.251 1058.003 203 181 161
-1045.952 325.751 1058.040 203 181 162
-1045.952 326.251 1058.090 201 180 161
-1045.952 326.751 1058.158 206 188 171
-1045.952 327.251 1058.213 207 190 174
-1045.952 327.751 1058.284 212 196 180
-1045.952 328.251 1058.353 208 191 175
-1045.952 328.751 1058.393 204 185 167
-1045.952 329.251 1058.405 208 187 166
-1045.952 329.751 1058.393 210 189 167
-1045.952 330.251 1058.367 208 187 168
-1045.452 325.251 1058.016 214 189 170
-1045.452 325.751 1058.070 212 190 170
-1045.452 326.251 1058.146 211 190 171
-1045.452 326.751 1058.206 212 194 176
-1045.452 327.251 1058.265 210 193 177
-1045.452 327.751 1058.330 212 196 180
-1045.452 328.251 1058.385 208 191 175
-1045.452 328.751 1058.402 212 192 174
-1045.452 329.251 1058.400 212 190 167
-1045.452 329.751 1058.379 208 186 163
-1045.452 330.251 1058.365 202 179 161
-1044.952 327.751 1058.370 207 188 171
-1044.952 328.251 1058.416 205 184 166
-1044.952 328.751 1058.418 207 186 166
-1044.952 329.251 1058.402 211 191 167
-1044.952 329.751 1058.379 198 177 156
-1044.952 330.251 1058.382 196 179 160
-1085.952 330.751 1058.202 185 161 146
-1085.952 331.251 1058.239 184 161 145
-1085.952 331.751 1058.274 173 151 135
-1085.952 332.251 1058.357 176 154 139
-1085.952 332.751 1058.391 180 157 143
-1085.952 333.251 1058.235 169 147 133
-1085.952 333.751 1057.995 169 147 134
-1085.952 334.251 1057.672 176 153 139
-1085.952 334.751 1057.339 180 157 141
-1085.952 335.251 1057.299 184 160 144
-1085.452 335.251 1058.316 160 141 127
-1066.452 330.751 1062.670 188 170 157
-1065.952 330.751 1062.325 192 175 162
-1065.452 330.751 1062.019 184 168 155
-1065.452 331.251 1062.568 196 179 164
-1060.952 330.751 1059.227 200 184 171
-1060.952 331.251 1060.160 212 196 181
-1060.952 331.751 1060.909 222 206 193
-1060.952 332.251 1061.332 172 157 146
-1060.952 332.751 1061.633 171 156 146
-1060.952 333.251 1061.956 172 155 145
-1060.452 330.751 1058.763 209 191 177
-1060.452 331.251 1059.554 211 195 180
-1060.452 331.751 1060.523 222 206 192
-1060.452 332.251 1061.171 194 180 167
-1060.452 332.751 1061.387 151 137 126
-1060.452 333.251 1061.664 163 146 136
-1060.452 333.751 1062.003 159 141 131
-1060.452 334.251 1062.413 162 143 130
-1059.952 330.751 1058.367 218 198 181
-1059.952 331.251 1059.066 213 196 179
-1059.952 331.751 1060.037 215 199 183
-1059.952 332.251 1060.865 219 203 190
-1059.952 332.751 1061.201 158 142 131
-1059.952 333.251 1061.457 158 141 131
-1059.952 333.751 1061.806 170 152 140
-1059.952 334.251 1062.197 159 140 126
-1059.952 334.751 1062.614 198 177 160
-1061.452 330.751 1059.537 210 193 179
-1061.452 331.251 1060.294 222 206 193
-1060.952 333.751 1062.271 169 151 140
-1060.952 334.251 1062.678 186 167 155
-1064.952 330.751 1061.830 164 148 135
-1064.952 331.251 1062.258 168 150 136
-1064.952 331.751 1062.766 192 174 160
-1064.452 330.751 1061.549 169 152 142
-1064.452 331.251 1061.924 172 156 144
-1064.452 331.751 1062.420 185 168 156
-1063.952 330.751 1061.338 168 153 144
-1063.952 331.251 1061.774 154 142 130
-1063.952 331.751 1062.217 166 151 138
-1063.952 332.251 1062.666 188 172 159
-1063.452 330.751 1061.010 190 176 165
-1063.452 331.251 1061.591 159 147 133
-1063.452 331.751 1062.081 164 150 137
-1063.452 332.251 1062.482 192 176 163
-1062.952 330.751 1060.548 217 202 188
-1062.952 331.251 1061.348 194 180 167
-1062.952 331.751 1061.856 173 159 146
-1062.952 332.251 1062.302 183 167 153
-1062.952 332.751 1062.690 183 164 152
-1062.452 330.751 1060.008 222 207 192
-1062.452 331.251 1060.946 217 203 190
-1062.452 331.751 1061.601 184 168 155
-1062.452 332.251 1062.013 184 168 155
-1062.452 332.751 1062.365 187 169 157
-1061.952 330.751 1059.658 217 201 186
-1061.952 331.251 1060.507 224 210 197
-1061.952 331.751 1061.328 186 170 157
-1061.952 332.251 1061.722 193 175 163
-1061.952 332.751 1062.089 186 168 156
-1061.952 333.251 1062.544 187 168 154
-1061.452 331.751 1061.072 208 192 179
-1061.452 332.251 1061.525 172 154 142
-1061.452 332.751 1061.911 179 158 147
-1061.452 333.251 1062.243 180 161 147
-1061.452 333.751 1062.576 192 174 160
-1055.952 330.751 1057.562 210 203 196
-1055.952 331.251 1057.725 210 199 189
-1055.952 331.751 1057.916 202 188 177
-1055.952 332.251 1058.217 207 192 180
-1055.952 332.751 1058.841 213 195 184
-1055.952 333.251 1059.515 205 186 172
-1055.952 333.751 1060.065 211 191 175
-1055.452 330.751 1057.646 211 200 194
-1055.452 331.251 1057.804 192 184 174
-1055.452 331.751 1057.949 198 187 179
-1055.452 332.251 1058.249 191 176 170
-1055.452 332.751 1058.740 207 190 179
-1055.452 333.251 1059.214 205 186 172
-1055.452 333.751 1059.713 204 184 165
-1055.452 334.251 1060.250 215 193 172
-1055.452 334.751 1060.752 202 180 159
-1055.452 335.251 1061.263 198 173 155
-1054.952 330.751 1057.763 181 168 157
-1054.952 331.251 1057.882 191 181 172
-1054.952 331.751 1058.049 207 197 190
-1054.952 332.251 1058.390 213 200 191
-1054.952 332.751 1058.781 213 197 186
-1054.952 333.251 1059.085 191 172 158
-1054.952 333.751 1059.539 184 162 144
-1054.952 334.251 1060.077 194 172 151
-1054.952 334.751 1060.578 206 181 159
-1054.952 335.251 1061.091 200 175 155
-1059.452 330.751 1058.047 220 198 177
-1059.452 331.251 1058.665 216 196 179
-1059.452 331.751 1059.620 219 202 185
-1059.452 332.251 1060.513 224 206 192
-1059.452 332.751 1060.980 184 168 154
-1059.452 333.251 1061.329 150 134 121
-1059.452 333.751 1061.702 169 151 139
-1059.452 334.251 1062.104 177 158 144
-1059.452 334.751 1062.491 188 168 150
-1058.952 330.751 1057.838 221 196 175
-1058.952 331.251 1058.382 215 194 174
-1058.952 331.751 1059.263 218 200 180
-1058.952 332.251 1060.264 219 202 186
-1058.952 332.751 1060.799 207 191 177
-1058.952 333.251 1061.236 153 137 124
-1058.952 333.751 1061.631 163 145 133
-1058.952 334.251 1062.027 167 148 134
-1058.952 334.751 1062.368 191 172 157
-1058.952 335.251 1062.753 183 162 145
-1058.452 330.751 1057.645 222 197 175
-1058.452 331.251 1058.147 219 198 176
-1058.452 331.751 1058.882 213 195 175
-1058.452 332.251 1059.805 219 202 184
-1058.452 332.751 1060.606 213 196 181
-1058.452 333.251 1061.195 180 162 150
-1058.452 333.751 1061.582 160 142 130
-1058.452 334.251 1061.869 161 143 129
-1058.452 334.751 1062.210 199 183 167
-1058.452 335.251 1062.610 200 181 166
-1057.952 330.751 1057.524 220 198 179
-1057.952 331.251 1057.891 219 198 177
-1057.952 331.751 1058.553 218 197 175
-1057.952 332.251 1059.494 219 200 183
-1057.952 332.751 1060.398 211 194 179
-1057.952 333.251 1061.060 200 183 171
-1057.952 333.751 1061.441 163 146 134
-1057.952 334.251 1061.744 166 148 134
-1057.952 334.751 1062.124 189 171 154
-1057.952 335.251 1062.514 204 184 167
-1057.452 330.751 1057.491 215 194 176
-1057.452 331.251 1057.768 219 201 179
-1057.452 331.751 1058.291 217 199 177
-1057.452 332.251 1059.138 217 198 181
-1057.452 332.751 1060.047 207 188 174
-1057.452 333.251 1060.701 215 197 183
-1057.452 333.751 1061.223 164 148 135
-1057.452 334.251 1061.609 156 138 124
-1057.452 334.751 1061.964 188 168 150
-1057.452 335.251 1062.336 201 179 160
-1056.952 330.751 1057.498 210 192 176
-1056.952 331.251 1057.724 212 194 176
-1056.952 331.751 1058.097 211 194 174
-1056.952 332.251 1058.625 217 200 184
-1056.952 332.751 1059.435 206 188 174
-1056.952 333.251 1060.270 216 198 184
-1056.952 333.751 1060.920 198 180 166
-1056.952 334.251 1061.368 177 158 144
-1056.952 334.751 1061.713 192 171 154
-1056.952 335.251 1062.080 200 177 161
-1056.452 330.751 1057.522 224 212 200
-1056.452 331.251 1057.714 224 211 195
-1056.452 331.751 1057.969 208 193 177
-1056.452 332.251 1058.300 216 200 186
-1056.452 332.751 1059.001 210 192 178
-1056.452 333.251 1059.842 207 189 175
-1056.452 333.751 1060.512 212 193 178
-1056.452 334.251 1061.017 186 168 152
-1056.452 334.751 1061.457 202 180 165
-1056.452 335.251 1061.840 201 177 161
-1055.952 334.251 1060.578 200 179 161
-1055.952 334.751 1061.097 188 166 148
-1055.952 335.251 1061.570 195 169 152
-1050.452 330.751 1058.368 201 184 173
-1050.452 331.251 1058.467 205 186 172
-1050.452 331.751 1058.584 205 186 172
-1050.452 332.251 1058.667 197 179 165
-1050.452 332.751 1058.737 190 171 157
-1050.452 333.251 1058.780 186 168 153
-1050.452 333.751 1058.797 176 157 146
-1049.952 330.751 1058.342 206 188 174
-1049.952 331.251 1058.411 208 190 176
-1049.952 331.751 1058.489 194 176 162
-1049.952 332.251 1058.574 193 175 161
-1049.952 332.751 1058.640 180 162 150
-1049.952 333.251 1058.679 184 167 155
-1049.952 333.751 1058.712 162 144 134
-1049.952 334.251 1058.759 157 139 127
-1049.952 334.751 1058.778 190 174 159
-1049.952 335.251 1058.802 191 174 159
-1049.452 330.751 1058.343 196 179 166
-1049.452 331.251 1058.386 180 164 149
-1049.452 331.751 1058.429 186 170 155
-1049.452 332.251 1058.495 188 172 159
-1049.452 332.751 1058.548 193 176 166
-1049.452 333.251 1058.587 189 172 162
-1049.452 333.751 1058.638 163 147 134
-1049.452 334.251 1058.691 161 145 132
-1049.452 334.751 1058.709 185 169 154
-1049.452 335.251 1058.724 172 156 141
-1054.452 330.751 1057.881 189 175 164
-1054.452 331.251 1058.002 194 184 174
-1054.452 331.751 1058.222 218 206 197
-1054.452 332.251 1058.570 228 214 204
-1054.452 332.751 1058.849 207 191 178
-1054.452 333.251 1059.077 188 168 153
-1054.452 333.751 1059.493 187 167 148
-1054.452 334.251 1059.998 192 169 148
-1054.452 334.751 1060.473 200 173 154
-1054.452 335.251 1060.972 205 179 159
-1053.952 330.751 1058.001 201 185 175
-1053.952 331.251 1058.169 199 184 172
-1053.952 331.751 1058.395 208 192 179
-1053.952 332.251 1058.688 215 196 182
-1053.952 332.751 1058.915 193 172 156
-1053.952 333.251 1059.157 190 167 147
-1053.952 333.751 1059.538 203 176 155
-1053.952 334.251 1059.977 200 172 151
-1053.952 334.751 1060.373 209 183 161
-1053.952 335.251 1060.780 219 191 171
-1053.452 330.751 1058.169 202 187 176
-1053.452 331.251 1058.326 190 174 161
-1053.452 331.751 1058.519 189 171 158
-1053.452 332.251 1058.771 186 168 152
-1053.452 332.751 1059.026 204 183 164
-1053.452 333.251 1059.291 211 184 164
-1053.452 333.751 1059.574 211 184 162
-1053.452 334.251 1059.925 212 184 163
-1053.452 334.751 1060.288 207 179 158
-1053.452 335.251 1060.569 210 183 161
-1052.952 330.751 1058.346 200 186 177
-1052.952 331.251 1058.471 186 173 164
-1052.952 331.751 1058.657 167 152 143
-1052.952 332.251 1058.865 166 148 135
-1052.952 332.751 1059.099 196 179 161
-1052.952 333.251 1059.335 213 191 172
-1052.952 333.751 1059.499 209 184 167
-1052.952 334.251 1059.727 205 179 161
-1052.952 334.751 1060.071 205 179 157
-1052.952 335.251 1060.312 206 179 157
-1052.452 330.751 1058.459 183 170 164
-1052.452 331.251 1058.610 166 154 148
-1052.452 331.751 1058.775 160 147 138
-1052.452 332.251 1058.939 180 167 153
-1052.452 332.751 1059.102 197 180 164
-1052.452 333.251 1059.308 207 186 170
-1052.452 333.751 1059.427 200 177 161
-1052.452 334.251 1059.529 201 179 162
-1052.452 334.751 1059.745 204 179 159
-1052.452 335.251 1059.939 196 169 150
-1051.952 330.751 1058.495 154 144 141
-1051.952 331.251 1058.674 155 142 136
-1051.952 331.751 1058.815 173 160 150
-1051.952 332.251 1058.945 190 174 160
-1051.952 332.751 1059.039 196 177 158
-1051.952 333.251 1059.195 201 179 159
-1051.952 333.751 1059.301 201 177 160
-1051.952 334.251 1059.360 191 166 148
-1051.952 334.751 1059.461 202 179 162
-1051.952 335.251 1059.565 187 161 143
-1051.452 330.751 1058.467 155 142 135
-1051.452 331.251 1058.621 150 131 124
-1051.452 331.751 1058.762 190 170 160
-1051.452 332.251 1058.869 203 184 171
-1051.452 332.751 1058.935 203 183 165
-1051.452 333.251 1059.035 197 176 159
-1051.452 333.751 1059.095 180 158 143
-1051.452 334.251 1059.148 174 151 137
-1051.452 334.751 1059.228 187 166 151
-1051.452 335.251 1059.296 191 168 154
-1050.952 330.751 1058.415 184 168 159
-1050.952 331.251 1058.538 194 174 164
-1050.952 331.751 1058.675 206 186 175
-1050.952 332.251 1058.754 203 184 171
-1050.952 332.751 1058.827 190 171 156
-1050.952 333.251 1058.892 170 151 136
-1050.952 333.751 1058.917 170 151 137
-1050.952 334.251 1058.954 172 152 141
-1050.952 334.751 1059.016 177 158 144
-1050.952 335.251 1059.080 184 164 149
-1050.452 334.251 1058.828 167 148 136
-1050.452 334.751 1058.865 170 153 137
-1050.452 335.251 1058.909 166 148 132
-1044.952 330.751 1058.438 176 157 143
-1044.952 331.251 1058.473 183 162 150
-1044.952 331.751 1058.465 187 168 154
-1044.952 332.251 1058.460 201 183 168
-1044.952 332.751 1058.465 210 192 178
-1044.952 333.251 1058.485 211 194 178
-1044.952 333.751 1058.499 208 191 175
-1044.452 330.751 1058.493 181 161 149
-1044.452 331.251 1058.530 179 160 146
-1044.452 331.751 1058.530 181 162 148
-1044.452 332.251 1058.519 199 181 167
-1044.452 332.751 1058.503 210 192 178
-1044.452 333.251 1058.513 212 195 179
-1044.452 333.751 1058.520 202 185 170
-1044.452 334.251 1058.527 199 183 166
-1044.452 334.751 1058.547 200 184 167
-1044.452 335.251 1058.560 202 185 170
-1043.952 330.751 1058.551 202 184 171
-1043.952 331.251 1058.582 184 164 152
-1043.952 331.751 1058.582 146 128 116
-1043.952 332.251 1058.570 160 142 129
-1043.952 332.751 1058.545 201 184 170
-1043.952 333.251 1058.543 203 186 171
-1043.952 333.751 1058.540 198 180 165
-1043.952 334.251 1058.529 189 172 156
-1043.952 334.751 1058.535 189 171 156
-1043.952 335.251 1058.550 191 174 159
-1083.952 335.751 1062.490 148 129 122
-1083.952 336.251 1061.819 144 127 120
-1083.952 336.751 1061.093 145 128 121
-1083.952 337.251 1060.324 144 126 121
-1083.952 337.751 1059.640 142 124 117
-1083.952 338.251 1059.261 140 122 116
-1083.952 338.751 1058.984 139 121 114
-1083.952 339.251 1058.616 140 122 116
-1083.952 339.751 1058.297 143 125 118
-1083.452 336.751 1062.732 146 127 121
-1083.452 337.251 1061.936 145 126 122
-1083.452 337.751 1061.225 144 126 122
-1083.452 338.251 1060.657 139 121 119
-1083.452 338.751 1060.013 140 122 118
-1083.452 339.251 1059.582 139 121 117
-1083.452 339.751 1059.286 141 124 117
-1083.452 340.251 1059.024 143 126 119
-1083.452 340.751 1058.736 147 129 123
-1082.952 337.751 1062.774 139 122 116
-1082.952 338.251 1062.255 139 121 116
-1082.952 338.751 1061.765 140 122 118
-1082.952 339.251 1061.140 142 125 119
-1082.952 339.751 1060.645 142 125 118
-1082.952 340.251 1060.139 140 123 116
-1082.952 340.751 1059.832 140 122 116
-1082.452 340.251 1062.055 144 127 120
-1082.452 340.751 1061.438 143 125 120
-1048.952 330.751 1058.347 199 184 171
-1048.952 331.251 1058.378 184 168 155
-1048.952 331.751 1058.407 184 168 154
-1048.952 332.251 1058.456 191 174 164
-1048.952 332.751 1058.492 175 158 148
-1048.952 333.251 1058.530 174 158 145
-1048.952 333.751 1058.579 170 154 139
-1048.952 334.251 1058.628 173 157 142
-1048.952 334.751 1058.655 184 168 153
-1048.952 335.251 1058.662 186 168 154
