230.267 -57.863 960.019 209 210 210
230.267 -57.363 960.136 207 209 211
230.767 -59.363 959.553 215 217 216
230.767 -58.863 959.765 213 214 216
230.767 -58.363 959.995 208 212 215
230.767 -57.863 960.216 207 211 216
230.767 -57.363 960.329 202 213 218
231.267 -60.363 959.335 216 219 219
231.267 -59.863 959.565 211 216 216
231.267 -59.363 959.762 209 216 217
231.267 -58.863 959.984 205 215 218
231.267 -58.363 960.157 204 212 221
231.267 -57.863 960.369 198 208 219
231.267 -57.363 960.486 188 206 222
231.767 -61.863 959.125 219 220 222
231.767 -61.363 959.205 218 218 222
231.767 -60.863 959.409 214 216 220
231.767 -60.363 959.582 209 214 219
231.767 -59.863 959.772 207 214 219
231.767 -59.363 959.988 206 217 224
231.767 -58.863 960.235 205 219 229
231.767 -58.363 960.355 196 213 228
231.767 -57.863 960.467 187 205 222
231.767 -57.363 960.627 184 206 227
232.267 -62.363 959.179 217 218 219
232.267 -61.863 959.235 213 218 221
232.267 -61.363 959.342 210 216 221
232.267 -60.863 959.608 208 215 222
232.267 -60.363 959.818 206 215 224
232.267 -59.863 960.161 203 215 225
232.267 -59.363 960.402 199 216 230
232.267 -58.863 960.566 194 215 231
232.267 -58.363 960.652 185 211 230
232.267 -57.863 960.714 180 209 230
232.267 -57.363 960.850 180 211 234
232.767 -63.363 958.929 218 217 213
232.767 -62.863 959.168 215 216 215
232.767 -62.363 959.283 213 216 219
232.767 -61.863 959.366 208 216 222
232.767 -61.363 959.659 205 215 224
232.767 -60.863 959.956 200 214 224
232.767 -60.363 960.180 195 212 225
232.767 -59.863 960.437 189 208 223
232.767 -59.363 960.667 183 206 224
232.767 -58.863 960.722 184 212 233
232.767 -58.363 960.828 181 213 234
232.767 -57.863 961.007 177 212 235
232.767 -57.363 961.064 176 213 239
233.267 -64.363 958.706 222 217 209
233.267 -63.863 958.791 222 220 215
233.267 -63.363 958.902 219 218 214
233.267 -62.863 959.209 215 215 216
233.267 -62.363 959.327 210 215 218
233.267 -61.863 959.631 208 218 225
233.267 -61.363 959.949 200 216 225
233.267 -60.863 960.211 187 206 220
233.267 -60.363 960.403 181 206 223
233.267 -59.863 960.667 183 209 229
233.267 -59.363 960.767 183 211 234
233.267 -58.863 960.839 181 212 237
233.267 -58.363 961.029 179 213 237
233.267 -57.863 961.131 176 212 236
233.267 -57.363 961.218 176 213 239
233.767 -64.363 958.702 225 220 212
233.767 -63.863 958.773 222 220 215
233.767 -63.363 958.941 221 220 217
233.767 -62.863 959.170 216 216 219
233.767 -62.363 959.336 210 215 220
233.767 -61.863 959.703 212 224 233
233.767 -61.363 960.045 201 219 231
233.767 -60.863 960.401 189 212 228
233.767 -60.363 960.673 184 212 234
233.767 -59.863 960.825 181 212 235
233.767 -59.363 961.004 183 212 238
233.767 -58.863 961.080 183 213 241
233.767 -58.363 961.143 180 213 239
233.767 -57.863 961.248 177 212 237
233.767 -57.363 961.364 176 214 237
234.267 -64.363 958.695 227 220 212
234.267 -63.863 958.780 224 220 212
234.267 -63.363 958.933 223 220 215
234.267 -62.863 959.212 219 219 216
234.267 -62.363 959.414 212 217 220
234.267 -61.863 959.836 211 222 230
234.267 -61.363 960.072 207 222 235
234.267 -60.863 960.416 196 216 233
234.267 -60.363 960.789 185 213 235
234.267 -59.863 960.976 181 214 235
234.267 -59.363 961.096 180 214 237
234.267 -58.863 961.206 183 214 238
234.267 -58.363 961.312 179 213 239
234.267 -57.863 961.380 177 214 240
234.267 -57.363 961.423 174 214 237
234.767 -63.863 958.845 223 216 207
234.767 -63.363 958.973 224 218 212
234.767 -62.863 959.154 222 220 215
234.767 -62.363 959.392 216 219 220
234.767 -61.863 959.823 211 220 228
234.767 -61.363 960.122 211 225 236
234.767 -60.863 960.374 199 219 236
234.767 -60.363 960.863 188 215 236
234.767 -59.863 961.018 181 214 234
234.767 -59.363 961.121 180 215 235
234.767 -58.863 961.285 183 215 238
234.767 -58.363 961.372 179 214 240
234.767 -57.863 961.418 177 214 240
234.767 -57.363 961.438 176 213 239
235.267 -63.363 958.944 219 210 201
235.267 -62.863 959.088 224 218 212
235.267 -62.363 959.253 219 219 218
235.267 -61.863 959.657 211 218 223
235.267 -61.363 960.066 210 223 232
235.267 -60.863 960.313 206 222 237
235.267 -60.363 960.810 192 217 235
235.267 -59.863 961.007 184 215 234
235.267 -59.363 961.162 180 215 235
235.267 -58.863 961.320 180 215 238
235.267 -58.363 961.407 179 214 239
235.267 -57.863 961.429 177 214 240
235.267 -57.363 961.467 177 213 240
235.767 -63.363 959.002 194 184 174
235.767 -62.863 959.100 213 205 199
235.767 -62.363 959.275 215 213 211
235.767 -61.863 959.634 209 212 215
235.767 -61.363 959.790 211 220 229
235.767 -60.863 960.273 208 222 235
235.767 -60.363 960.769 198 219 236
235.767 -59.863 960.988 186 217 235
235.767 -59.363 961.165 179 213 233
235.767 -58.863 961.292 179 213 237
235.767 -58.363 961.382 179 214 239
235.767 -57.863 961.423 177 214 238
235.767 -57.363 961.473 179 213 241
236.267 -62.863 959.150 159 152 145
236.267 -62.363 959.269 176 172 170
236.267 -61.863 959.548 187 188 189
236.267 -61.363 959.694 200 205 210
236.267 -60.863 960.206 210 220 230
236.267 -60.363 960.699 204 223 237
236.267 -59.863 960.866 188 218 234
236.267 -59.363 961.187 179 214 234
236.267 -58.863 961.302 177 213 236
236.267 -58.363 961.355 179 214 238
236.267 -57.863 961.419 174 214 237
236.267 -57.363 961.471 177 213 240
236.767 -62.363 959.205 132 128 125
236.767 -61.863 959.411 162 162 161
236.767 -61.363 959.616 190 193 196
236.767 -60.863 960.008 206 214 222
236.767 -60.363 960.490 207 224 236
236.767 -59.863 960.714 190 220 233
236.767 -59.363 961.002 180 215 234
236.767 -58.863 961.234 177 213 236
236.767 -58.363 961.318 177 214 238
236.767 -57.863 961.407 174 214 237
236.767 -57.363 961.458 177 214 240
237.267 -62.363 959.207 126 121 117
237.267 -61.863 959.315 167 164 164
237.267 -61.363 959.542 194 195 196
237.267 -60.863 959.835 204 210 215
237.267 -60.363 960.229 209 223 233
237.267 -59.863 960.530 197 222 236
237.267 -59.363 960.748 185 217 237
237.267 -58.863 961.044 179 213 236
237.267 -58.363 961.229 177 213 236
237.267 -57.863 961.319 179 214 237
237.267 -57.363 961.415 179 214 237
237.767 -61.863 959.289 190 187 184
237.767 -61.363 959.512 204 202 202
237.767 -60.863 959.817 208 210 213
237.767 -60.363 960.095 209 219 227
237.767 -59.863 960.363 204 224 236
237.767 -59.363 960.694 192 220 240
237.767 -58.863 960.968 181 214 237
237.767 -58.363 961.091 179 213 235
237.767 -57.863 961.226 183 214 235
237.767 -57.363 961.289 185 215 236
238.267 -61.863 959.296 205 200 196
238.267 -61.363 959.383 202 201 197
238.267 -60.863 959.724 203 203 202
238.267 -60.363 960.031 208 214 218
238.267 -59.863 960.215 210 223 233
238.267 -59.363 960.481 200 223 239
238.267 -58.863 960.689 188 217 237
238.267 -58.363 960.858 184 215 235
238.267 -57.863 961.042 186 216 237
238.267 -57.363 961.093 193 217 238
238.767 -61.363 959.341 186 180 174
238.767 -60.863 959.406 188 185 180
238.767 -60.363 959.817 203 205 204
238.767 -59.863 960.041 211 219 223
238.767 -59.363 960.218 208 224 234
238.767 -58.863 960.485 199 221 235
238.767 -58.363 960.675 191 216 232
238.767 -57.863 960.753 186 210 227
238.767 -57.363 960.762 181 197 213
239.267 -61.363 959.321 191 183 176
239.267 -60.863 959.385 177 171 164
239.267 -60.363 959.634 201 195 190
239.267 -59.863 959.844 212 212 211
239.267 -59.363 960.027 214 220 225
239.267 -58.863 960.249 199 210 218
239.267 -58.363 960.467 174 188 198
239.267 -57.863 960.559 156 169 180
239.267 -57.363 960.483 148 154 164
239.767 -61.363 959.304 179 168 162
239.767 -60.863 959.335 176 167 159
239.767 -60.363 959.392 207 198 189
239.767 -59.863 959.623 217 211 205
239.767 -59.363 959.731 211 210 207
239.767 -58.863 960.064 192 194 196
239.767 -58.363 960.141 149 153 156
239.767 -57.863 960.081 143 146 150
239.767 -57.363 959.881 152 152 154
240.267 -60.863 959.258 168 155 147
240.267 -60.363 959.290 202 192 182
240.267 -59.863 959.381 215 206 197
240.267 -59.363 959.471 215 209 202
240.267 -58.863 959.663 195 192 188
240.267 -58.363 959.747 147 145 144
240.267 -57.863 959.630 151 148 147
240.267 -57.363 959.490 171 168 165
240.767 -58.863 959.400 211 202 192
240.767 -58.363 959.423 186 179 171
225.267 -47.863 959.863 192 193 194
225.267 -47.363 960.047 200 201 204
225.767 -49.363 959.685 181 181 183
225.767 -48.863 959.767 186 187 189
225.767 -48.363 959.870 191 193 197
225.767 -47.863 960.046 198 203 211
225.767 -47.363 960.219 203 212 219
226.267 -50.363 959.557 177 177 178
226.267 -49.863 959.672 180 183 186
226.267 -49.363 959.795 184 187 193
226.267 -48.863 959.912 187 195 202
226.267 -48.363 960.067 197 206 215
226.267 -47.863 960.253 200 213 226
226.267 -47.363 960.428 200 216 231
226.767 -50.863 959.598 175 179 182
226.767 -50.363 959.698 181 186 190
226.767 -49.863 959.819 184 193 201
226.767 -49.363 959.967 186 199 208
226.767 -48.863 960.116 189 205 218
226.767 -48.363 960.265 191 210 224
226.767 -47.863 960.430 186 208 227
226.767 -47.363 960.631 187 210 231
227.267 -51.863 959.617 175 177 182
227.267 -51.363 959.648 181 186 192
227.267 -50.863 959.729 186 194 201
227.267 -50.363 959.875 193 203 211
227.267 -49.863 960.036 193 207 217
227.267 -49.363 960.172 185 204 218
227.267 -48.863 960.329 181 203 219
227.267 -48.363 960.456 179 204 221
227.267 -47.863 960.634 183 209 230
227.267 -47.363 960.872 184 213 234
227.767 -53.363 959.845 176 175 173
227.767 -52.863 959.818 179 179 182
227.767 -52.363 959.803 179 184 188
227.767 -51.863 959.785 181 191 197
227.767 -51.363 959.868 188 198 207
227.767 -50.863 960.032 193 208 221
227.767 -50.363 960.187 195 213 228
227.767 -49.863 960.308 186 211 227
227.767 -49.363 960.435 179 207 226
227.767 -48.863 960.622 179 208 229
227.767 -48.363 960.729 179 210 234
227.767 -47.863 960.892 180 211 235
227.767 -47.363 961.083 181 213 236
228.267 -54.363 960.018 179 175 173
228.267 -53.863 960.029 181 180 181
228.267 -53.363 960.026 185 185 189
228.267 -52.863 960.047 186 191 197
228.267 -52.363 960.076 185 197 205
228.267 -51.863 960.101 186 201 211
228.267 -51.363 960.162 188 205 219
228.267 -50.863 960.274 184 204 222
228.267 -50.363 960.440 183 207 224
228.267 -49.863 960.571 181 211 229
228.267 -49.363 960.725 179 210 230
228.267 -48.863 960.885 179 211 232
228.267 -48.363 960.979 180 212 237
228.267 -47.863 961.096 181 213 236
228.267 -47.363 961.227 183 214 237
228.767 -54.863 960.053 184 184 182
228.767 -54.363 960.110 184 188 190
228.767 -53.863 960.170 188 193 198
228.767 -53.363 960.243 193 202 209
228.767 -52.863 960.342 190 204 215
228.767 -52.363 960.433 184 201 216
228.767 -51.863 960.462 179 200 216
228.767 -51.363 960.489 176 200 218
228.767 -50.863 960.564 179 206 227
228.767 -50.363 960.715 181 210 231
228.767 -49.863 960.854 179 211 232
228.767 -49.363 960.956 179 212 233
228.767 -48.863 961.047 179 212 235
228.767 -48.363 961.126 180 213 235
228.767 -47.863 961.215 183 214 237
228.767 -47.363 961.310 183 215 237
229.267 -56.363 960.031 198 194 192
229.267 -55.863 960.070 195 193 193
229.267 -55.363 960.153 190 192 196
229.267 -54.863 960.195 191 197 202
229.267 -54.363 960.287 192 203 211
229.267 -53.863 960.428 191 205 217
229.267 -53.363 960.504 191 208 221
229.267 -52.863 960.614 184 204 220
229.267 -52.363 960.694 176 203 222
229.267 -51.863 960.759 175 205 226
229.267 -51.363 960.851 175 207 231
229.267 -50.863 960.960 176 209 235
229.267 -50.363 961.033 179 211 237
229.267 -49.863 961.115 179 212 236
229.267 -49.363 961.156 179 213 237
229.267 -48.863 961.208 179 213 236
229.267 -48.363 961.260 179 214 236
229.267 -47.863 961.298 180 214 238
229.267 -47.363 961.346 180 214 238
229.767 -56.863 960.118 206 202 204
229.767 -56.363 960.195 202 201 206
229.767 -55.863 960.266 198 202 210
229.767 -55.363 960.383 195 204 215
229.767 -54.863 960.521 190 204 217
229.767 -54.363 960.597 186 206 221
229.767 -53.863 960.709 179 202 221
229.767 -53.363 960.766 176 202 222
229.767 -52.863 960.854 177 206 227
229.767 -52.363 960.949 175 208 231
229.767 -51.863 961.038 174 209 234
229.767 -51.363 961.109 175 211 237
229.767 -50.863 961.157 174 211 237
229.767 -50.363 961.190 177 213 239
229.767 -49.863 961.231 179 213 240
229.767 -49.363 961.267 179 213 238
229.767 -48.863 961.313 179 214 238
229.767 -48.363 961.353 179 214 238
229.767 -47.863 961.360 180 214 239
229.767 -47.363 961.362 180 214 239
230.267 -56.863 960.253 206 210 215
230.267 -56.363 960.320 206 213 222
230.267 -55.863 960.460 200 214 227
230.267 -55.363 960.599 187 206 222
230.267 -54.863 960.692 176 202 220
230.267 -54.363 960.740 175 202 224
230.267 -53.863 960.831 174 205 226
230.267 -53.363 960.940 176 207 229
230.267 -52.863 961.095 176 210 233
230.267 -52.363 961.179 174 209 234
230.267 -51.863 961.281 173 209 235
230.267 -51.363 961.317 174 211 237
230.267 -50.863 961.321 174 211 237
230.267 -50.363 961.342 179 213 239
230.267 -49.863 961.378 179 213 238
230.267 -49.363 961.399 179 213 238
230.267 -48.863 961.410 177 214 238
230.267 -48.363 961.407 177 215 238
230.267 -47.863 961.393 179 213 238
230.267 -47.363 961.383 179 213 238
230.767 -56.863 960.432 199 213 221
230.767 -56.363 960.519 196 213 226
230.767 -55.863 960.697 187 210 228
230.767 -55.363 960.810 179 208 227
230.767 -54.863 960.932 173 207 229
230.767 -54.363 960.995 174 208 233
230.767 -53.863 961.117 175 210 235
230.767 -53.363 961.200 175 210 235
230.767 -52.863 961.292 176 212 236
230.767 -52.363 961.339 174 210 236
230.767 -51.863 961.417 173 210 236
230.767 -51.363 961.495 174 211 237
230.767 -50.863 961.512 174 212 235
230.767 -50.363 961.507 177 213 237
230.767 -49.863 961.492 180 214 239
230.767 -49.363 961.470 180 213 239
230.767 -48.863 961.460 179 213 238
230.767 -48.363 961.454 177 214 238
230.767 -47.863 961.427 179 213 238
230.767 -47.363 961.405 179 214 238
231.267 -56.863 960.610 184 204 222
231.267 -56.363 960.718 181 208 227
231.267 -55.863 960.830 181 212 233
231.267 -55.363 961.008 176 211 235
231.267 -54.863 961.146 176 210 237
231.267 -54.363 961.208 175 210 237
231.267 -53.863 961.309 175 211 237
231.267 -53.363 961.349 175 211 237
231.267 -52.863 961.370 175 212 238
231.267 -52.363 961.430 175 212 238
231.267 -51.863 961.519 174 211 237
231.267 -51.363 961.555 173 211 237
231.267 -50.863 961.561 175 213 237
231.267 -50.363 961.551 177 213 238
231.267 -49.863 961.537 179 213 240
231.267 -49.363 961.515 179 212 239
231.267 -48.863 961.483 179 213 240
231.267 -48.363 961.463 177 213 239
231.267 -47.863 961.431 176 213 238
231.267 -47.363 961.406 177 214 237
231.767 -56.863 960.755 183 209 230
231.767 -56.363 960.841 181 212 233
231.767 -55.863 961.003 179 213 236
231.767 -55.363 961.200 179 212 237
231.767 -54.863 961.315 175 211 236
231.767 -54.363 961.345 175 211 237
231.767 -53.863 961.389 175 211 237
231.767 -53.363 961.417 176 212 238
231.767 -52.863 961.462 175 212 238
231.767 -52.363 961.544 175 212 238
231.767 -51.863 961.574 175 212 238
231.767 -51.363 961.595 174 211 237
231.767 -50.863 961.599 175 212 239
231.767 -50.363 961.577 176 211 239
231.767 -49.863 961.554 176 211 239
231.767 -49.363 961.538 175 211 237
231.767 -48.863 961.490 176 213 239
231.767 -48.363 961.447 175 213 239
231.767 -47.863 961.413 174 214 239
231.767 -47.363 961.396 175 213 239
232.267 -56.863 960.978 179 211 236
232.267 -56.363 961.109 179 212 237
232.267 -55.863 961.220 179 212 237
232.267 -55.363 961.368 179 214 238
232.267 -54.863 961.464 175 211 237
232.267 -54.363 961.507 175 211 237
232.267 -53.863 961.537 175 211 237
232.267 -53.363 961.564 175 212 238
232.267 -52.863 961.577 175 212 238
232.267 -52.363 961.595 176 213 239
232.267 -51.863 961.602 175 212 238
232.267 -51.363 961.605 175 212 238
232.267 -50.863 961.601 175 210 238
232.267 -50.363 961.589 176 211 239
232.267 -49.863 961.568 176 211 239
232.267 -49.363 961.543 175 212 239
232.267 -48.863 961.488 176 213 239
232.267 -48.363 961.439 173 213 238
232.267 -47.863 961.402 173 214 239
232.267 -47.363 961.372 175 214 238
232.767 -56.863 961.146 177 213 239
232.767 -56.363 961.236 177 213 239
232.767 -55.863 961.381 177 213 239
232.767 -55.363 961.473 177 214 240
232.767 -54.863 961.539 175 212 238
232.767 -54.363 961.584 174 211 237
232.767 -53.863 961.604 174 211 237
232.767 -53.363 961.618 175 212 238
232.767 -52.863 961.629 176 213 239
232.767 -52.363 961.620 176 213 239
232.767 -51.863 961.613 177 213 239
232.767 -51.363 961.606 177 213 239
232.767 -50.863 961.600 176 211 239
232.767 -50.363 961.590 174 210 237
232.767 -49.863 961.564 174 211 237
232.767 -49.363 961.523 176 212 238
232.767 -48.863 961.471 176 213 238
232.767 -48.363 961.407 177 212 238
232.767 -47.863 961.351 175 211 235
232.767 -47.363 961.280 179 213 236
233.267 -56.863 961.259 177 213 239
233.267 -56.363 961.357 177 213 239
233.267 -55.863 961.428 177 213 239
233.267 -55.363 961.524 177 214 240
233.267 -54.863 961.581 174 214 239
233.267 -54.363 961.620 174 211 237
233.267 -53.863 961.654 175 212 238
233.267 -53.363 961.654 175 212 238
233.267 -52.863 961.646 176 213 239
233.267 -52.363 961.636 176 213 239
233.267 -51.863 961.623 177 213 239
233.267 -51.363 961.609 177 213 239
233.267 -50.863 961.592 176 211 238
233.267 -50.363 961.578 174 210 237
233.267 -49.863 961.539 175 211 236
233.267 -49.363 961.493 176 212 236
233.267 -48.863 961.452 180 212 236
233.267 -48.363 961.374 183 213 236
233.267 -47.863 961.260 184 213 235
233.267 -47.363 961.193 186 213 233
233.767 -56.863 961.398 177 212 237
233.767 -56.363 961.455 179 212 239
233.767 -55.863 961.510 177 213 239
233.767 -55.363 961.568 177 214 240
233.767 -54.863 961.634 174 215 240
233.767 -54.363 961.651 173 213 238
233.767 -53.863 961.667 175 212 238
233.767 -53.363 961.668 176 213 239
233.767 -52.863 961.661 176 213 239
233.767 -52.363 961.652 177 213 239
233.767 -51.863 961.634 177 213 239
233.767 -51.363 961.599 177 213 239
233.767 -50.863 961.574 176 212 237
233.767 -50.363 961.538 175 211 235
233.767 -49.863 961.488 175 211 235
233.767 -49.363 961.422 179 214 235
233.767 -48.863 961.331 184 214 235
233.767 -48.363 961.227 188 214 237
233.767 -47.863 961.132 191 215 236
233.767 -47.363 961.081 187 207 226
234.267 -56.863 961.455 174 212 235
234.267 -56.363 961.509 177 213 238
234.267 -55.863 961.549 179 214 240
234.267 -55.363 961.586 179 214 240
234.267 -54.863 961.627 177 214 240
234.267 -54.363 961.657 176 214 238
234.267 -53.863 961.685 173 214 236
234.267 -53.363 961.685 173 214 236
234.267 -52.863 961.660 176 214 237
234.267 -52.363 961.631 177 213 239
234.267 -51.863 961.577 177 213 239
234.267 -51.363 961.530 177 212 237
234.267 -50.863 961.505 176 211 234
234.267 -50.363 961.473 176 211 233
234.267 -49.863 961.383 179 212 234
234.267 -49.363 961.288 186 213 235
234.267 -48.863 961.201 193 214 235
234.267 -48.363 961.018 186 203 222
234.267 -47.863 960.887 169 185 200
234.267 -47.363 960.755 149 163 176
234.767 -56.863 961.478 175 212 238
234.767 -56.363 961.518 175 212 238
234.767 -55.863 961.557 175 213 238
234.767 -55.363 961.603 175 213 239
234.767 -54.863 961.643 175 213 239
234.767 -54.363 961.656 177 214 240
234.767 -53.863 961.662 175 212 238
234.767 -53.363 961.657 175 212 238
234.767 -52.863 961.631 179 213 238
234.767 -52.363 961.577 179 212 237
234.767 -51.863 961.473 181 213 237
234.767 -51.363 961.380 183 212 236
234.767 -50.863 961.355 184 214 235
234.767 -50.363 961.313 183 213 234
234.767 -49.863 961.233 188 215 236
234.767 -49.363 961.138 180 202 223
234.767 -48.863 961.018 164 181 200
234.767 -48.363 960.813 147 160 177
234.767 -47.863 960.582 129 139 152
234.767 -47.363 960.387 119 127 138
235.267 -56.863 961.526 175 212 239
235.267 -56.363 961.557 173 212 239
235.267 -55.863 961.570 173 213 238
235.267 -55.363 961.595 173 213 238
235.267 -54.863 961.616 173 213 238
235.267 -54.363 961.630 176 213 239
235.267 -53.863 961.626 176 213 239
235.267 -53.363 961.605 177 213 237
235.267 -52.863 961.561 179 211 235
235.267 -52.363 961.466 184 213 235
235.267 -51.863 961.362 187 214 237
235.267 -51.363 961.315 189 214 237
235.267 -50.863 961.270 191 215 233
235.267 -50.363 961.191 187 207 225
235.267 -49.863 961.045 166 184 200
235.267 -49.363 960.831 142 156 172
235.267 -48.863 960.641 121 130 145
235.267 -48.363 960.516 115 121 133
235.267 -47.863 960.345 116 119 127
235.267 -47.363 960.097 122 123 129
235.767 -56.863 961.552 175 213 240
235.767 -56.363 961.575 173 213 239
235.767 -55.863 961.572 173 213 238
235.767 -55.363 961.559 173 212 238
235.767 -54.863 961.569 176 213 239
235.767 -54.363 961.597 176 214 237
235.767 -53.863 961.567 179 214 236
235.767 -53.363 961.487 179 213 233
235.767 -52.863 961.404 184 213 233
235.767 -52.363 961.300 189 216 232
235.767 -51.863 961.228 193 216 231
235.767 -51.363 961.136 187 207 221
235.767 -50.863 961.098 173 185 198
235.767 -50.363 960.979 159 169 181
235.767 -49.863 960.785 137 144 155
235.767 -49.363 960.606 112 117 126
235.767 -48.863 960.410 105 107 116
235.767 -48.363 960.246 107 107 116
235.767 -47.863 960.062 122 119 124
235.767 -47.363 959.845 132 126 128
236.267 -56.863 961.541 175 213 239
236.267 -56.363 961.547 173 213 238
236.267 -55.863 961.533 173 213 236
236.267 -55.363 961.496 176 213 236
236.267 -54.863 961.469 179 212 235
236.267 -54.363 961.437 180 214 233
236.267 -53.863 961.376 184 215 234
236.267 -53.363 961.246 191 218 235
236.267 -52.863 961.166 194 216 230
236.267 -52.363 961.125 191 208 220
236.267 -51.863 961.040 175 189 198
236.267 -51.363 960.848 155 164 172
236.267 -50.863 960.718 146 147 152
236.267 -50.363 960.678 149 148 152
236.267 -49.863 960.576 162 159 161
236.267 -49.363 960.363 145 141 144
236.267 -48.863 960.198 113 110 112
236.267 -48.363 960.054 113 108 112
236.767 -56.863 961.499 176 214 239
236.767 -56.363 961.487 174 215 237
236.767 -55.863 961.463 175 212 235
236.767 -55.363 961.429 180 213 235
236.767 -54.863 961.332 185 213 236
236.767 -54.363 961.246 188 213 233
236.767 -53.863 961.168 195 216 232
236.767 -53.363 961.083 191 208 222
236.767 -52.863 960.945 176 186 198
236.767 -52.363 960.760 157 161 171
236.767 -51.863 960.703 146 146 153
236.767 -51.363 960.623 148 145 148
236.767 -50.863 960.476 157 149 146
236.767 -50.363 960.324 168 159 156
236.767 -49.863 960.214 180 171 166
237.267 -56.863 961.450 179 215 235
237.267 -56.363 961.422 179 215 235
237.267 -55.863 961.362 183 214 235
237.267 -55.363 961.307 188 214 236
237.267 -54.863 961.179 195 216 236
237.267 -54.363 961.073 190 204 221
237.267 -53.863 960.938 171 180 194
237.267 -53.363 960.739 153 159 170
237.267 -52.863 960.641 143 144 150
237.267 -52.363 960.560 148 144 145
237.267 -51.863 960.449 157 149 148
237.267 -51.363 960.306 168 159 155
237.267 -50.863 960.206 179 168 160
237.767 -56.863 961.327 185 215 234
237.767 -56.363 961.305 189 218 234
237.767 -55.863 961.210 190 213 233
237.767 -55.363 961.121 185 202 221
237.767 -54.863 960.963 168 181 194
237.767 -54.363 960.701 148 155 164
237.767 -53.863 960.604 139 142 150
237.767 -53.363 960.557 142 141 146
237.767 -52.863 960.468 151 147 145
237.767 -52.363 960.331 163 156 150
237.767 -51.863 960.148 175 167 158
238.267 -56.863 961.099 189 211 227
238.267 -56.363 961.029 175 195 208
238.267 -55.863 960.850 164 177 191
238.267 -55.363 960.701 148 156 168
238.267 -54.863 960.504 138 143 148
238.267 -54.363 960.318 143 143 143
238.267 -53.863 960.159 151 147 146
238.267 -53.363 960.075 163 157 152
238.267 -52.863 960.024 173 163 157
238.267 -52.363 959.964 181 171 161
238.767 -56.863 960.691 161 174 184
238.767 -56.363 960.529 152 160 167
238.767 -55.863 960.301 143 147 153
238.767 -55.363 960.108 145 144 148
238.767 -54.863 959.961 155 151 149
238.767 -54.363 959.788 170 163 157
238.767 -53.863 959.764 180 170 161
238.767 -53.363 959.761 188 175 165
239.267 -56.863 960.269 150 154 157
239.267 -56.363 960.106 161 161 161
239.267 -55.863 959.861 172 168 168
239.267 -55.363 959.686 174 168 166
239.267 -54.863 959.562 177 168 163
239.267 -54.363 959.481 184 174 164
239.767 -56.863 959.678 171 168 165
239.767 -56.363 959.616 184 179 174
239.767 -55.863 959.540 192 184 180
239.767 -55.363 959.489 184 173 171
239.767 -54.863 959.367 171 162 156
240.267 -56.863 959.418 183 177 172
240.267 -56.363 959.361 181 174 166
240.267 -55.863 959.244 170 162 158
240.267 -55.363 959.238 151 142 139
221.267 -39.863 960.393 199 196 194
221.267 -39.363 960.545 202 199 199
221.267 -38.863 960.723 201 199 200
221.267 -38.363 960.927 198 198 199
221.267 -37.863 961.184 196 197 195
221.767 -40.863 960.249 193 192 189
221.767 -40.363 960.337 196 195 195
221.767 -39.863 960.428 200 201 204
221.767 -39.363 960.566 203 206 211
221.767 -38.863 960.709 201 205 210
221.767 -38.363 960.879 196 201 208
221.767 -37.863 961.114 190 195 199
222.267 -42.363 960.170 191 187 187
222.267 -41.863 960.199 194 191 192
222.267 -41.363 960.221 193 192 194
222.267 -40.863 960.276 195 196 199
222.267 -40.363 960.416 197 202 207
222.267 -39.863 960.518 200 209 216
222.267 -39.363 960.669 198 211 219
222.267 -38.863 960.834 193 208 218
222.267 -38.363 960.954 190 204 218
222.267 -37.863 961.064 191 204 214
222.767 -43.363 960.153 189 186 182
222.767 -42.863 960.168 190 189 188
222.767 -42.363 960.240 194 192 195
222.767 -41.863 960.276 197 196 200
222.767 -41.363 960.290 195 200 207
222.767 -40.863 960.423 196 204 213
222.767 -40.363 960.556 194 205 215
222.767 -39.863 960.630 187 205 216
222.767 -39.363 960.791 185 207 222
222.767 -38.863 961.005 188 212 228
222.767 -38.363 961.102 188 212 230
222.767 -37.863 961.098 190 208 226
223.267 -44.363 960.172 191 190 182
223.267 -43.863 960.251 189 188 183
223.267 -43.363 960.283 192 194 192
223.267 -42.863 960.287 194 197 199
223.267 -42.363 960.378 197 203 208
223.267 -41.863 960.457 202 209 215
223.267 -41.363 960.488 200 212 226
223.267 -40.863 960.690 193 208 223
223.267 -40.363 960.795 187 206 222
223.267 -39.863 960.862 186 209 227
223.267 -39.363 961.011 184 211 231
223.267 -38.863 961.125 184 214 234
223.267 -38.363 961.157 184 214 235
223.267 -37.863 961.145 187 211 231
223.767 -45.363 960.132 196 192 189
223.767 -44.863 960.249 197 194 192
223.767 -44.363 960.344 196 196 196
223.767 -43.863 960.457 194 197 200
223.767 -43.363 960.519 193 200 206
223.767 -42.863 960.531 195 207 214
223.767 -42.363 960.598 194 208 220
223.767 -41.863 960.695 192 209 223
223.767 -41.363 960.764 191 210 230
223.767 -40.863 960.893 190 213 232
223.767 -40.363 961.013 189 212 233
223.767 -39.863 961.106 188 214 236
223.767 -39.363 961.192 187 215 237
223.767 -38.863 961.213 184 216 237
223.767 -38.363 961.204 185 216 236
223.767 -37.863 961.191 187 214 233
224.267 -45.863 960.127 202 201 200
224.267 -45.363 960.262 201 200 200
224.267 -44.863 960.365 202 203 206
224.267 -44.363 960.491 202 205 212
224.267 -43.863 960.615 197 205 213
224.267 -43.363 960.676 190 202 214
224.267 -42.863 960.688 185 201 219
224.267 -42.363 960.761 186 205 225
224.267 -41.863 960.868 189 211 231
224.267 -41.363 960.984 187 213 234
224.267 -40.863 961.076 188 215 236
224.267 -40.363 961.155 187 215 237
224.267 -39.863 961.243 188 216 238
224.267 -39.363 961.269 188 216 238
224.267 -38.863 961.282 186 217 238
224.267 -38.363 961.272 186 217 237
224.267 -37.863 961.249 188 215 233
224.767 -46.863 960.048 202 201 200
224.767 -46.363 960.155 205 205 207
224.767 -45.863 960.271 205 207 212
224.767 -45.363 960.404 202 210 216
224.767 -44.863 960.529 200 212 219
224.767 -44.363 960.689 196 213 223
224.767 -43.863 960.786 189 209 225
224.767 -43.363 960.825 181 208 229
224.767 -42.863 960.887 181 209 231
224.767 -42.363 961.013 183 211 232
224.767 -41.863 961.096 184 212 233
224.767 -41.363 961.157 185 214 236
224.767 -40.863 961.239 186 215 237
224.767 -40.363 961.308 187 216 238
224.767 -39.863 961.382 187 216 238
224.767 -39.363 961.380 187 216 238
224.767 -38.863 961.362 187 216 238
224.767 -38.363 961.355 185 217 237
224.767 -37.863 961.331 186 216 237
225.267 -46.863 960.195 202 206 210
225.267 -46.363 960.335 203 210 218
225.267 -45.863 960.499 199 210 221
225.267 -45.363 960.612 193 209 221
225.267 -44.863 960.726 189 208 220
225.267 -44.363 960.859 188 209 224
225.267 -43.863 960.990 184 210 227
225.267 -43.363 961.072 181 211 232
225.267 -42.863 961.129 181 212 235
225.267 -42.363 961.203 181 212 233
225.267 -41.863 961.256 184 214 235
225.267 -41.363 961.290 184 216 237
225.267 -40.863 961.338 184 216 237
225.267 -40.363 961.436 184 216 237
225.267 -39.863 961.489 184 216 237
225.267 -39.363 961.487 184 216 237
225.267 -38.863 961.460 184 216 237
225.267 -38.363 961.450 181 216 236
225.267 -37.863 961.436 184 216 237
225.767 -46.863 960.383 200 211 222
225.767 -46.363 960.568 190 207 222
225.767 -45.863 960.701 186 207 222
225.767 -45.363 960.816 183 209 226
225.767 -44.863 960.893 184 210 228
225.767 -44.363 961.040 184 213 232
225.767 -43.863 961.164 183 214 234
225.767 -43.363 961.219 180 214 236
225.767 -42.863 961.238 179 214 236
225.767 -42.363 961.282 184 215 236
225.767 -41.863 961.338 184 216 237
225.767 -41.363 961.369 183 216 239
225.767 -40.863 961.427 183 217 239
225.767 -40.363 961.508 181 216 238
225.767 -39.863 961.549 181 216 238
225.767 -39.363 961.580 181 216 238
225.767 -38.863 961.570 181 216 238
225.767 -38.363 961.530 181 216 238
225.767 -37.863 961.496 184 216 239
226.267 -46.863 960.622 193 214 229
226.267 -46.363 960.817 185 211 229
226.267 -45.863 960.952 181 211 231
226.267 -45.363 961.063 181 212 233
226.267 -44.863 961.124 180 214 235
226.267 -44.363 961.223 180 214 235
226.267 -43.863 961.301 180 215 237
226.267 -43.363 961.350 179 214 239
226.267 -42.863 961.390 180 215 239
226.267 -42.363 961.489 183 217 239
226.267 -41.863 961.483 184 216 237
226.267 -41.363 961.500 181 216 238
226.267 -40.863 961.569 180 215 237
226.267 -40.363 961.605 180 215 237
226.267 -39.863 961.607 181 216 238
226.267 -39.363 961.632 180 215 237
226.267 -38.863 961.636 181 216 238
226.267 -38.363 961.602 181 217 239
226.267 -37.863 961.545 184 216 239
226.767 -46.863 960.846 186 213 232
226.767 -46.363 961.015 184 214 234
226.767 -45.863 961.153 183 214 235
226.767 -45.363 961.233 183 214 237
226.767 -44.863 961.346 184 215 237
226.767 -44.363 961.426 181 215 238
226.767 -43.863 961.472 181 215 238
226.767 -43.363 961.529 183 216 239
226.767 -42.863 961.582 181 215 238
226.767 -42.363 961.622 183 216 238
226.767 -41.863 961.607 184 216 239
226.767 -41.363 961.603 181 215 238
226.767 -40.863 961.640 181 215 237
226.767 -40.363 961.649 180 214 237
226.767 -39.863 961.628 180 214 237
226.767 -39.363 961.629 180 214 237
226.767 -38.863 961.646 180 215 237
226.767 -38.363 961.630 181 215 237
226.767 -37.863 961.581 184 215 238
227.267 -46.863 961.062 183 214 235
227.267 -46.363 961.194 184 215 236
227.267 -45.863 961.306 185 216 237
227.267 -45.363 961.361 187 216 237
227.267 -44.863 961.456 186 215 237
227.267 -44.363 961.534 184 215 239
227.267 -43.863 961.577 184 215 238
227.267 -43.363 961.624 184 214 238
227.267 -42.863 961.652 184 215 238
227.267 -42.363 961.641 184 215 239
227.267 -41.863 961.648 184 216 241
227.267 -41.363 961.645 184 215 239
227.267 -40.863 961.655 184 215 240
227.267 -40.363 961.653 184 215 239
227.267 -39.863 961.628 183 214 239
227.267 -39.363 961.624 183 214 238
227.267 -38.863 961.646 183 214 239
227.267 -38.363 961.656 184 215 236
227.267 -37.863 961.623 184 215 236
227.767 -46.863 961.227 183 214 236
227.767 -46.363 961.331 184 215 236
227.767 -45.863 961.399 185 216 237
227.767 -45.363 961.481 186 214 236
227.767 -44.863 961.548 185 212 234
227.767 -44.363 961.584 185 213 235
227.767 -43.863 961.618 187 215 237
227.767 -43.363 961.645 184 214 238
227.767 -42.863 961.659 184 216 239
227.767 -42.363 961.638 183 216 240
227.767 -41.863 961.654 183 216 240
227.767 -41.363 961.649 184 215 238
227.767 -40.863 961.666 185 215 238
227.767 -40.363 961.655 184 215 238
227.767 -39.863 961.624 184 216 238
227.767 -39.363 961.634 184 215 238
227.767 -38.863 961.650 181 216 237
227.767 -38.363 961.659 187 218 237
227.767 -37.863 961.640 187 215 235
228.267 -46.863 961.334 181 216 238
228.267 -46.363 961.401 183 215 236
228.267 -45.863 961.458 184 215 236
228.267 -45.363 961.532 170 198 220
228.267 -44.863 961.583 159 186 208
228.267 -44.363 961.609 184 211 233
228.267 -43.863 961.630 186 214 236
228.267 -43.363 961.639 185 216 237
228.267 -42.863 961.642 184 216 239
228.267 -42.363 961.637 183 216 239
228.267 -41.863 961.660 183 216 238
228.267 -41.363 961.659 185 216 237
228.267 -40.863 961.662 185 216 237
228.267 -40.363 961.640 185 216 237
228.267 -39.863 961.595 184 216 237
228.267 -39.363 961.620 184 216 235
228.267 -38.863 961.641 184 216 235
228.267 -38.363 961.651 189 217 236
228.267 -37.863 961.638 191 217 236
228.767 -46.863 961.379 181 216 238
228.767 -46.363 961.435 181 214 235
228.767 -45.863 961.486 184 215 236
228.767 -45.363 961.531 179 206 228
228.767 -44.863 961.579 171 198 220
228.767 -44.363 961.611 186 214 236
228.767 -43.863 961.617 187 215 237
228.767 -43.363 961.615 187 217 238
228.767 -42.863 961.615 185 216 238
228.767 -42.363 961.623 184 216 238
228.767 -41.863 961.640 184 215 238
228.767 -41.363 961.642 185 216 237
228.767 -40.863 961.624 186 216 238
228.767 -40.363 961.591 187 217 238
228.767 -39.863 961.570 187 216 237
228.767 -39.363 961.597 188 216 236
228.767 -38.863 961.618 188 217 234
228.767 -38.363 961.619 193 216 233
228.767 -37.863 961.563 197 217 234
229.267 -46.863 961.386 180 215 237
229.267 -46.363 961.435 181 215 237
229.267 -45.863 961.484 184 214 237
229.267 -45.363 961.526 184 214 236
229.267 -44.863 961.568 186 214 236
229.267 -44.363 961.594 187 215 236
229.267 -43.863 961.600 188 216 237
229.267 -43.363 961.591 188 216 238
229.267 -42.863 961.594 188 216 238
229.267 -42.363 961.608 187 216 237
229.267 -41.863 961.608 186 215 236
229.267 -41.363 961.600 187 216 237
229.267 -40.863 961.556 188 216 237
229.267 -40.363 961.532 190 216 237
229.267 -39.863 961.527 194 216 237
229.267 -39.363 961.488 195 217 235
229.267 -38.863 961.541 196 217 233
229.267 -38.363 961.422 199 214 230
229.267 -37.863 961.321 188 200 214
229.767 -46.863 961.374 179 215 238
229.767 -46.363 961.403 180 215 237
229.767 -45.863 961.455 184 215 238
229.767 -45.363 961.517 185 215 239
229.767 -44.863 961.560 187 215 236
229.767 -44.363 961.581 187 215 236
229.767 -43.863 961.584 188 216 237
229.767 -43.363 961.569 189 217 238
229.767 -42.863 961.562 190 217 236
229.767 -42.363 961.581 189 215 235
229.767 -41.863 961.524 189 214 234
229.767 -41.363 961.497 190 215 236
229.767 -40.863 961.478 193 215 235
229.767 -40.363 961.452 196 217 236
229.767 -39.863 961.445 198 216 233
229.767 -39.363 961.416 200 215 230
229.767 -38.863 961.382 190 203 216
229.767 -38.363 961.176 161 169 180
229.767 -37.863 960.998 135 138 147
230.267 -46.863 961.377 179 215 239
230.267 -46.363 961.392 180 215 238
230.267 -45.863 961.437 184 215 238
230.267 -45.363 961.505 185 215 239
230.267 -44.863 961.546 186 215 237
230.267 -44.363 961.568 187 216 236
230.267 -43.863 961.564 188 216 237
230.267 -43.363 961.548 190 217 236
230.267 -42.863 961.522 190 216 236
230.267 -42.363 961.500 191 216 236
230.267 -41.863 961.429 193 216 234
230.267 -41.363 961.397 193 215 235
230.267 -40.863 961.346 198 218 236
230.267 -40.363 961.321 197 213 230
230.267 -39.863 961.304 187 198 212
230.267 -39.363 961.306 159 168 179
230.267 -38.863 961.154 132 140 150
230.267 -38.363 960.958 127 129 135
230.267 -37.863 960.823 129 127 132
230.767 -46.863 961.388 179 215 238
230.767 -46.363 961.398 179 215 237
230.767 -45.863 961.444 183 214 237
230.767 -45.363 961.477 184 215 238
230.767 -44.863 961.506 185 216 236
230.767 -44.363 961.521 187 215 236
230.767 -43.863 961.520 189 217 237
230.767 -43.363 961.493 192 217 236
230.767 -42.863 961.463 194 216 234
230.767 -42.363 961.397 195 217 234
230.767 -41.863 961.346 196 216 233
230.767 -41.363 961.295 194 212 229
230.767 -40.863 961.165 183 197 213
230.767 -40.363 961.116 155 167 180
230.767 -39.863 961.009 132 139 149
230.767 -39.363 960.981 124 128 136
230.767 -38.863 960.855 125 126 132
230.767 -38.363 960.738 129 127 129
230.767 -37.863 960.711 143 136 136
231.267 -46.863 961.394 179 214 238
231.267 -46.363 961.400 179 214 237
231.267 -45.863 961.416 183 214 237
231.267 -45.363 961.439 184 215 238
231.267 -44.863 961.466 185 215 236
231.267 -44.363 961.474 189 214 235
231.267 -43.863 961.468 192 217 236
231.267 -43.363 961.403 195 216 233
231.267 -42.863 961.270 198 216 232
231.267 -42.363 961.169 194 211 226
231.267 -41.863 961.084 179 192 206
231.267 -41.363 961.043 157 166 181
231.267 -40.863 960.929 128 135 148
231.267 -40.363 960.851 119 122 132
231.267 -39.863 960.781 121 122 127
231.267 -39.363 960.725 126 123 124
231.267 -38.863 960.669 133 127 127
231.267 -38.363 960.586 145 135 133
231.267 -37.863 960.638 158 148 143
231.767 -46.863 961.392 177 214 239
231.767 -46.363 961.386 181 215 238
231.767 -45.863 961.385 184 214 238
231.767 -45.363 961.389 189 216 238
231.767 -44.863 961.401 191 217 237
231.767 -44.363 961.366 193 216 234
231.767 -43.863 961.324 198 218 234
231.767 -43.363 961.216 195 211 227
231.767 -42.863 961.104 179 191 205
231.767 -42.363 961.012 152 161 173
231.767 -41.863 960.882 129 135 148
231.767 -41.363 960.781 118 121 133
231.767 -40.863 960.727 117 119 127
231.767 -40.363 960.706 119 119 124
231.767 -39.863 960.691 124 121 123
231.767 -39.363 960.611 133 127 126
231.767 -38.863 960.603 142 133 131
232.267 -46.863 961.364 179 213 238
232.267 -46.363 961.340 184 215 238
232.267 -45.863 961.319 189 215 238
232.267 -45.363 961.250 193 217 238
232.267 -44.863 961.257 197 217 235
232.267 -44.363 961.267 192 209 224
232.267 -43.863 961.137 177 191 205
232.267 -43.363 960.912 157 166 177
232.267 -42.863 960.721 134 139 150
232.267 -42.363 960.610 123 124 133
232.267 -41.863 960.466 122 122 129
232.267 -41.363 960.465 122 121 124
232.267 -40.863 960.514 124 123 126
232.267 -40.363 960.528 124 121 122
232.267 -39.863 960.539 132 125 123
232.767 -46.863 961.240 181 212 233
232.767 -46.363 961.227 192 216 238
232.767 -45.863 961.173 195 215 234
232.767 -45.363 961.120 193 209 227
232.767 -44.863 961.015 176 189 205
232.767 -44.363 960.888 157 167 178
232.767 -43.863 960.671 135 143 153
232.767 -43.363 960.501 121 124 133
232.767 -42.863 960.443 124 124 129
232.767 -42.363 960.363 125 123 127
232.767 -41.863 960.324 133 128 130
232.767 -41.363 960.284 139 134 131
232.767 -40.863 960.307 141 135 132
233.267 -46.863 961.161 191 214 233
233.267 -46.363 961.088 191 209 225
233.267 -45.863 960.978 174 188 202
233.267 -45.363 960.817 153 163 176
233.267 -44.863 960.720 134 140 151
233.267 -44.363 960.495 126 130 139
233.267 -43.863 960.363 123 124 133
233.267 -43.363 960.296 127 126 132
233.267 -42.863 960.275 127 124 126
233.267 -42.363 960.178 135 131 129
233.767 -46.863 960.891 171 189 205
233.767 -46.363 960.713 148 162 175
233.767 -45.863 960.627 131 140 150
233.767 -45.363 960.470 124 130 138
233.767 -44.863 960.282 125 127 136
233.767 -44.363 960.090 125 124 132
233.767 -43.863 959.975 127 126 133
233.767 -43.363 959.945 128 126 128
234.267 -46.863 960.523 134 142 151
234.267 -46.363 960.348 126 128 136
234.267 -45.863 960.221 124 123 130
234.267 -45.363 960.011 126 125 130
234.267 -44.863 959.892 132 130 135
234.267 -44.363 959.775 133 128 133
234.267 -43.863 959.728 132 126 128
234.767 -46.863 960.217 121 124 132
234.767 -46.363 960.010 125 124 130
234.767 -45.863 959.858 128 125 129
234.767 -45.363 959.741 132 129 132
234.767 -44.863 959.598 133 129 132
235.267 -46.863 959.848 132 130 134
235.267 -46.363 959.727 130 126 128
235.267 -45.863 959.609 131 126 126
221.767 -37.363 961.177 183 183 183
221.767 -36.863 961.220 179 177 176
222.267 -37.363 961.073 171 179 185
222.267 -36.863 961.102 163 162 166
222.267 -36.363 961.100 166 161 165
222.267 -35.863 961.184 172 168 173
222.767 -37.363 961.028 179 190 204
222.767 -36.863 961.015 150 153 162
222.767 -36.363 961.013 141 138 144
222.767 -35.863 961.077 147 141 145
222.767 -35.363 961.090 171 166 172
223.267 -37.363 961.112 189 204 220
223.267 -36.863 961.032 149 155 167
223.267 -36.363 961.016 130 129 137
223.267 -35.863 961.010 133 128 135
223.267 -35.363 960.958 153 148 154
223.267 -34.863 960.965 179 177 183
223.767 -37.363 961.182 191 209 225
223.767 -36.863 961.100 168 176 189
223.767 -36.363 961.042 133 133 144
223.767 -35.863 960.981 131 129 137
223.767 -35.363 960.862 138 137 144
223.767 -34.863 960.796 156 155 161
223.767 -34.363 960.779 179 180 185
223.767 -33.863 960.764 179 180 186
224.267 -37.363 961.208 191 210 227
224.267 -36.863 961.149 186 198 213
224.267 -36.363 961.070 143 148 160
224.267 -35.863 960.911 127 129 139
224.267 -35.363 960.749 128 128 137
224.267 -34.863 960.673 136 137 142
224.267 -34.363 960.613 155 156 161
224.267 -33.863 960.553 174 174 178
224.267 -33.363 960.450 184 183 184
224.767 -37.363 961.265 191 216 236
224.767 -36.863 961.170 190 213 230
224.767 -36.363 961.106 156 175 189
224.767 -35.863 960.921 124 132 144
224.767 -35.363 960.746 121 120 132
224.767 -34.863 960.659 126 127 134
224.767 -34.363 960.538 143 143 148
224.767 -33.863 960.401 164 164 166
224.767 -33.363 960.281 179 179 176
224.767 -32.863 960.188 180 176 173
225.267 -37.363 961.361 189 215 238
225.267 -36.863 961.265 190 215 234
225.267 -36.363 961.144 183 202 218
225.267 -35.863 960.961 127 138 153
225.267 -35.363 960.800 113 117 130
225.267 -34.863 960.644 120 121 131
225.267 -34.363 960.499 131 130 137
225.267 -33.863 960.346 149 148 152
225.267 -33.363 960.243 167 164 164
225.767 -37.363 961.452 186 215 239
225.767 -36.863 961.372 188 216 238
225.767 -36.363 961.201 187 214 231
225.767 -35.863 961.028 150 167 183
225.767 -35.363 960.885 113 120 138
225.767 -34.863 960.669 115 117 129
225.767 -34.363 960.515 118 117 125
225.767 -33.863 960.389 132 129 135
225.767 -33.363 960.285 155 150 154
226.267 -37.363 961.497 186 216 240
226.267 -36.863 961.452 185 215 238
226.267 -36.363 961.267 188 216 236
226.267 -35.863 961.151 173 193 212
226.267 -35.363 960.881 122 133 151
226.267 -34.863 960.736 107 110 124
226.267 -34.363 960.583 111 110 121
226.267 -33.863 960.480 127 124 131
226.267 -33.363 960.370 147 142 146
226.767 -37.363 961.555 185 215 239
226.767 -36.863 961.499 184 216 238
226.767 -36.363 961.324 187 218 238
226.767 -35.863 961.214 186 210 230
226.767 -35.363 960.960 136 151 171
226.767 -34.863 960.801 101 107 120
226.767 -34.363 960.639 101 103 113
226.767 -33.863 960.557 134 130 137
226.767 -33.363 960.435 149 143 145
227.267 -37.363 961.608 186 215 238
227.267 -36.863 961.555 185 216 238
227.267 -36.363 961.375 187 219 239
227.267 -35.863 961.279 190 215 235
227.267 -35.363 961.107 176 192 212
227.267 -34.863 960.908 111 118 130
227.267 -34.363 960.671 106 107 117
227.267 -33.863 960.594 153 150 156
227.267 -33.363 960.495 148 142 144
227.767 -37.363 961.604 187 215 236
227.767 -36.863 961.556 191 218 238
227.767 -36.363 961.382 192 217 237
227.767 -35.863 961.246 198 216 234
227.767 -35.363 961.133 192 203 219
227.767 -34.863 960.943 134 137 151
227.767 -34.363 960.688 116 115 123
227.767 -33.863 960.602 123 118 120
228.267 -37.363 961.577 193 219 237
228.267 -36.863 961.428 196 219 235
228.267 -36.363 961.340 196 214 229
228.267 -35.863 961.201 185 199 212
228.267 -35.363 961.046 160 168 179
228.267 -34.863 960.878 131 131 141
228.267 -34.363 960.661 122 119 124
228.267 -33.863 960.607 135 126 127
228.767 -37.363 961.493 199 217 232
228.767 -36.863 961.301 189 204 217
228.767 -36.363 961.213 160 169 179
228.767 -35.863 961.073 135 140 148
228.767 -35.363 960.950 125 125 131
228.767 -34.863 960.778 130 128 131
228.767 -34.363 960.645 145 139 138
228.767 -33.863 960.613 162 153 149
229.267 -37.363 961.189 160 168 180
229.267 -36.863 961.125 137 141 150
229.267 -36.363 961.034 127 127 132
229.267 -35.863 960.913 131 127 129
229.267 -35.363 960.793 136 131 129
229.267 -34.863 960.739 150 143 139
229.267 -34.363 960.674 164 155 151
229.767 -37.363 960.902 128 127 133
229.767 -36.863 960.889 131 127 129
229.767 -36.363 960.817 141 135 132
229.767 -35.863 960.768 149 140 137
229.767 -35.363 960.708 158 149 143
229.767 -34.863 960.736 170 160 151
230.267 -37.363 960.735 133 128 128
230.267 -36.863 960.712 150 142 138
230.267 -36.363 960.697 162 151 146
230.267 -35.863 960.698 172 162 154
230.767 -37.363 960.649 154 144 142
230.767 -36.863 960.640 168 158 151
