280.267 3.137 997.077 227 214 200
280.767 1.637 993.515 226 217 202
280.767 2.137 994.668 231 221 206
280.767 2.637 995.621 230 217 204
280.767 3.137 996.857 230 215 201
280.767 3.637 998.068 218 206 190
281.267 1.637 993.418 225 216 201
281.267 2.137 994.374 227 218 204
281.267 2.637 995.218 227 215 201
281.267 3.137 996.303 227 214 199
281.267 3.637 997.653 219 207 191
281.767 1.637 993.257 227 219 205
281.767 2.137 994.127 228 219 205
281.767 2.637 994.945 227 215 201
281.767 3.137 995.964 226 213 199
281.767 3.637 997.280 219 207 191
282.267 1.637 993.071 228 219 205
282.267 2.137 993.931 224 215 200
282.267 2.637 994.822 225 216 201
282.267 3.137 995.846 225 214 199
282.267 3.637 997.104 220 208 192
282.767 1.637 992.865 227 218 204
282.767 2.137 993.812 224 215 200
282.767 2.637 994.695 224 215 200
282.767 3.137 995.563 224 214 198
282.767 3.637 996.654 223 211 195
282.767 4.137 997.868 215 203 187
283.267 1.637 992.761 225 216 201
283.267 2.137 993.697 224 215 200
283.267 2.637 994.537 222 213 198
283.267 3.137 995.407 222 212 196
283.267 3.637 996.403 226 214 198
283.267 4.137 997.519 217 205 189
283.767 1.637 992.568 221 212 197
283.767 2.137 993.431 222 213 198
283.767 2.637 994.411 220 211 196
283.767 3.137 995.318 219 210 195
283.767 3.637 996.146 223 214 199
283.767 4.137 997.012 222 210 196
284.267 1.637 992.383 219 210 195
284.267 2.137 993.149 220 211 196
284.267 2.637 994.034 219 210 195
284.267 3.137 994.983 219 210 195
284.267 3.637 995.870 225 216 201
284.267 4.137 996.784 225 216 201
284.267 4.637 997.863 224 212 198
284.767 1.637 992.342 215 206 191
284.767 2.137 993.055 223 214 199
284.767 2.637 993.870 222 213 198
284.767 3.137 994.791 217 208 193
284.767 3.637 995.619 223 214 199
284.767 4.137 996.534 227 218 204
284.767 4.637 997.713 226 217 202
285.267 1.637 992.384 204 193 177
285.267 2.137 993.054 225 214 200
285.267 2.637 993.842 226 215 201
285.267 3.137 994.589 219 210 195
285.267 3.637 995.381 222 213 198
285.267 4.137 996.380 228 219 205
285.267 4.637 997.592 231 219 205
285.767 1.637 992.464 201 189 173
285.767 2.137 993.097 217 205 191
285.767 2.637 993.810 221 209 195
285.767 3.137 994.496 218 209 194
285.767 3.637 995.293 220 211 196
285.767 4.137 996.245 227 218 204
285.767 4.637 997.363 233 220 206
286.267 1.637 992.698 203 191 175
286.267 2.137 993.221 206 194 180
286.267 2.637 993.807 214 202 188
286.267 3.137 994.414 216 207 192
286.267 3.637 995.185 219 210 195
286.267 4.137 996.140 227 218 204
286.267 4.637 997.125 232 219 205
286.767 1.637 993.028 200 188 172
286.767 2.137 993.387 196 184 171
286.767 2.637 993.837 206 194 180
286.767 3.137 994.385 210 201 186
286.767 3.637 995.085 219 210 195
286.767 4.137 995.849 230 220 205
286.767 4.637 996.898 230 217 204
287.267 1.637 993.161 201 189 173
287.267 2.137 993.534 194 183 168
287.267 2.637 993.929 202 190 176
287.267 3.137 994.332 202 193 178
287.267 3.637 994.894 210 201 186
287.267 4.137 995.581 231 221 206
287.267 4.637 996.682 233 221 207
287.767 1.637 993.382 212 200 184
287.767 2.137 993.680 209 197 183
287.767 2.637 993.974 207 195 181
287.767 3.137 994.360 202 193 178
287.767 3.637 994.906 203 194 179
287.767 4.137 995.705 230 220 205
287.767 4.637 996.799 233 220 206
288.267 1.637 993.490 210 198 182
288.267 2.137 993.716 218 206 190
288.267 2.637 994.021 202 190 175
288.267 3.137 994.325 197 188 173
288.267 3.637 994.839 199 190 175
288.267 4.137 995.641 224 215 200
288.267 4.637 996.744 231 218 205
288.767 1.637 993.557 206 193 176
288.767 2.137 993.760 210 197 180
288.767 2.637 994.043 202 189 172
288.767 3.137 994.402 202 189 174
288.767 3.637 994.980 203 191 177
288.767 4.137 995.710 221 209 195
288.767 4.637 996.736 228 216 202
289.267 1.637 993.544 206 193 177
289.267 2.137 993.741 202 190 174
289.267 2.637 994.024 202 191 173
289.267 3.137 994.394 204 192 175
289.267 3.637 994.916 208 196 180
289.267 4.137 995.645 220 208 194
289.267 4.637 996.871 227 215 201
289.767 1.637 993.512 198 186 171
289.767 2.137 993.710 197 185 170
289.767 2.637 993.918 200 188 172
289.767 3.137 994.311 205 193 177
289.767 3.637 994.916 210 198 182
289.767 4.137 995.670 218 206 192
289.767 4.637 997.112 220 211 196
290.267 1.637 993.377 190 179 162
290.267 2.137 993.613 196 184 171
290.267 2.637 993.890 194 183 168
290.267 3.137 994.273 198 186 171
290.267 3.637 994.833 206 197 180
290.267 4.137 995.602 213 204 189
290.267 4.637 997.193 219 209 197
290.767 1.637 993.316 196 184 171
290.767 2.137 993.511 192 180 166
290.767 2.637 993.782 190 180 166
290.767 3.137 994.182 192 184 170
290.767 3.637 994.721 198 189 174
290.767 4.137 995.463 209 200 185
290.767 4.637 996.998 217 207 195
291.267 1.637 993.260 197 185 171
291.267 2.137 993.439 190 179 165
291.267 2.637 993.725 187 177 165
291.267 3.137 994.093 193 184 171
291.267 3.637 994.574 196 186 176
291.267 4.137 995.311 207 197 187
291.267 4.637 996.847 215 206 195
291.767 1.637 993.199 189 177 165
291.767 2.137 993.374 184 172 160
291.767 2.637 993.668 184 172 160
291.767 3.137 993.987 193 183 171
291.767 3.637 994.474 196 186 176
291.767 4.137 995.216 206 198 185
291.767 4.637 996.495 211 203 190
292.267 1.637 993.157 174 162 150
292.267 2.137 993.368 176 164 152
292.267 2.637 993.663 181 169 157
292.267 3.137 993.949 193 181 171
292.267 3.637 994.409 197 187 177
292.267 4.137 995.180 206 198 185
292.267 4.637 996.313 209 201 188
292.767 1.637 993.131 161 149 137
292.767 2.137 993.359 159 147 135
292.767 2.637 993.645 180 168 156
292.767 3.137 993.944 186 175 164
292.767 3.637 994.265 192 183 172
292.767 4.137 994.993 205 195 183
292.767 4.637 996.219 210 201 188
292.767 5.137 997.984 214 206 193
293.267 1.637 993.119 160 148 136
293.267 2.137 993.359 157 145 133
293.267 2.637 993.634 172 160 148
293.267 3.137 993.949 179 167 155
293.267 3.637 994.307 186 176 164
293.267 4.137 994.924 201 191 179
293.267 4.637 995.981 208 199 184
293.267 5.137 997.613 214 206 191
293.767 1.637 993.141 166 153 141
293.767 2.137 993.351 168 156 144
293.767 2.637 993.634 174 162 150
293.767 3.137 993.999 177 164 154
293.767 3.637 994.433 187 175 163
293.767 4.137 994.932 200 191 176
293.767 4.637 995.776 203 194 179
293.767 5.137 997.251 211 202 187
294.267 1.637 993.130 184 171 159
294.267 2.137 993.306 190 179 166
294.267 2.637 993.608 184 172 160
294.267 3.137 993.970 187 175 163
294.267 3.637 994.438 193 181 170
294.267 4.137 994.950 201 189 175
294.267 4.637 995.660 199 190 175
294.267 5.137 996.919 211 202 187
294.767 1.637 993.139 179 167 154
294.767 2.137 993.321 198 187 175
294.767 2.637 993.594 199 187 175
294.767 3.137 993.957 204 192 180
294.767 3.637 994.437 207 195 183
294.767 4.137 994.974 208 196 182
294.767 4.637 995.650 205 196 181
294.767 5.137 996.732 210 201 186
295.267 1.637 993.167 193 183 171
295.267 2.137 993.358 202 192 180
295.267 2.637 993.635 205 195 183
295.267 3.137 994.038 212 202 190
295.267 3.637 994.532 216 204 192
295.267 4.137 995.103 212 200 188
295.267 4.637 995.777 215 203 191
295.267 5.137 996.771 218 206 192
295.267 5.637 998.005 226 214 200
295.767 1.637 993.178 195 185 173
295.767 2.137 993.370 202 192 180
295.767 2.637 993.704 207 197 185
295.767 3.137 994.105 207 197 185
295.767 3.637 994.598 210 200 188
295.767 4.137 995.209 211 201 189
295.767 4.637 995.913 215 205 193
295.767 5.137 996.848 221 211 198
295.767 5.637 997.935 219 210 195
296.267 1.637 993.172 201 191 179
296.267 2.137 993.373 208 198 186
296.267 2.637 993.743 212 202 192
296.267 3.137 994.182 209 200 190
296.267 3.637 994.698 208 198 188
296.267 4.137 995.317 210 200 188
296.267 4.637 995.966 216 206 194
296.267 5.137 996.867 218 208 196
296.267 5.637 997.909 218 209 194
296.767 1.637 993.215 205 195 183
296.767 2.137 993.394 204 196 185
296.767 2.637 993.794 212 204 193
296.767 3.137 994.264 210 201 191
296.767 3.637 994.795 209 199 189
296.767 4.137 995.468 208 198 188
296.767 4.637 996.093 211 201 190
296.767 5.137 996.893 213 203 191
296.767 5.637 997.916 219 209 197
297.267 1.637 993.223 200 192 181
297.267 2.137 993.435 204 196 185
297.267 2.637 993.824 204 196 185
297.267 3.137 994.247 205 197 186
297.267 3.637 994.863 204 196 185
297.267 4.137 995.611 208 200 189
297.267 4.637 996.236 211 202 192
297.267 5.137 996.968 213 205 193
297.267 5.637 997.839 226 218 205
297.767 1.637 993.177 196 188 177
297.767 2.137 993.477 198 190 179
297.767 2.637 993.874 206 198 187
297.767 3.137 994.215 204 195 186
297.767 3.637 994.846 203 195 185
297.767 4.137 995.684 211 203 192
297.767 4.637 996.323 214 206 195
297.767 5.137 996.999 215 207 196
297.767 5.637 997.832 227 219 206
298.267 1.637 993.088 196 186 176
298.267 2.137 993.481 199 189 179
298.267 2.637 993.889 210 202 191
298.267 3.137 994.224 209 200 191
298.267 3.637 994.888 205 195 185
298.267 4.137 995.689 211 201 191
298.267 4.637 996.307 217 207 197
298.267 5.137 997.048 217 207 196
298.267 5.637 997.862 228 218 206
298.767 1.637 993.017 198 188 178
298.767 2.137 993.441 200 190 180
298.767 2.637 993.877 207 199 188
298.767 3.137 994.236 207 198 187
298.767 3.637 994.906 207 197 187
298.767 4.137 995.637 208 198 188
298.767 4.637 996.254 216 206 196
298.767 5.137 997.052 216 206 195
298.767 5.637 997.902 230 219 207
299.267 1.637 992.882 204 194 183
299.267 2.137 993.285 204 194 184
299.267 2.637 993.746 211 203 192
299.267 3.137 994.166 205 196 185
299.267 3.637 994.789 202 192 182
299.267 4.137 995.501 207 197 187
299.267 4.637 996.189 213 203 192
299.267 5.137 996.885 220 210 198
299.267 5.637 997.810 225 215 204
299.767 1.637 992.710 198 188 176
299.767 2.137 993.079 203 193 181
299.767 2.637 993.563 211 203 192
299.767 3.137 994.082 205 196 185
299.767 3.637 994.629 202 192 182
299.767 4.137 995.342 211 201 189
299.767 4.637 996.130 213 203 191
299.767 5.137 996.811 222 212 200
299.767 5.637 997.745 222 213 199
300.267 1.637 992.566 206 196 184
300.267 2.137 992.969 210 200 188
300.267 2.637 993.501 207 199 186
300.267 3.137 994.073 211 202 190
300.267 3.637 994.611 209 199 187
300.267 4.137 995.257 213 203 191
300.267 4.637 995.974 212 202 190
300.267 5.137 996.806 223 214 200
300.267 5.637 997.776 223 214 199
300.767 1.637 992.390 214 204 192
300.767 2.137 992.844 218 208 196
300.767 2.637 993.458 213 205 192
300.767 3.137 994.081 213 204 191
300.767 3.637 994.624 211 201 189
300.767 4.137 995.160 213 203 191
300.767 4.637 995.789 213 203 191
300.767 5.137 996.769 222 213 198
300.767 5.637 997.714 228 219 205
234.767 19.637 987.936 193 184 171
234.767 20.137 988.759 195 185 173
235.267 19.137 988.052 196 186 176
235.267 19.637 988.910 190 180 171
235.267 20.137 989.615 188 179 168
235.767 18.637 988.324 199 189 179
235.767 19.137 989.232 195 185 175
235.767 19.637 989.768 187 177 167
235.767 20.137 990.360 183 172 163
236.267 18.137 988.259 201 191 181
236.267 18.637 989.223 195 185 175
236.267 19.137 989.757 192 183 172
236.267 19.637 990.383 185 175 166
236.267 20.137 990.979 180 170 161
236.767 17.637 988.041 207 194 185
236.767 18.137 988.824 196 184 174
236.767 18.637 989.699 191 179 170
236.767 19.137 990.319 192 180 171
236.767 19.637 991.119 177 168 158
236.767 20.137 991.460 168 156 150
237.267 17.637 988.490 212 201 191
237.267 18.137 989.487 197 186 177
237.267 18.637 990.291 191 179 170
237.267 19.137 991.142 183 170 162
237.267 19.637 991.485 153 142 138
237.267 20.137 992.000 150 139 134
237.767 17.137 988.296 217 207 195
237.767 17.637 989.387 220 210 200
237.767 18.137 990.135 193 184 173
237.767 18.637 991.133 185 175 166
237.767 19.137 991.468 161 150 145
237.767 19.637 991.992 142 131 127
237.767 20.137 992.410 153 142 138
238.267 16.637 988.279 203 193 181
238.267 17.137 989.310 208 198 187
238.267 17.637 990.091 216 206 196
238.267 18.137 990.817 195 185 176
238.267 18.637 991.464 174 164 155
238.267 19.137 991.938 156 145 138
238.267 19.637 992.422 157 146 142
238.267 20.137 992.747 145 136 131
238.767 16.137 988.349 204 194 182
238.767 16.637 989.326 197 187 175
238.767 17.137 990.112 202 192 181
238.767 17.637 990.743 207 197 187
238.767 18.137 991.490 197 188 179
238.767 18.637 991.947 170 161 152
238.767 19.137 992.434 147 138 132
238.767 19.637 992.739 149 141 136
238.767 20.137 993.038 156 147 143
239.267 15.637 988.229 210 197 187
239.267 16.137 989.313 203 193 181
239.267 16.637 990.149 196 186 174
239.267 17.137 990.869 197 188 178
239.267 17.637 991.553 188 179 171
239.267 18.137 992.140 187 179 170
239.267 18.637 992.516 168 161 153
239.267 19.137 992.836 158 151 144
239.267 19.637 993.113 161 153 150
239.267 20.137 993.318 167 158 155
239.767 15.637 988.910 197 184 175
239.767 16.137 990.106 199 187 175
239.767 16.637 990.908 195 185 175
239.767 17.137 991.725 197 187 178
239.767 17.637 992.320 183 173 164
239.767 18.137 992.835 167 159 151
239.767 18.637 993.062 161 154 146
239.767 19.137 993.365 168 161 155
239.767 19.637 993.663 169 164 160
239.767 20.137 993.940 159 154 150
240.267 15.137 988.867 203 190 181
240.267 15.637 989.945 201 188 179
240.267 16.137 990.890 201 188 179
240.267 16.637 991.685 199 189 179
240.267 17.137 992.459 191 181 172
240.267 17.637 992.941 163 154 145
240.267 18.137 993.179 146 139 132
240.267 18.637 993.383 155 148 142
240.267 19.137 993.667 154 149 144
240.267 19.637 993.963 155 150 146
240.267 20.137 994.335 157 152 148
240.767 14.637 988.638 214 202 190
240.767 15.137 989.755 199 187 175
240.767 15.637 990.730 198 186 174
240.767 16.137 991.662 203 190 181
240.767 16.637 992.320 197 185 176
240.767 17.137 992.962 170 160 152
240.767 17.637 993.224 152 143 138
240.767 18.137 993.472 143 135 132
240.767 18.637 993.702 146 138 136
240.767 19.137 993.979 155 147 144
240.767 19.637 994.375 156 148 145
240.767 20.137 994.549 156 148 145
241.267 14.137 988.656 206 196 184
241.267 14.637 989.534 206 195 184
241.267 15.137 990.502 197 184 174
241.267 15.637 991.397 200 187 177
241.267 16.137 992.255 196 185 176
241.267 16.637 992.911 192 183 173
241.267 17.137 993.357 156 146 139
241.267 17.637 993.629 148 139 133
241.267 18.137 993.809 134 126 123
241.267 18.637 994.092 152 144 142
241.267 19.137 994.461 155 147 145
241.267 19.637 994.743 147 139 136
241.267 20.137 994.987 157 149 146
241.767 13.637 988.612 205 195 183
241.767 14.137 989.617 198 188 178
241.767 14.637 990.518 189 179 170
241.767 15.137 991.372 197 185 176
241.767 15.637 992.160 196 184 174
241.767 16.137 992.833 185 175 167
241.767 16.637 993.362 171 162 155
241.767 17.137 993.788 160 151 145
241.767 17.637 994.014 141 134 128
241.767 18.137 994.330 143 135 132
241.767 18.637 994.665 154 146 143
241.767 19.137 994.874 148 140 137
241.767 19.637 995.108 143 135 132
241.767 20.137 995.358 148 140 137
242.267 13.137 988.726 208 196 184
242.267 13.637 989.647 203 193 181
242.267 14.137 990.837 199 189 179
242.267 14.637 991.472 197 187 177
242.267 15.137 992.166 192 183 173
242.267 15.637 992.787 184 173 164
242.267 16.137 993.466 161 152 145
242.267 16.637 993.884 159 150 143
242.267 17.137 994.138 164 156 150
242.267 17.637 994.392 143 135 132
242.267 18.137 994.679 148 140 137
242.267 18.637 994.892 151 143 140
242.267 19.137 995.146 147 139 137
242.267 19.637 995.396 145 137 135
242.267 20.137 995.585 159 151 149
242.767 12.637 988.809 204 194 182
242.767 13.137 989.919 202 190 178
242.767 13.637 990.919 200 187 178
242.767 14.137 991.695 194 184 174
242.767 14.637 992.376 190 180 171
242.767 15.137 992.825 181 171 162
242.767 15.637 993.409 160 150 141
242.767 16.137 994.004 148 141 135
242.767 16.637 994.350 157 150 144
242.767 17.137 994.532 164 157 152
242.767 17.637 994.780 163 155 152
242.767 18.137 994.976 151 143 140
242.767 18.637 995.187 149 141 138
242.767 19.137 995.493 149 141 139
242.767 19.637 995.660 143 135 133
242.767 20.137 995.869 151 143 141
243.267 11.637 987.965 205 195 183
243.267 12.137 989.013 203 193 181
243.267 12.637 990.047 201 191 179
243.267 13.137 990.970 196 184 172
243.267 13.637 991.773 197 184 175
243.267 14.137 992.584 191 179 170
243.267 14.637 993.111 176 167 157
243.267 15.137 993.523 162 152 145
243.267 15.637 993.900 150 140 134
243.267 16.137 994.337 149 142 136
243.267 16.637 994.625 155 147 143
243.267 17.137 994.867 168 159 156
243.267 17.637 995.084 170 162 159
243.267 18.137 995.392 155 147 144
243.267 18.637 995.629 151 143 140
243.267 19.137 995.816 150 142 139
243.267 19.637 995.988 154 146 144
243.267 20.137 996.237 158 150 148
243.767 11.137 988.345 205 192 183
243.767 11.637 989.173 205 193 181
243.767 12.137 990.407 193 181 170
243.767 12.637 991.195 195 184 171
243.767 13.137 991.873 191 177 168
243.767 13.637 992.600 194 181 172
243.767 14.137 993.067 188 179 170
243.767 14.637 993.580 164 153 147
243.767 15.137 994.045 159 150 144
243.767 15.637 994.352 147 138 133
243.767 16.137 994.636 149 141 138
243.767 16.637 994.939 159 151 148
243.767 17.137 995.151 157 149 146
243.767 17.637 995.402 170 162 159
243.767 18.137 995.823 158 150 147
243.767 18.637 996.019 151 143 140
243.767 19.137 996.217 152 144 141
243.767 19.637 996.285 155 147 144
243.767 20.137 996.526 168 160 157
244.267 11.137 989.352 203 190 181
244.267 11.637 990.411 198 185 176
244.267 12.137 991.244 194 181 172
244.267 12.637 991.864 187 174 165
244.267 13.137 992.603 198 185 176
244.267 13.637 993.131 189 176 168
244.267 14.137 993.474 174 164 155
244.267 14.637 993.946 156 145 139
244.267 15.137 994.339 156 147 141
244.267 15.637 994.629 148 141 135
244.267 16.137 995.010 146 138 135
244.267 16.637 995.185 156 148 145
244.267 17.137 995.502 156 148 145
244.267 17.637 995.761 168 159 156
244.267 18.137 996.229 172 164 161
244.267 18.637 996.374 157 149 146
244.267 19.137 996.559 151 143 140
244.267 19.637 996.653 159 151 148
244.267 20.137 996.841 161 153 150
244.767 11.137 990.393 193 180 171
244.767 11.637 991.147 198 185 176
244.767 12.137 991.851 190 177 168
244.767 12.637 992.557 184 170 161
244.767 13.137 993.146 184 171 163
244.767 13.637 993.601 190 180 171
244.767 14.137 993.963 167 155 149
244.767 14.637 994.348 159 150 143
244.767 15.137 994.615 153 144 138
244.767 15.637 994.930 158 151 145
244.767 16.137 995.293 148 140 137
244.767 16.637 995.485 151 143 140
244.767 17.137 995.750 150 142 139
244.767 17.637 996.110 148 140 137
244.767 18.137 996.455 152 144 141
244.767 18.637 996.693 155 147 144
244.767 19.137 996.933 156 148 145
244.767 19.637 997.062 160 152 149
244.767 20.137 997.258 159 151 148
245.267 11.137 991.024 188 177 168
245.267 11.637 991.787 190 179 171
245.267 12.137 992.628 181 170 161
245.267 12.637 993.182 156 145 136
245.267 13.137 993.644 158 147 140
245.267 13.637 993.954 163 153 146
245.267 14.137 994.283 157 148 141
245.267 14.637 994.576 154 145 138
245.267 15.137 994.825 160 151 146
245.267 15.637 995.134 152 143 138
245.267 16.137 995.462 144 137 132
245.267 16.637 995.711 144 137 132
245.267 17.137 996.102 152 145 140
245.267 17.637 996.483 148 141 136
245.267 18.137 996.761 184 176 171
245.267 18.637 996.974 161 153 148
245.267 19.137 997.173 158 150 146
245.267 19.637 997.343 151 143 140
245.267 20.137 997.585 152 144 141
245.767 11.137 991.749 189 179 170
245.767 11.637 992.632 183 172 163
245.767 12.137 993.305 170 159 153
245.767 12.637 993.702 153 142 136
245.767 13.137 994.036 154 145 138
245.767 13.637 994.324 156 147 140
245.767 14.137 994.533 158 149 142
245.767 14.637 994.760 166 156 151
245.767 15.137 995.067 162 153 148
245.767 15.637 995.413 159 150 145
245.767 16.137 995.677 156 149 143
245.767 16.637 996.050 156 149 143
245.767 17.137 996.410 149 142 136
245.767 17.637 996.659 158 151 145
245.767 18.137 996.924 184 177 171
245.767 18.637 997.216 164 157 151
245.767 19.137 997.454 145 138 133
245.767 19.637 997.662 151 143 140
245.767 20.137 997.844 142 134 131
246.267 11.137 992.460 188 179 170
246.267 11.637 993.267 179 168 160
246.267 12.137 993.705 158 147 141
246.267 12.637 994.067 147 136 130
246.267 13.137 994.407 152 143 138
246.267 13.637 994.567 159 150 145
246.267 14.137 994.833 156 147 142
246.267 14.637 995.068 155 146 141
246.267 15.137 995.409 162 153 148
246.267 15.637 995.681 179 170 165
246.267 16.137 995.971 163 156 150
246.267 16.637 996.295 169 162 156
246.267 17.137 996.550 149 142 136
246.267 17.637 996.800 157 150 144
246.267 18.137 997.077 161 154 148
246.267 18.637 997.478 156 149 143
246.267 19.137 997.743 153 145 140
246.267 19.637 997.948 151 143 140
246.767 11.137 993.039 184 173 164
246.767 11.637 993.668 162 152 145
246.767 12.137 994.073 155 144 139
246.767 12.637 994.409 150 141 136
246.767 13.137 994.691 155 148 142
246.767 13.637 994.892 153 145 140
246.767 14.137 995.096 153 144 139
246.767 14.637 995.461 152 143 139
246.767 15.137 995.690 160 151 146
246.767 15.637 995.939 168 159 154
246.767 16.137 996.240 160 152 147
246.767 16.637 996.600 157 150 145
246.767 17.137 996.798 144 137 131
246.767 17.637 997.064 152 145 140
246.767 18.137 997.383 159 152 146
246.767 18.637 997.731 155 148 142
246.767 19.137 998.020 152 145 141
247.267 11.137 993.662 161 151 143
247.267 11.637 994.111 162 153 148
247.267 12.137 994.430 153 143 141
247.267 12.637 994.671 153 145 142
247.267 13.137 994.949 151 144 138
247.267 13.637 995.210 148 140 137
247.267 14.137 995.395 156 148 145
247.267 14.637 995.740 150 142 139
247.267 15.137 995.955 152 144 141
247.267 15.637 996.202 147 139 137
247.267 16.137 996.598 146 138 135
247.267 16.637 996.868 152 144 141
247.267 17.137 997.099 158 150 147
247.267 17.637 997.337 153 145 142
247.267 18.137 997.696 152 144 141
247.267 18.637 997.947 153 145 142
247.767 11.137 994.159 151 140 134
247.767 11.637 994.507 163 154 148
247.767 12.137 994.765 159 149 147
247.767 12.637 994.967 159 151 148
247.767 13.137 995.224 159 152 146
247.767 13.637 995.508 152 144 141
247.767 14.137 995.649 154 146 143
247.767 14.637 996.063 153 145 142
247.767 15.137 996.283 140 132 129
247.767 15.637 996.573 126 119 116
247.767 16.137 996.866 136 128 125
247.767 16.637 997.102 144 136 133
247.767 17.137 997.362 144 136 133
247.767 17.637 997.557 157 149 146
247.767 18.137 997.915 159 151 148
248.267 11.137 994.542 148 138 132
248.267 11.637 994.830 154 145 140
248.267 12.137 995.058 161 151 149
248.267 12.637 995.311 151 141 139
248.267 13.137 995.532 153 146 140
248.267 13.637 995.742 150 142 139
248.267 14.137 995.915 155 147 144
248.267 14.637 996.379 155 147 144
248.267 15.137 996.662 139 131 128
248.267 15.637 996.888 146 138 136
248.267 16.137 997.054 152 144 141
248.267 16.637 997.361 132 124 121
248.267 17.137 997.550 141 133 130
248.267 17.637 997.748 168 160 157
248.767 11.137 994.880 150 141 135
248.767 11.637 995.204 148 139 134
248.767 12.137 995.356 162 152 150
248.767 12.637 995.581 163 153 151
248.767 13.137 995.808 157 150 144
248.767 13.637 996.063 162 154 151
248.767 14.137 996.251 154 146 143
248.767 14.637 996.636 149 141 138
248.767 15.137 996.910 151 143 140
248.767 15.637 997.106 150 142 140
248.767 16.137 997.320 154 146 143
248.767 16.637 997.573 151 143 140
248.767 17.137 997.767 155 147 144
248.767 17.637 998.071 147 139 136
249.267 11.137 995.249 149 140 135
249.267 11.637 995.492 153 144 139
249.267 12.137 995.646 157 147 145
249.267 12.637 995.817 161 151 149
249.267 13.137 996.120 153 146 140
249.267 13.637 996.420 155 147 144
249.267 14.137 996.683 148 140 137
249.267 14.637 996.914 145 137 134
249.267 15.137 997.179 148 140 137
249.267 15.637 997.436 149 141 139
249.267 16.137 997.671 144 136 133
249.267 16.637 997.806 144 136 133
249.767 11.137 995.494 156 147 142
249.767 11.637 995.653 149 140 135
249.767 12.137 995.845 164 154 152
249.767 12.637 996.117 162 152 150
249.767 13.137 996.381 148 141 135
249.767 13.637 996.677 153 146 142
249.767 14.137 996.921 145 137 134
249.767 14.637 997.175 138 130 127
249.767 15.137 997.493 146 138 136
249.767 15.637 997.751 149 141 139
249.767 16.137 997.936 143 135 132
250.267 11.137 995.708 161 152 147
250.267 11.637 995.865 163 154 149
250.267 12.137 996.138 163 154 149
250.267 12.637 996.397 155 146 141
250.267 13.137 996.608 158 151 145
250.267 13.637 996.887 161 154 148
250.267 14.137 997.131 149 141 138
250.267 14.637 997.432 146 138 135
250.267 15.137 997.745 155 147 144
250.267 15.637 997.952 150 142 139
250.767 11.137 995.938 143 134 129
250.767 11.637 996.160 163 154 150
250.767 12.137 996.439 162 153 148
250.767 12.637 996.678 157 148 144
250.767 13.137 996.880 172 166 159
250.767 13.637 997.116 160 153 147
250.767 14.137 997.469 155 147 144
250.767 14.637 997.693 152 144 141
250.767 15.137 997.976 152 144 141
251.267 11.137 996.199 142 134 131
251.267 11.637 996.419 145 136 134
251.267 12.137 996.657 146 137 134
251.267 12.637 996.934 162 154 151
251.267 13.137 997.201 154 147 141
251.267 13.637 997.472 141 134 128
251.267 14.137 997.866 162 154 151
251.267 14.637 998.065 172 164 161
251.767 11.137 996.467 146 138 135
251.767 11.637 996.712 130 122 119
251.767 12.137 996.929 125 118 114
251.767 12.637 997.216 149 141 138
251.767 13.137 997.496 150 143 137
251.767 13.637 997.770 149 142 136
251.767 14.137 998.068 163 155 152
252.267 11.137 996.734 148 140 137
252.267 11.637 996.948 133 125 122
252.267 12.137 997.179 127 119 116
252.267 12.637 997.463 149 141 138
252.267 13.137 997.740 152 145 139
252.267 13.637 998.003 154 147 141
252.767 11.137 996.936 154 146 144
252.767 11.637 997.113 143 136 134
252.767 12.137 997.393 148 140 138
252.767 12.637 997.727 160 153 150
252.767 13.137 997.947 149 142 136
253.267 11.137 997.201 150 143 140
253.267 11.637 997.429 152 145 142
253.267 12.137 997.695 156 149 146
253.267 12.637 997.945 148 141 138
253.767 11.137 997.487 150 142 139
253.767 11.637 997.757 152 144 141
253.767 12.137 997.991 158 150 147
254.267 11.137 997.733 143 135 132
254.267 11.637 997.919 152 144 141
254.767 11.137 998.023 150 142 139
229.767 30.137 987.966 132 126 126
230.267 26.637 987.982 138 130 127
230.267 27.137 988.053 132 125 123
230.267 27.637 988.080 157 151 150
230.267 28.137 988.082 155 149 149
230.267 28.637 988.226 128 122 122
230.267 29.137 988.307 131 127 128
230.267 29.637 988.355 130 126 127
230.267 30.137 988.427 132 128 129
230.767 25.637 988.115 150 142 139
230.767 26.137 988.395 148 140 137
230.767 26.637 988.474 139 132 129
230.767 27.137 988.528 138 131 130
230.767 27.637 988.563 135 129 129
230.767 28.137 988.602 134 128 130
230.767 28.637 988.673 138 133 134
230.767 29.137 988.739 135 131 132
230.767 29.637 988.770 141 136 137
230.767 30.137 988.821 135 130 131
231.267 24.637 988.239 164 155 148
231.267 25.137 988.556 161 152 147
231.267 25.637 988.771 149 141 139
231.267 26.137 988.939 138 130 128
231.267 26.637 989.027 141 136 133
231.267 27.137 989.098 143 138 136
231.267 27.637 989.131 136 130 130
231.267 28.137 989.164 136 132 131
231.267 28.637 989.255 140 136 135
231.267 29.137 989.250 135 129 129
231.267 29.637 989.232 135 129 129
231.267 30.137 989.252 135 129 129
231.767 23.637 988.080 173 163 156
231.767 24.137 988.579 163 154 147
231.767 24.637 988.891 156 147 142
231.767 25.137 989.100 161 152 147
231.767 25.637 989.302 147 139 137
231.767 26.137 989.445 140 132 130
231.767 26.637 989.487 161 156 153
231.767 27.137 989.492 154 149 147
231.767 27.637 989.505 134 128 128
231.767 28.137 989.639 134 130 129
231.767 28.637 989.787 136 132 131
231.767 29.137 989.843 135 129 129
231.767 29.637 989.815 133 127 127
231.767 30.137 989.707 135 129 129
232.267 22.637 987.994 184 173 164
232.267 23.137 988.525 174 166 156
232.267 23.637 988.894 163 154 147
232.267 24.137 989.124 151 142 137
232.267 24.637 989.377 153 144 139
232.267 25.137 989.547 159 151 148
232.267 25.637 989.706 144 136 134
232.267 26.137 989.860 143 135 133
232.267 26.637 989.987 157 152 149
232.267 27.137 990.198 143 137 136
232.267 27.637 990.292 128 122 122
232.267 28.137 990.331 131 127 126
232.267 28.637 990.366 135 131 130
232.267 29.137 990.270 135 129 129
232.267 29.637 990.137 140 134 134
232.267 30.137 990.144 147 141 141
232.767 22.137 988.331 185 175 165
232.767 22.637 988.836 180 171 164
232.767 23.137 989.194 173 164 158
232.767 23.637 989.523 156 147 142
232.767 24.137 989.748 150 141 137
232.767 24.637 990.019 148 140 137
232.767 25.137 990.122 153 145 142
232.767 25.637 990.234 154 146 144
232.767 26.137 990.374 153 145 143
232.767 26.637 990.509 138 133 130
232.767 27.137 990.570 136 131 129
232.767 27.637 990.594 130 124 124
232.767 28.137 990.695 128 124 123
232.767 28.637 990.816 128 124 123
232.767 29.137 990.816 135 129 129
232.767 29.637 990.756 143 137 137
232.767 30.137 990.694 142 136 136
233.267 21.637 988.521 192 183 172
233.267 22.137 989.043 183 172 163
233.267 22.637 989.365 175 167 160
233.267 23.137 989.647 163 154 148
233.267 23.637 989.947 151 143 139
233.267 24.137 990.298 150 142 139
233.267 24.637 990.489 150 142 140
233.267 25.137 990.664 163 155 153
233.267 25.637 990.860 147 139 137
233.267 26.137 990.904 152 144 142
233.267 26.637 990.936 143 138 135
233.267 27.137 990.958 144 139 137
233.267 27.637 991.039 136 130 130
233.267 28.137 991.132 135 131 130
233.267 28.637 991.157 148 144 143
233.267 29.137 991.170 139 133 133
233.267 29.637 991.118 137 131 131
233.267 30.137 991.063 133 127 127
233.767 21.137 988.604 190 180 171
233.767 21.637 989.240 186 176 166
233.767 22.137 989.911 179 169 159
233.767 22.637 990.264 161 153 147
233.767 23.137 990.424 159 151 145
233.767 23.637 990.682 161 153 149
233.767 24.137 990.917 148 140 138
233.767 24.637 991.100 150 142 140
233.767 25.137 991.246 147 140 139
233.767 25.637 991.336 147 139 137
233.767 26.137 991.371 150 142 140
233.767 26.637 991.401 144 139 136
233.767 27.137 991.414 144 139 137
233.767 27.637 991.479 144 138 138
233.767 28.137 991.563 143 139 138
233.767 28.637 991.584 158 154 153
233.767 29.137 991.618 139 133 133
233.767 29.637 991.635 135 129 129
233.767 30.137 991.573 135 129 129
234.267 20.637 988.651 192 184 173
234.267 21.137 989.400 187 179 170
234.267 21.637 989.966 176 168 158
234.267 22.137 990.428 161 152 144
234.267 22.637 990.740 158 153 149
234.267 23.137 991.096 158 152 149
234.267 23.637 991.398 147 142 138
234.267 24.137 991.452 144 139 135
234.267 24.637 991.489 148 143 139
234.267 25.137 991.571 146 141 137
234.267 25.637 991.747 145 140 136
234.267 26.137 991.815 147 142 139
234.267 26.637 991.876 148 143 140
234.267 27.137 991.954 140 135 132
234.267 27.637 992.001 146 140 140
234.267 28.137 992.006 148 142 142
234.267 28.637 991.992 149 143 143
234.267 29.137 991.999 135 129 129
234.267 29.637 992.001 131 125 125
234.267 30.137 992.014 138 132 132
234.767 20.637 989.456 184 175 164
234.767 21.137 990.042 187 179 170
234.767 21.637 990.518 164 155 146
234.767 22.137 990.986 158 149 142
234.767 22.637 991.231 151 146 142
234.767 23.137 991.622 150 145 141
234.767 23.637 991.866 144 139 135
234.767 24.137 991.934 142 137 133
234.767 24.637 991.971 150 145 141
234.767 25.137 992.027 150 145 141
234.767 25.637 992.133 145 140 136
234.767 26.137 992.133 149 144 141
234.767 26.637 992.103 150 145 142
234.767 27.137 992.170 138 133 130
234.767 27.637 992.328 147 141 140
234.767 28.137 992.430 148 142 142
234.767 28.637 992.462 139 133 133
234.767 29.137 992.487 145 139 139
234.767 29.637 992.492 127 121 121
234.767 30.137 992.470 142 136 136
235.267 20.637 990.318 190 181 172
235.267 21.137 990.811 183 173 165
235.267 21.637 991.209 159 150 143
235.267 22.137 991.517 156 147 140
235.267 22.637 991.768 159 154 150
235.267 23.137 992.034 150 145 141
235.267 23.637 992.233 149 144 140
235.267 24.137 992.382 145 140 136
235.267 24.637 992.496 152 147 143
235.267 25.137 992.545 159 154 150
235.267 25.637 992.579 158 153 149
235.267 26.137 992.658 147 142 139
235.267 26.637 992.718 150 145 142
235.267 27.137 992.767 142 137 134
235.267 27.637 992.834 141 135 135
235.267 28.137 992.872 147 141 141
235.267 28.637 992.935 144 138 138
235.267 29.137 992.973 144 138 138
235.267 29.637 992.991 137 131 131
235.267 30.137 992.958 136 130 130
235.767 20.637 990.968 184 174 165
235.767 21.137 991.386 179 169 162
235.767 21.637 991.670 157 148 143
235.767 22.137 991.816 155 146 141
235.767 22.637 992.083 155 150 146
235.767 23.137 992.309 155 150 146
235.767 23.637 992.623 155 150 146
235.767 24.137 992.757 149 144 140
235.767 24.637 992.970 151 146 142
235.767 25.137 993.019 161 156 152
235.767 25.637 993.037 161 156 152
235.767 26.137 993.128 152 147 144
235.767 26.637 993.157 147 142 139
235.767 27.137 993.173 149 144 141
235.767 27.637 993.182 144 138 138
235.767 28.137 993.239 138 132 132
235.767 28.637 993.326 151 145 145
235.767 29.137 993.336 148 143 140
235.767 29.637 993.381 135 130 127
235.767 30.137 993.445 135 130 127
236.267 20.637 991.456 166 156 149
236.267 21.137 991.846 168 159 152
236.267 21.637 992.061 161 152 147
236.267 22.137 992.302 161 152 150
236.267 22.637 992.600 157 151 147
236.267 23.137 992.755 151 146 142
236.267 23.637 993.002 155 150 146
236.267 24.137 993.124 161 156 152
236.267 24.637 993.346 152 147 143
236.267 25.137 993.461 142 137 133
236.267 25.637 993.487 149 144 140
236.267 26.137 993.491 144 139 136
236.267 26.637 993.532 145 140 137
236.267 27.137 993.611 146 141 138
236.267 27.637 993.655 141 135 135
236.267 28.137 993.715 140 134 134
236.267 28.637 993.789 146 140 140
236.267 29.137 993.806 148 143 140
236.267 29.637 993.776 137 132 129
236.267 30.137 993.768 133 128 125
236.767 20.637 991.943 162 153 146
236.767 21.137 992.253 170 161 156
236.767 21.637 992.576 166 155 153
236.767 22.137 992.818 161 151 149
236.767 22.637 993.055 163 157 153
236.767 23.137 993.255 154 149 145
236.767 23.637 993.478 142 137 133
236.767 24.137 993.564 153 148 144
236.767 24.637 993.710 158 153 149
236.767 25.137 993.887 146 141 137
236.767 25.637 994.010 146 141 137
236.767 26.137 994.012 147 142 139
236.767 26.637 993.991 144 139 136
236.767 27.137 994.017 147 142 139
236.767 27.637 994.078 146 140 140
236.767 28.137 994.147 146 140 140
236.767 28.637 994.230 146 140 140
236.767 29.137 994.320 149 144 141
236.767 29.637 994.286 143 138 135
236.767 30.137 994.258 139 134 131
237.267 20.637 992.288 179 169 163
237.267 21.137 992.611 190 181 177
237.267 21.637 992.956 187 179 176
237.267 22.137 993.148 168 160 157
237.267 22.637 993.380 159 152 149
237.267 23.137 993.589 160 153 150
237.267 23.637 993.893 149 142 139
237.267 24.137 994.003 153 146 143
237.267 24.637 994.164 155 148 146
237.267 25.137 994.335 151 144 141
237.267 25.637 994.456 170 166 161
237.267 26.137 994.499 156 151 148
237.267 26.637 994.521 143 138 135
237.267 27.137 994.539 143 138 135
237.267 27.637 994.549 143 138 136
237.267 28.137 994.561 142 137 135
237.267 28.637 994.605 140 134 132
237.267 29.137 994.682 140 135 132
237.267 29.637 994.730 145 140 137
237.267 30.137 994.734 144 139 136
237.767 20.637 992.740 163 154 149
237.767 21.137 992.988 159 151 148
237.767 21.637 993.210 160 155 151
237.767 22.137 993.486 155 150 146
237.767 22.637 993.663 161 153 150
237.767 23.137 993.977 166 157 154
237.767 23.637 994.072 169 161 158
237.767 24.137 994.288 152 144 142
237.767 24.637 994.502 152 144 142
237.767 25.137 994.686 156 148 146
237.767 25.637 994.845 152 146 144
237.767 26.137 994.947 147 142 139
237.767 26.637 994.981 140 135 132
237.767 27.137 994.984 141 136 133
237.767 27.637 994.988 138 133 130
237.767 28.137 995.029 137 132 129
237.767 28.637 995.096 144 139 136
237.767 29.137 995.090 144 139 136
237.767 29.637 995.052 140 135 132
237.767 30.137 995.046 147 142 139
238.267 20.637 993.092 158 149 144
238.267 21.137 993.292 148 140 137
238.267 21.637 993.610 150 145 141
238.267 22.137 993.943 145 140 136
238.267 22.637 994.166 149 141 138
238.267 23.137 994.443 154 146 143
238.267 23.637 994.484 179 170 167
238.267 24.137 994.608 162 154 152
238.267 24.637 994.908 148 140 138
238.267 25.137 995.115 150 142 140
238.267 25.637 995.250 146 141 138
238.267 26.137 995.320 142 137 134
238.267 26.637 995.427 138 133 130
238.267 27.137 995.542 152 147 144
238.267 27.637 995.582 153 148 145
238.267 28.137 995.514 145 140 137
238.267 28.637 995.463 142 137 134
238.267 29.137 995.528 151 146 143
238.267 29.637 995.509 144 139 136
238.267 30.137 995.510 143 138 135
238.767 20.637 993.284 168 159 156
238.767 21.137 993.721 156 148 145
238.767 21.637 994.013 147 139 136
238.767 22.137 994.211 150 145 142
238.767 22.637 994.516 155 147 144
238.767 23.137 994.744 158 150 147
238.767 23.637 994.830 163 155 152
238.767 24.137 994.989 146 138 136
238.767 24.637 995.192 146 138 136
238.767 25.137 995.374 150 142 140
238.767 25.637 995.481 144 138 135
238.767 26.137 995.574 142 137 134
238.767 26.637 995.736 147 142 139
238.767 27.137 995.920 150 145 142
238.767 27.637 995.998 159 154 151
238.767 28.137 996.048 146 141 138
238.767 28.637 996.047 138 133 130
238.767 29.137 996.037 135 130 127
238.767 29.637 996.012 134 129 126
238.767 30.137 995.964 132 127 124
239.267 20.637 993.661 152 144 141
239.267 21.137 994.072 154 146 144
239.267 21.637 994.327 160 152 150
239.267 22.137 994.546 154 147 145
239.267 22.637 994.816 158 150 147
239.267 23.137 995.027 167 158 155
239.267 23.637 995.172 166 157 154
239.267 24.137 995.354 153 145 143
239.267 24.637 995.578 146 138 136
239.267 25.137 995.682 143 135 133
239.267 25.637 995.821 145 140 136
239.267 26.137 995.996 151 146 142
239.267 26.637 996.188 171 167 162
239.267 27.137 996.290 166 160 156
239.267 27.637 996.314 142 137 134
239.267 28.137 996.324 144 139 135
239.267 28.637 996.335 146 141 137
239.267 29.137 996.373 147 142 139
239.267 29.637 996.406 135 130 127
239.267 30.137 996.461 141 136 133
239.767 20.637 994.222 161 153 150
239.767 21.137 994.469 159 151 149
239.767 21.637 994.632 168 159 157
239.767 22.137 994.893 168 160 158
239.767 22.637 995.122 160 152 149
239.767 23.137 995.419 154 146 143
239.767 23.637 995.532 157 149 146
239.767 24.137 995.718 152 144 142
239.767 24.637 995.988 152 144 142
239.767 25.137 996.101 138 130 128
239.767 25.637 996.249 144 138 134
239.767 26.137 996.437 152 147 143
239.767 26.637 996.548 177 172 168
239.767 27.137 996.642 175 170 166
239.767 27.637 996.663 138 133 129
239.767 28.137 996.613 142 137 133
239.767 28.637 996.547 151 146 142
239.767 29.137 996.630 144 139 136
239.767 29.637 996.754 137 132 129
239.767 30.137 996.839 139 134 131
240.267 20.637 994.602 145 140 137
240.267 21.137 994.881 152 146 144
240.267 21.637 995.110 164 156 154
240.267 22.137 995.306 172 164 162
240.267 22.637 995.517 166 157 154
240.267 23.137 995.749 154 146 143
240.267 23.637 995.899 171 163 160
240.267 24.137 996.106 163 155 153
240.267 24.637 996.338 147 139 137
240.267 25.137 996.499 139 131 129
240.267 25.637 996.629 145 140 136
240.267 26.137 996.789 159 154 150
240.267 26.637 996.912 146 141 137
240.267 27.137 996.977 149 144 140
240.267 27.637 997.031 151 146 142
240.267 28.137 997.018 150 145 141
240.267 28.637 996.996 136 131 127
240.267 29.137 997.042 138 133 130
240.267 29.637 997.136 144 139 136
240.267 30.137 997.248 144 139 136
240.767 20.637 994.895 146 138 135
240.767 21.137 995.114 148 140 137
240.767 21.637 995.364 160 152 149
240.767 22.137 995.564 167 158 155
240.767 22.637 995.784 153 145 143
240.767 23.137 995.992 154 146 144
240.767 23.637 996.210 180 172 171
240.767 24.137 996.482 151 146 143
240.767 24.637 996.692 141 136 133
240.767 25.137 996.841 148 143 140
240.767 25.637 996.942 155 147 144
240.767 26.137 997.102 180 172 170
240.767 26.637 997.183 148 140 137
240.767 27.137 997.258 144 137 134
240.767 27.637 997.336 145 140 137
240.767 28.137 997.364 145 140 137
240.767 28.637 997.422 137 132 129
240.767 29.137 997.483 142 138 136
240.767 29.637 997.514 147 142 139
240.767 30.137 997.572 143 138 134
241.267 20.637 995.166 151 143 140
241.267 21.137 995.391 154 146 143
241.267 21.637 995.601 163 155 152
241.267 22.137 995.886 151 143 140
241.267 22.637 996.055 146 138 136
241.267 23.137 996.248 148 140 138
241.267 23.637 996.496 158 150 148
241.267 24.137 996.729 162 157 154
241.267 24.637 996.944 151 146 143
241.267 25.137 997.075 145 140 137
241.267 25.637 997.251 151 143 140
241.267 26.137 997.452 150 142 139
241.267 26.637 997.515 150 142 139
241.267 27.137 997.573 149 144 140
241.267 27.637 997.630 143 138 135
241.267 28.137 997.651 139 134 131
241.267 28.637 997.752 145 140 137
241.267 29.137 997.909 145 140 137
241.267 29.637 997.974 143 138 135
241.267 30.137 998.056 132 125 122
241.767 20.637 995.574 156 148 145
241.767 21.137 995.798 164 156 153
241.767 21.637 995.956 166 157 154
241.767 22.137 996.150 159 151 148
241.767 22.637 996.354 156 148 146
241.767 23.137 996.630 146 138 136
241.767 23.637 996.787 151 143 141
241.767 24.137 997.058 154 149 146
241.767 24.637 997.275 147 142 139
241.767 25.137 997.544 145 140 137
241.767 25.637 997.739 148 140 137
241.767 26.137 997.926 146 138 135
241.767 26.637 997.969 148 143 139
241.767 27.137 998.062 147 142 138
242.267 20.637 995.830 168 159 157
242.267 21.137 996.066 162 154 152
242.267 21.637 996.206 161 153 151
242.267 22.137 996.431 155 147 145
242.267 22.637 996.613 161 153 151
242.267 23.137 996.915 154 146 144
242.267 23.637 997.137 156 148 146
242.267 24.137 997.403 156 151 148
242.267 24.637 997.626 149 144 141
242.267 25.137 997.869 148 143 140
242.267 25.637 998.031 145 140 137
242.767 20.637 996.124 156 148 146
242.767 21.137 996.281 154 146 144
242.767 21.637 996.510 158 150 148
242.767 22.137 996.689 154 146 144
242.767 22.637 996.868 163 155 153
242.767 23.137 997.131 152 144 142
242.767 23.637 997.407 152 144 142
242.767 24.137 997.647 160 155 152
242.767 24.637 997.913 151 146 143
243.267 20.637 996.428 149 141 139
243.267 21.137 996.642 150 142 140
243.267 21.637 996.895 153 145 143
243.267 22.137 997.084 153 145 143
243.267 22.637 997.232 156 148 146
243.267 23.137 997.501 154 146 144
243.267 23.637 997.669 153 145 143
243.267 24.137 997.960 154 149 146
243.767 20.637 996.762 155 147 144
243.767 21.137 997.007 145 137 134
243.767 21.637 997.271 147 139 136
243.767 22.137 997.487 152 144 142
243.767 22.637 997.661 150 144 144
243.767 23.137 997.836 151 145 144
243.767 23.637 998.005 145 140 137
244.267 20.637 997.105 153 145 142
244.267 21.137 997.294 156 148 145
244.267 21.637 997.497 150 142 139
244.267 22.137 997.685 150 142 139
244.267 22.637 997.873 148 142 142
244.767 20.637 997.534 156 148 145
244.767 21.137 997.633 156 148 145
244.767 21.637 997.752 151 143 140
244.767 22.137 997.982 149 141 138
245.267 20.637 997.802 153 145 142
245.267 21.137 997.951 153 145 142
245.767 20.637 998.065 148 140 137
255.767 10.637 998.211 161 153 150
256.267 10.137 998.122 159 151 148
256.267 10.637 998.408 153 145 142
256.767 10.137 998.344 160 152 149
256.767 10.637 998.633 150 142 139
257.267 9.637 998.270 155 147 144
257.267 10.137 998.543 163 155 152
257.267 10.637 998.838 153 145 142
257.767 9.137 998.269 150 142 140
257.767 9.637 998.540 150 142 139
257.767 10.137 998.825 148 140 137
257.767 10.637 999.141 146 138 135
258.267 8.637 998.271 157 149 146
258.267 9.137 998.538 156 148 145
258.267 9.637 998.795 145 137 134
258.267 10.137 999.124 143 135 132
258.267 10.637 999.378 146 138 135
258.767 8.137 998.287 158 150 147
258.767 8.637 998.543 158 150 147
258.767 9.137 998.785 161 153 150
258.767 9.637 999.054 150 142 139
258.767 10.137 999.325 151 143 140
258.767 10.637 999.568 154 146 143
259.267 7.637 998.362 163 155 152
259.267 8.137 998.593 157 149 146
259.267 8.637 998.798 158 150 147
259.267 9.137 999.075 157 149 146
259.267 9.637 999.326 148 140 137
259.267 10.137 999.663 153 145 142
259.267 10.637 999.912 159 151 148
259.767 7.137 998.188 157 149 146
259.767 7.637 998.597 161 153 150
259.767 8.137 998.867 163 155 152
259.767 8.637 999.122 168 159 156
259.767 9.137 999.362 155 147 144
259.767 9.637 999.656 143 135 132
259.767 10.137 1000.007 158 150 147
259.767 10.637 1000.346 163 155 152
260.267 6.637 998.104 147 139 136
260.267 7.137 998.465 157 149 146
260.267 7.637 998.818 159 151 148
260.267 8.137 999.119 161 153 150
260.267 8.637 999.365 162 154 151
260.267 9.137 999.629 155 147 144
260.267 9.637 999.865 161 153 150
260.267 10.137 1000.290 176 168 165
260.267 10.637 1000.657 175 168 164
260.767 6.637 998.310 151 143 140
260.767 7.137 998.677 161 153 150
260.767 7.637 999.034 158 150 147
260.767 8.137 999.326 163 155 152
260.767 8.637 999.616 156 148 145
260.767 9.137 999.876 157 149 146
260.767 9.637 1000.214 163 155 152
260.767 10.137 1000.555 162 154 151
260.767 10.637 1000.871 161 153 150
261.267 6.637 998.447 144 136 133
261.267 7.137 998.820 153 145 142
261.267 7.637 999.142 144 136 133
261.267 8.137 999.551 160 152 149
261.267 8.637 999.842 161 153 150
261.267 9.137 1000.139 154 146 143
261.267 9.637 1000.400 156 148 145
261.267 10.137 1000.783 162 154 151
261.267 10.637 1001.083 163 155 152
261.767 6.137 998.266 144 136 133
261.767 6.637 998.684 152 144 141
261.767 7.137 998.976 154 146 143
261.767 7.637 999.356 157 149 146
261.767 8.137 999.745 169 161 158
261.767 8.637 1000.089 164 156 153
261.767 9.137 1000.333 159 151 148
261.767 9.637 1000.706 156 148 145
261.767 10.137 1001.037 153 145 142
261.767 10.637 1001.284 152 144 141
262.267 6.137 998.357 153 145 143
262.267 6.637 998.789 149 141 138
262.267 7.137 999.233 158 150 147
262.267 7.637 999.656 162 154 151
262.267 8.137 1000.011 168 160 157
262.267 8.637 1000.274 181 173 171
262.267 9.137 1000.536 180 172 170
262.267 9.637 1000.988 154 146 143
262.267 10.137 1001.309 147 139 136
262.267 10.637 1001.605 150 142 139
262.767 5.637 998.228 147 140 137
262.767 6.137 998.692 142 134 132
262.767 6.637 999.165 149 141 138
262.767 7.137 999.508 158 150 147
262.767 7.637 999.899 149 141 138
262.767 8.137 1000.221 156 148 145
262.767 8.637 1000.537 179 171 168
262.767 9.137 1000.854 179 170 167
262.767 9.637 1001.205 152 144 141
262.767 10.137 1001.563 149 141 138
262.767 10.637 1001.864 150 142 139
263.267 5.137 998.102 162 157 153
263.267 5.637 998.467 147 142 138
263.267 6.137 998.866 140 134 131
263.267 6.637 999.334 150 140 138
263.267 7.137 999.758 156 146 144
263.267 7.637 1000.107 155 147 144
263.267 8.137 1000.476 148 140 137
263.267 8.637 1000.780 151 143 140
263.267 9.137 1001.154 154 147 144
263.267 9.637 1001.406 169 162 158
263.267 10.137 1001.679 156 148 145
263.267 10.637 1001.970 168 159 156
263.767 5.137 998.292 161 156 152
263.767 5.637 998.623 141 136 132
263.767 6.137 999.065 155 149 145
263.767 6.637 999.511 171 161 159
263.767 7.137 999.942 164 154 152
263.767 7.637 1000.318 153 145 142
263.767 8.137 1000.688 143 135 132
263.767 8.637 1001.034 144 136 133
263.767 9.137 1001.283 148 141 138
263.767 9.637 1001.531 153 145 142
263.767 10.137 1001.812 151 143 140
263.767 10.637 1002.152 157 149 146
264.267 5.137 998.415 155 147 144
264.267 5.637 998.857 148 140 137
264.267 6.137 999.206 156 148 145
264.267 6.637 999.617 177 168 165
264.267 7.137 1000.058 179 168 166
264.267 7.637 1000.485 171 163 160
264.267 8.137 1000.805 146 138 135
264.267 8.637 1001.164 146 138 135
264.267 9.137 1001.500 148 141 138
264.267 9.637 1001.777 132 125 119
264.267 10.137 1002.088 154 147 141
264.267 10.637 1002.380 167 159 153
264.767 4.637 998.132 151 143 140
264.767 5.137 998.557 163 155 152
264.767 5.637 998.998 159 151 148
264.767 6.137 999.339 151 143 140
264.767 6.637 999.788 163 154 149
264.767 7.137 1000.263 170 161 156
264.767 7.637 1000.699 172 164 158
264.767 8.137 1000.946 144 137 131
264.767 8.637 1001.272 151 144 138
264.767 9.137 1001.659 157 150 144
264.767 9.637 1002.018 148 141 135
264.767 10.137 1002.293 167 159 153
264.767 10.637 1002.591 167 159 153
265.267 4.637 998.382 153 145 142
265.267 5.137 998.782 166 157 154
265.267 5.637 999.154 162 154 151
265.267 6.137 999.583 153 145 142
265.267 6.637 1000.069 157 148 143
265.267 7.137 1000.525 160 151 146
265.267 7.637 1000.832 160 153 147
265.267 8.137 1001.156 155 148 142
265.267 8.637 1001.582 161 154 148
265.267 9.137 1001.926 161 154 148
265.267 9.637 1002.181 163 156 150
265.267 10.137 1002.525 168 160 154
265.267 10.637 1002.815 168 161 155
265.767 4.137 998.345 145 137 134
265.767 4.637 998.733 147 139 136
265.767 5.137 999.133 160 152 149
265.767 5.637 999.404 160 152 149
265.767 6.137 999.760 152 144 141
