261.267 -65.863 969.112 147 137 134
261.267 -65.363 969.141 139 129 126
261.267 -64.863 969.160 136 127 124
261.267 -64.363 969.365 132 123 120
261.267 -63.863 969.472 137 126 122
261.267 -63.363 969.609 155 144 140
261.267 -62.863 969.945 171 160 153
261.267 -62.363 970.042 160 150 141
261.267 -61.863 970.398 152 142 133
261.267 -61.363 970.606 148 138 130
261.267 -60.863 971.001 151 139 132
261.267 -60.363 971.237 172 159 150
261.267 -59.863 971.660 188 175 166
261.267 -59.363 972.009 197 184 175
261.267 -58.863 972.298 198 185 175
261.267 -58.363 972.480 199 187 175
261.267 -57.863 972.602 195 184 172
261.267 -57.363 972.717 175 162 154
261.767 -66.363 969.294 155 145 143
261.767 -65.863 969.405 137 127 125
261.767 -65.363 969.444 131 121 119
261.767 -64.863 969.456 131 121 119
261.767 -64.363 969.545 130 120 118
261.767 -63.863 969.625 157 146 142
261.767 -63.363 969.950 166 154 148
261.767 -62.863 970.181 168 157 148
261.767 -62.363 970.419 173 163 153
261.767 -61.863 970.600 172 162 153
261.767 -61.363 970.967 169 159 150
261.767 -60.863 971.221 159 148 140
261.767 -60.363 971.588 166 152 143
261.767 -59.863 971.994 181 168 159
261.767 -59.363 972.297 203 190 181
261.767 -58.863 972.463 200 187 177
261.767 -58.363 972.641 203 191 179
261.767 -57.863 972.822 187 175 163
261.767 -57.363 972.950 173 160 151
262.267 -66.363 969.578 146 136 134
262.267 -65.863 969.616 132 122 120
262.267 -65.363 969.647 129 119 117
262.267 -64.863 969.703 129 119 117
262.267 -64.363 969.718 132 122 120
262.267 -63.863 969.969 154 143 139
262.267 -63.363 970.182 167 155 149
262.267 -62.863 970.377 168 158 148
262.267 -62.363 970.571 176 167 156
262.267 -61.863 970.976 179 168 158
262.267 -61.363 971.210 176 167 157
262.267 -60.863 971.538 158 147 138
262.267 -60.363 971.892 159 146 138
262.267 -59.863 972.197 188 175 167
262.267 -59.363 972.488 189 176 168
262.267 -58.863 972.841 202 189 180
262.267 -58.363 973.023 206 193 184
262.267 -57.863 973.165 180 168 158
262.267 -57.363 973.499 172 159 150
262.767 -66.363 969.805 134 124 123
262.767 -65.863 969.898 131 121 119
262.767 -65.363 969.932 131 121 119
262.767 -64.863 969.981 131 121 119
262.767 -64.363 970.024 134 124 121
262.767 -63.863 970.248 156 145 140
262.767 -63.363 970.384 163 152 146
262.767 -62.863 970.551 172 162 153
262.767 -62.363 970.765 173 163 154
262.767 -61.863 971.238 170 160 150
262.767 -61.363 971.467 168 158 149
262.767 -60.863 971.724 156 145 136
262.767 -60.363 972.094 160 147 139
262.767 -59.863 972.439 174 161 153
262.767 -59.363 972.834 184 171 162
262.767 -58.863 973.032 206 193 184
262.767 -58.363 973.283 195 183 173
262.767 -57.863 973.516 169 156 147
262.767 -57.363 973.738 173 160 151
263.267 -66.363 969.954 128 119 117
263.267 -65.863 969.993 121 111 110
263.267 -65.363 970.030 128 119 117
263.267 -64.863 970.103 137 128 125
263.267 -64.363 970.130 147 138 133
263.267 -63.863 970.367 159 148 141
263.267 -63.363 970.546 159 149 140
263.267 -62.863 970.668 172 162 153
263.267 -62.363 971.014 171 161 152
263.267 -61.863 971.350 161 151 142
263.267 -61.363 971.582 158 148 139
263.267 -60.863 972.020 157 146 137
263.267 -60.363 972.389 161 148 140
263.267 -59.863 972.628 179 166 156
263.267 -59.363 972.995 200 187 178
263.267 -58.863 973.212 207 197 187
263.267 -58.363 973.508 179 168 156
263.267 -57.863 973.735 168 158 146
263.267 -57.363 973.955 160 147 138
263.767 -66.363 970.123 122 112 111
263.767 -65.863 970.168 121 111 110
263.767 -65.363 970.287 120 110 109
263.767 -64.863 970.340 137 127 124
263.767 -64.363 970.406 152 143 138
263.767 -63.863 970.581 154 143 137
263.767 -63.363 970.704 151 140 134
263.767 -62.863 970.965 158 147 141
263.767 -62.363 971.251 154 143 137
263.767 -61.863 971.487 145 134 128
263.767 -61.363 971.919 157 146 140
263.767 -60.863 972.344 174 162 155
263.767 -60.363 972.516 175 162 154
263.767 -59.863 972.915 191 179 171
263.767 -59.363 973.175 196 186 176
263.767 -58.863 973.500 197 187 177
263.767 -58.363 973.718 183 172 162
263.767 -57.863 973.930 171 161 151
263.767 -57.363 974.197 149 136 127
264.267 -66.363 970.309 130 120 119
264.267 -65.863 970.436 124 115 113
264.267 -65.363 970.515 126 117 116
264.267 -64.863 970.596 144 135 132
264.267 -64.363 970.651 158 149 144
264.267 -63.863 970.860 148 137 131
264.267 -63.363 971.052 141 130 124
264.267 -62.863 971.134 145 134 128
264.267 -62.363 971.451 145 134 128
264.267 -61.863 971.681 142 131 125
264.267 -61.363 971.946 159 148 142
264.267 -60.863 972.392 169 158 151
264.267 -60.363 972.617 168 154 146
264.267 -59.863 972.994 176 167 157
264.267 -59.363 973.305 190 180 171
264.267 -58.863 973.554 196 186 176
264.267 -58.363 973.825 189 179 170
264.267 -57.863 974.128 172 162 152
264.267 -57.363 974.425 151 138 129
264.767 -66.363 970.499 144 134 132
264.767 -65.863 970.570 138 128 127
264.767 -65.363 970.606 135 125 124
264.767 -64.863 970.680 146 137 133
264.767 -64.363 970.877 148 139 134
264.767 -63.863 970.958 138 129 124
264.767 -63.363 971.228 134 125 120
264.767 -62.863 971.472 139 130 125
264.767 -62.363 971.610 140 131 126
264.767 -61.863 971.886 141 132 127
264.767 -61.363 972.037 154 145 140
264.767 -60.863 972.475 160 150 145
264.767 -60.363 972.864 155 145 136
264.767 -59.863 973.069 153 143 134
264.767 -59.363 973.418 171 161 152
264.767 -58.863 973.724 199 188 179
264.767 -58.363 974.067 181 168 159
264.767 -57.863 974.405 169 156 147
264.767 -57.363 974.528 156 143 134
265.267 -66.363 970.762 139 129 128
265.267 -65.863 970.815 138 128 127
265.267 -65.363 970.832 139 129 128
265.267 -64.863 970.969 136 126 123
265.267 -64.363 971.053 136 127 122
265.267 -63.863 971.124 138 128 125
265.267 -63.363 971.370 138 129 126
265.267 -62.863 971.641 139 129 126
265.267 -62.363 971.786 142 132 129
265.267 -61.863 971.948 141 131 128
265.267 -61.363 972.328 149 139 136
265.267 -60.863 972.732 155 145 139
265.267 -60.363 972.911 155 144 138
265.267 -59.863 973.170 150 139 132
265.267 -59.363 973.504 164 154 145
265.267 -58.863 973.818 184 170 162
265.267 -58.363 974.122 171 158 150
265.267 -57.863 974.446 189 176 167
265.267 -57.363 974.688 179 167 157
265.767 -66.363 970.956 142 132 131
265.767 -65.863 971.012 136 126 125
265.767 -65.363 971.038 139 129 128
265.767 -64.863 971.123 137 128 125
265.767 -64.363 971.277 129 120 116
265.767 -63.863 971.392 133 123 121
265.767 -63.363 971.586 140 130 128
265.767 -62.863 971.783 143 133 131
265.767 -62.363 971.952 145 135 133
265.767 -61.863 972.054 142 132 130
265.767 -61.363 972.422 142 132 130
265.767 -60.863 972.788 148 138 134
265.767 -60.363 972.986 154 143 137
265.767 -59.863 973.396 155 144 138
265.767 -59.363 973.738 156 146 137
265.767 -58.863 973.988 162 149 141
265.767 -58.363 974.227 168 154 146
265.767 -57.863 974.518 183 169 161
265.767 -57.363 974.861 167 153 144
266.267 -66.363 971.101 142 135 131
266.267 -65.863 971.194 140 132 129
266.267 -65.363 971.294 150 140 138
266.267 -64.863 971.425 152 141 138
266.267 -64.363 971.582 138 127 123
266.267 -63.863 971.634 141 130 124
266.267 -63.363 971.849 147 136 131
266.267 -62.863 972.000 149 138 133
266.267 -62.363 972.055 149 138 134
266.267 -61.863 972.289 140 131 126
266.267 -61.363 972.625 138 129 124
266.267 -60.863 972.849 147 137 132
266.267 -60.363 973.085 156 145 139
266.267 -59.863 973.519 158 147 141
266.267 -59.363 973.855 163 152 146
266.267 -58.863 974.106 164 154 145
266.267 -58.363 974.436 171 161 152
266.267 -57.863 974.636 159 149 140
266.267 -57.363 974.996 152 142 133
266.767 -66.363 971.291 145 137 134
266.767 -65.863 971.422 145 136 133
266.767 -65.363 971.566 144 134 132
266.767 -64.863 971.747 140 129 125
266.767 -64.363 971.901 132 121 116
266.767 -63.863 971.991 142 131 125
266.767 -63.363 972.098 155 144 138
266.767 -62.863 972.243 161 150 145
266.767 -62.363 972.325 154 143 139
266.767 -61.863 972.573 141 132 127
266.767 -61.363 972.805 141 132 127
266.767 -60.863 973.038 146 135 132
266.767 -60.363 973.408 153 142 137
266.767 -59.863 973.786 157 146 140
266.767 -59.363 973.965 168 156 150
266.767 -58.863 974.285 170 159 152
266.767 -58.363 974.597 164 154 145
266.767 -57.863 974.903 150 140 131
266.767 -57.363 975.165 150 140 131
267.267 -66.363 971.551 141 132 129
267.267 -65.863 971.698 133 123 121
267.267 -65.363 971.780 136 126 124
267.267 -64.863 971.937 153 142 137
267.267 -64.363 972.042 155 145 137
267.267 -63.863 972.260 166 154 148
267.267 -63.363 972.406 155 144 138
267.267 -62.863 972.576 153 142 137
267.267 -62.363 972.652 147 136 132
267.267 -61.863 972.811 144 135 130
267.267 -61.363 973.065 147 138 133
267.267 -60.863 973.276 141 131 128
267.267 -60.363 973.536 139 130 125
267.267 -59.863 973.879 145 135 130
267.267 -59.363 974.084 153 144 138
267.267 -58.863 974.441 163 153 147
267.267 -58.363 974.824 158 148 141
267.267 -57.863 975.066 151 142 134
267.267 -57.363 975.396 153 143 138
267.767 -66.363 971.828 140 130 127
267.767 -65.863 971.995 131 121 119
267.767 -65.363 972.058 140 131 126
267.767 -64.863 972.184 162 151 146
267.767 -64.363 972.370 172 162 154
267.767 -63.863 972.429 166 154 148
267.767 -63.363 972.551 163 152 146
267.767 -62.863 972.773 149 138 133
267.767 -62.363 972.857 145 134 130
267.767 -61.863 973.108 146 137 132
267.767 -61.363 973.336 139 130 125
267.767 -60.863 973.498 141 131 129
267.767 -60.363 973.684 133 123 121
267.767 -59.863 974.015 136 126 124
267.767 -59.363 974.287 138 129 124
267.767 -58.863 974.588 138 129 124
267.767 -58.363 974.908 149 140 135
267.767 -57.863 975.188 156 147 140
267.767 -57.363 975.520 189 180 175
268.267 -66.363 972.109 154 143 137
268.267 -65.863 972.314 149 138 134
268.267 -65.363 972.420 155 144 140
268.267 -64.863 972.518 162 151 146
268.267 -64.363 972.688 158 147 141
268.267 -63.863 972.805 157 146 140
268.267 -63.363 972.876 163 152 146
268.267 -62.863 972.997 154 143 138
268.267 -62.363 973.216 137 126 122
268.267 -61.863 973.473 135 126 121
268.267 -61.363 973.688 135 126 121
268.267 -60.863 973.852 141 131 129
268.267 -60.363 974.041 136 126 124
268.267 -59.863 974.209 132 122 120
268.267 -59.363 974.508 133 123 121
268.267 -58.863 974.840 134 124 121
268.267 -58.363 975.043 137 128 123
268.267 -57.863 975.374 151 142 137
268.267 -57.363 975.738 197 187 185
268.767 -66.363 972.463 166 155 146
268.767 -65.863 972.504 159 148 144
268.767 -65.363 972.573 142 131 127
268.767 -64.863 972.743 146 135 131
268.767 -64.363 972.924 147 136 132
268.767 -63.863 973.014 143 132 126
268.767 -63.363 973.206 163 152 146
268.767 -62.863 973.285 160 149 144
268.767 -62.363 973.551 139 128 124
268.767 -61.863 973.714 131 122 117
268.767 -61.363 973.927 133 124 119
268.767 -60.863 974.107 133 123 122
268.767 -60.363 974.344 132 122 121
268.767 -59.863 974.508 133 123 121
268.767 -59.363 974.762 134 124 122
268.767 -58.863 975.017 133 123 121
268.767 -58.363 975.233 134 125 121
268.767 -57.863 975.494 140 130 126
268.767 -57.363 975.848 188 180 177
269.267 -66.363 972.691 160 150 143
269.267 -65.863 972.802 149 139 133
269.267 -65.363 972.898 135 125 121
269.267 -64.863 973.098 138 128 126
269.267 -64.363 973.249 137 127 124
269.267 -63.863 973.317 141 130 127
269.267 -63.363 973.490 147 137 132
269.267 -62.863 973.657 153 144 138
269.267 -62.363 973.842 153 143 138
269.267 -61.863 974.032 142 133 128
269.267 -61.363 974.149 137 127 124
269.267 -60.863 974.405 134 124 122
269.267 -60.363 974.543 136 126 124
269.267 -59.863 974.788 145 135 132
269.267 -59.363 974.990 142 133 129
269.267 -58.863 975.239 138 129 125
269.267 -58.363 975.358 145 136 132
269.267 -57.863 975.658 142 132 128
269.267 -57.363 976.052 152 144 142
269.767 -66.363 972.947 151 142 135
269.767 -65.863 973.157 151 142 135
269.767 -65.363 973.227 137 128 123
269.767 -64.863 973.464 132 122 120
269.767 -64.363 973.603 139 129 127
269.767 -63.863 973.695 135 125 123
269.767 -63.363 973.763 132 122 120
269.767 -62.863 973.890 135 126 121
269.767 -62.363 974.111 141 132 127
269.767 -61.863 974.339 147 138 133
269.767 -61.363 974.601 140 130 128
269.767 -60.863 974.753 142 132 130
269.767 -60.363 974.894 144 135 130
269.767 -59.863 975.104 136 127 122
269.767 -59.363 975.302 137 128 123
269.767 -58.863 975.449 150 141 136
269.767 -58.363 975.575 147 138 133
269.767 -57.863 975.952 136 127 122
269.767 -57.363 976.331 132 124 122
270.267 -66.363 973.202 145 136 129
270.267 -65.863 973.444 140 131 126
270.267 -65.363 973.533 133 124 119
270.267 -64.863 973.690 132 122 120
270.267 -64.363 973.860 140 130 128
270.267 -63.863 973.925 138 128 126
270.267 -63.363 974.011 132 122 120
270.267 -62.863 974.208 138 129 124
270.267 -62.363 974.418 143 134 129
270.267 -61.863 974.637 156 147 142
270.267 -61.363 974.954 137 127 125
270.267 -60.863 975.141 136 126 123
270.267 -60.363 975.256 137 128 123
270.267 -59.863 975.472 129 119 117
270.267 -59.363 975.567 142 132 130
270.267 -58.863 975.705 149 139 137
270.267 -58.363 975.857 139 129 127
270.267 -57.863 976.160 134 124 122
270.267 -57.363 976.416 130 120 119
270.767 -66.363 973.502 168 158 152
270.767 -65.863 973.701 143 134 129
270.767 -65.363 973.802 140 131 126
270.767 -64.863 973.911 143 133 131
270.767 -64.363 974.117 163 153 151
270.767 -63.863 974.186 151 141 139
270.767 -63.363 974.282 134 125 122
270.767 -62.863 974.596 146 136 133
270.767 -62.363 974.673 143 134 130
270.767 -61.863 975.033 149 138 134
270.767 -61.363 975.183 152 141 137
270.767 -60.863 975.367 137 126 122
270.767 -60.363 975.599 133 121 118
270.767 -59.863 975.736 131 120 118
270.767 -59.363 975.792 143 132 129
270.767 -58.863 975.980 142 132 130
270.767 -58.363 976.171 140 130 128
270.767 -57.863 976.382 137 127 125
270.767 -57.363 976.589 134 124 122
271.267 -66.363 973.814 151 142 139
271.267 -65.863 974.005 153 143 140
271.267 -65.363 974.117 140 130 127
271.267 -64.863 974.215 136 126 124
271.267 -64.363 974.469 160 150 148
271.267 -63.863 974.629 152 144 141
271.267 -63.363 974.744 134 126 123
271.267 -62.863 974.955 129 119 118
271.267 -62.363 975.092 128 119 116
271.267 -61.863 975.332 132 121 117
271.267 -61.363 975.496 150 139 134
271.267 -60.863 975.682 136 124 119
271.267 -60.363 975.865 139 126 121
271.267 -59.863 975.966 148 136 131
271.267 -59.363 976.107 151 140 136
271.267 -58.863 976.260 142 131 128
271.267 -58.363 976.450 135 125 123
271.267 -57.863 976.622 139 129 127
271.267 -57.363 976.785 136 126 124
271.767 -66.363 974.133 137 127 125
271.767 -65.863 974.343 141 131 129
271.767 -65.363 974.474 137 127 125
271.767 -64.863 974.636 131 121 119
271.767 -64.363 974.755 139 129 127
271.767 -63.863 974.918 134 126 123
271.767 -63.363 975.020 127 119 117
271.767 -62.863 975.215 129 120 118
271.767 -62.363 975.353 132 121 120
271.767 -61.863 975.550 139 128 124
271.767 -61.363 975.863 167 153 147
271.767 -60.863 976.011 149 136 128
271.767 -60.363 976.104 159 144 137
271.767 -59.863 976.236 166 152 145
271.767 -59.363 976.480 167 155 149
271.767 -58.863 976.584 141 131 126
271.767 -58.363 976.734 135 126 121
271.767 -57.863 976.860 134 125 120
271.767 -57.363 976.958 131 120 118
272.267 -66.363 974.510 130 120 118
272.267 -65.863 974.671 133 123 121
272.267 -65.363 974.781 138 128 126
272.267 -64.863 974.958 130 120 118
272.267 -64.363 975.125 131 121 119
272.267 -63.863 975.202 132 123 120
272.267 -63.363 975.264 133 125 123
272.267 -62.863 975.484 136 127 125
272.267 -62.363 975.623 139 128 126
272.267 -61.863 975.918 158 147 142
272.267 -61.363 976.186 168 154 148
272.267 -60.863 976.244 170 156 148
272.267 -60.363 976.357 179 166 156
272.267 -59.863 976.522 184 170 162
272.267 -59.363 976.703 167 153 145
272.267 -58.863 976.794 153 143 135
272.267 -58.363 976.945 142 133 126
272.267 -57.863 977.099 139 129 125
272.267 -57.363 977.194 143 132 128
272.767 -66.363 974.885 128 119 117
272.767 -65.863 974.990 128 119 117
272.767 -65.363 975.021 142 132 131
272.767 -64.863 975.216 141 131 130
272.767 -64.363 975.433 132 123 118
272.767 -63.863 975.576 136 125 119
272.767 -63.363 975.650 145 135 128
272.767 -62.863 975.852 146 137 132
272.767 -62.363 976.020 155 146 141
272.767 -61.863 976.262 149 138 132
272.767 -61.363 976.467 150 137 129
272.767 -60.863 976.560 164 150 140
272.767 -60.363 976.616 171 157 146
272.767 -59.863 976.739 193 179 166
272.767 -59.363 976.875 193 179 166
272.767 -58.863 977.062 188 175 165
272.767 -58.363 977.204 179 167 158
272.767 -57.863 977.324 169 156 150
272.767 -57.363 977.401 169 156 150
273.267 -66.363 975.090 131 121 119
273.267 -65.863 975.130 131 121 120
273.267 -65.363 975.290 134 124 122
273.267 -64.863 975.474 140 131 128
273.267 -64.363 975.689 159 150 145
273.267 -63.863 975.843 151 140 134
273.267 -63.363 976.024 157 146 140
273.267 -62.863 976.236 164 155 150
273.267 -62.363 976.303 155 146 140
273.267 -61.863 976.524 151 140 134
273.267 -61.363 976.662 156 143 135
273.267 -60.863 976.799 179 163 153
273.267 -60.363 976.859 180 166 155
273.267 -59.863 976.903 183 168 155
273.267 -59.363 977.108 183 168 155
273.267 -58.863 977.297 188 174 164
273.267 -58.363 977.354 179 166 157
273.267 -57.863 977.438 168 155 149
273.267 -57.363 977.552 153 141 137
273.767 -66.363 975.339 136 127 122
273.767 -65.863 975.460 129 119 117
273.767 -65.363 975.715 128 119 116
273.767 -64.863 975.796 132 123 118
273.767 -64.363 976.036 166 156 149
273.767 -63.863 976.124 160 150 142
273.767 -63.363 976.311 164 153 147
273.767 -62.863 976.457 176 166 159
273.767 -62.363 976.631 168 157 150
273.767 -61.863 976.800 160 150 141
273.767 -61.363 976.869 171 158 150
273.767 -60.863 977.021 188 173 164
273.767 -60.363 977.100 184 169 158
273.767 -59.863 977.149 179 164 151
273.767 -59.363 977.381 168 154 141
273.767 -58.863 977.455 171 158 148
273.767 -58.363 977.533 164 151 143
273.767 -57.863 977.666 160 148 142
273.767 -57.363 977.741 141 132 127
274.267 -66.363 975.753 143 134 129
274.267 -65.863 975.981 133 124 119
274.267 -65.363 976.116 127 119 113
274.267 -64.863 976.233 139 130 124
274.267 -64.363 976.401 158 149 142
274.267 -63.863 976.477 157 144 136
274.267 -63.363 976.564 153 143 134
274.267 -62.863 976.726 167 155 149
274.267 -62.363 976.950 151 140 134
274.267 -61.863 977.036 141 128 120
274.267 -61.363 977.088 161 148 139
274.267 -60.863 977.228 184 168 158
274.267 -60.363 977.360 184 168 158
274.267 -59.863 977.462 181 168 154
274.267 -59.363 977.603 173 159 146
274.267 -58.863 977.696 175 161 151
274.767 -66.363 976.078 154 143 137
274.767 -65.863 976.285 143 132 128
274.767 -65.363 976.439 140 129 125
274.767 -64.863 976.603 147 136 130
274.767 -64.363 976.716 162 152 144
274.767 -63.863 976.772 157 144 136
274.767 -63.363 976.800 144 131 123
274.767 -62.863 977.016 151 140 134
274.767 -62.363 977.146 140 130 123
274.767 -61.863 977.210 135 122 114
274.767 -61.363 977.324 153 139 130
274.767 -60.863 977.462 184 168 157
274.767 -60.363 977.542 188 174 163
274.767 -59.863 977.686 184 169 156
275.267 -66.363 976.337 163 153 146
275.267 -65.863 976.528 155 144 138
275.267 -65.363 976.724 151 140 134
275.267 -64.863 976.878 164 154 146
275.267 -64.363 976.909 179 168 159
275.267 -63.863 977.092 169 156 148
275.267 -63.363 977.160 147 134 126
275.267 -62.863 977.266 140 129 122
275.267 -62.363 977.349 140 130 121
275.267 -61.863 977.451 144 131 123
275.267 -61.363 977.629 163 149 140
275.267 -60.863 977.741 185 169 159
275.267 -60.363 977.761 190 175 165
275.767 -66.363 976.615 162 152 143
275.767 -65.863 976.793 162 149 141
275.767 -65.363 976.906 153 140 131
275.767 -64.863 977.127 154 141 132
275.767 -64.363 977.238 174 161 152
275.767 -63.863 977.404 176 163 156
275.767 -63.363 977.510 149 136 130
275.767 -62.863 977.512 140 127 119
275.767 -62.363 977.567 150 137 129
275.767 -61.863 977.716 158 145 136
276.267 -66.363 976.849 151 140 134
276.267 -65.863 977.016 163 150 142
276.267 -65.363 977.174 173 160 151
276.267 -64.863 977.350 173 160 150
276.267 -64.363 977.516 169 155 144
276.267 -63.863 977.596 170 157 148
276.267 -63.363 977.671 157 144 136
276.267 -62.863 977.685 146 133 125
276.267 -62.363 977.753 145 132 123
276.767 -66.363 977.071 143 132 126
276.767 -65.863 977.261 150 140 131
276.767 -65.363 977.481 173 160 151
276.767 -64.863 977.561 188 174 163
276.767 -64.363 977.646 186 172 159
276.767 -63.863 977.743 179 164 154
277.267 -66.363 977.303 138 127 121
277.267 -65.863 977.503 142 132 123
277.267 -65.363 977.701 156 143 134
277.767 -66.363 977.455 137 126 119
277.767 -65.863 977.679 151 138 130
278.267 -66.363 977.670 144 131 123
282.767 -57.363 977.760 188 169 154
283.267 -57.363 977.737 191 172 158
283.767 -57.363 977.615 170 152 138
284.267 -57.863 977.735 168 151 138
284.267 -57.363 977.496 168 149 135
284.767 -57.863 977.682 184 168 155
284.767 -57.363 977.412 180 162 148
285.267 -57.863 977.522 191 176 161
285.267 -57.363 977.251 188 171 154
285.767 -58.363 977.572 177 159 145
285.767 -57.863 977.398 177 160 144
285.767 -57.363 977.158 200 184 165
286.267 -58.863 977.589 184 167 152
286.267 -58.363 977.436 174 157 141
286.267 -57.863 977.306 190 173 157
286.267 -57.363 977.128 209 192 174
286.767 -59.363 977.671 203 185 171
286.767 -58.863 977.483 181 163 149
286.767 -58.363 977.333 173 156 140
286.767 -57.863 977.204 206 189 172
286.767 -57.363 977.122 216 199 181
287.267 -59.863 977.707 212 193 176
287.267 -59.363 977.519 210 191 176
287.267 -58.863 977.375 183 164 149
287.267 -58.363 977.275 198 179 164
287.267 -57.863 977.165 214 196 178
287.267 -57.363 977.119 219 203 184
287.767 -59.863 977.555 209 190 173
287.767 -59.363 977.404 211 192 177
287.767 -58.863 977.304 202 184 168
287.767 -58.363 977.220 210 191 174
287.767 -57.863 977.148 218 199 182
287.767 -57.363 977.108 218 203 184
288.267 -60.363 977.657 207 189 170
288.267 -59.863 977.473 208 189 172
288.267 -59.363 977.370 211 192 177
288.267 -58.863 977.274 213 194 179
288.267 -58.363 977.199 216 197 180
288.267 -57.863 977.151 220 201 184
288.267 -57.363 977.102 219 203 184
288.767 -60.363 977.554 203 186 168
288.767 -59.863 977.405 212 195 177
288.767 -59.363 977.319 211 194 176
288.767 -58.863 977.238 218 201 183
288.767 -58.363 977.195 215 198 180
288.767 -57.863 977.156 219 202 184
288.767 -57.363 977.112 220 203 187
289.267 -61.363 977.771 202 184 166
289.267 -60.863 977.632 210 191 174
289.267 -60.363 977.473 206 189 171
289.267 -59.863 977.379 218 201 183
289.267 -59.363 977.311 213 196 178
289.267 -58.863 977.248 217 200 182
289.267 -58.363 977.185 219 202 184
289.267 -57.863 977.149 219 202 184
289.267 -57.363 977.112 221 204 188
289.767 -61.363 977.642 195 176 159
289.767 -60.863 977.584 208 190 172
289.767 -60.363 977.420 217 200 182
289.767 -59.863 977.316 219 202 184
289.767 -59.363 977.249 217 200 182
289.767 -58.863 977.211 216 199 181
289.767 -58.363 977.149 219 202 184
289.767 -57.863 977.113 217 200 182
289.767 -57.363 977.088 216 199 183
290.267 -61.863 977.772 179 159 142
290.267 -61.363 977.569 195 176 159
290.267 -60.863 977.497 208 190 173
290.267 -60.363 977.351 220 203 185
290.267 -59.863 977.255 222 205 187
290.267 -59.363 977.194 218 201 183
290.267 -58.863 977.152 217 200 182
290.267 -58.363 977.119 218 201 183
290.267 -57.863 977.085 215 198 180
290.267 -57.363 977.062 213 196 180
290.767 -61.863 977.613 196 177 160
290.767 -61.363 977.513 210 191 174
290.767 -60.863 977.359 217 198 181
290.767 -60.363 977.319 221 204 186
290.767 -59.863 977.239 221 204 186
290.767 -59.363 977.179 220 203 185
290.767 -58.863 977.146 220 203 185
290.767 -58.363 977.109 220 203 185
290.767 -57.863 977.049 215 198 180
290.767 -57.363 977.028 216 199 183
291.267 -62.363 977.757 200 181 164
291.267 -61.863 977.550 210 191 174
291.267 -61.363 977.414 219 200 183
291.267 -60.863 977.335 223 204 187
291.267 -60.363 977.282 221 204 186
291.267 -59.863 977.221 222 205 187
291.267 -59.363 977.179 222 205 187
291.267 -58.863 977.137 219 202 184
291.267 -58.363 977.094 219 202 184
291.267 -57.863 977.047 217 200 182
291.267 -57.363 977.015 219 202 186
291.767 -62.363 977.624 207 190 172
291.767 -61.863 977.498 218 201 183
291.767 -61.363 977.373 220 203 185
291.767 -60.863 977.321 221 204 186
291.767 -60.363 977.244 221 204 186
291.767 -59.863 977.217 223 206 188
291.767 -59.363 977.188 220 203 185
291.767 -58.863 977.143 219 202 184
291.767 -58.363 977.103 219 202 184
291.767 -57.863 977.061 221 204 186
291.767 -57.363 977.039 217 201 185
292.267 -62.863 977.708 211 194 176
292.267 -62.363 977.514 217 200 182
292.267 -61.863 977.408 220 203 185
292.267 -61.363 977.340 222 205 187
292.267 -60.863 977.299 220 203 185
292.267 -60.363 977.232 223 206 188
292.267 -59.863 977.209 221 204 186
292.267 -59.363 977.190 221 204 186
292.267 -58.863 977.164 220 203 185
292.267 -58.363 977.136 220 203 185
292.267 -57.863 977.080 221 204 186
292.267 -57.363 977.055 219 203 187
292.767 -62.863 977.652 217 200 182
292.767 -62.363 977.438 220 203 185
292.767 -61.863 977.343 220 203 185
292.767 -61.363 977.276 222 205 187
292.767 -60.863 977.228 221 204 186
292.767 -60.363 977.218 217 200 182
292.767 -59.863 977.200 216 199 181
292.767 -59.363 977.190 221 204 186
292.767 -58.863 977.166 222 205 187
292.767 -58.363 977.155 221 204 186
292.767 -57.863 977.109 220 203 185
292.767 -57.363 977.069 219 203 187
293.267 -63.363 977.636 217 200 182
293.267 -62.863 977.495 222 205 187
293.267 -62.363 977.340 222 205 187
293.267 -61.863 977.277 223 206 188
293.267 -61.363 977.227 222 205 187
293.267 -60.863 977.204 219 202 184
293.267 -60.363 977.196 212 195 177
293.267 -59.863 977.195 220 203 185
293.267 -59.363 977.190 224 207 189
293.267 -58.863 977.162 225 208 190
293.267 -58.363 977.160 221 204 186
293.267 -57.863 977.137 220 203 185
293.267 -57.363 977.090 220 204 188
293.767 -63.863 977.657 212 195 177
293.767 -63.363 977.504 219 202 184
293.767 -62.863 977.376 223 206 188
293.767 -62.363 977.309 223 206 188
293.767 -61.863 977.236 221 204 186
293.767 -61.363 977.205 219 202 184
293.767 -60.863 977.193 215 198 180
293.767 -60.363 977.188 214 197 179
293.767 -59.863 977.188 222 205 187
293.767 -59.363 977.180 224 207 189
293.767 -58.863 977.152 222 205 187
293.767 -58.363 977.156 220 203 185
293.767 -57.863 977.145 218 201 183
293.767 -57.363 977.117 216 200 184
294.267 -64.363 977.758 209 192 174
294.267 -63.863 977.559 215 198 180
294.267 -63.363 977.459 220 203 185
294.267 -62.863 977.350 223 206 188
294.267 -62.363 977.304 222 205 187
294.267 -61.863 977.226 221 204 186
294.267 -61.363 977.205 221 204 186
294.267 -60.863 977.194 221 204 186
294.267 -60.363 977.195 217 200 182
294.267 -59.863 977.198 220 203 185
294.267 -59.363 977.182 225 208 190
294.267 -58.863 977.159 222 205 187
294.267 -58.363 977.149 221 204 186
294.267 -57.863 977.139 220 203 185
294.267 -57.363 977.129 220 204 188
294.767 -64.863 977.755 210 194 175
294.767 -64.363 977.619 215 198 180
294.767 -63.863 977.507 217 200 182
294.767 -63.363 977.435 221 204 186
294.767 -62.863 977.358 222 205 187
294.767 -62.363 977.301 221 204 186
294.767 -61.863 977.247 222 206 188
294.767 -61.363 977.232 221 204 186
294.767 -60.863 977.205 222 205 187
294.767 -60.363 977.205 219 202 184
294.767 -59.863 977.202 221 204 186
294.767 -59.363 977.185 220 204 186
294.767 -58.863 977.168 221 204 187
294.767 -58.363 977.168 220 203 186
294.767 -57.863 977.159 220 204 186
294.767 -57.363 977.145 219 203 187
295.267 -65.363 977.755 207 189 170
295.267 -64.863 977.616 211 194 175
295.267 -64.363 977.531 214 199 180
295.267 -63.863 977.472 218 201 183
295.267 -63.363 977.412 221 204 186
295.267 -62.863 977.344 222 205 187
295.267 -62.363 977.304 222 205 187
295.267 -61.863 977.258 222 207 188
295.267 -61.363 977.243 219 204 185
295.267 -60.863 977.228 220 205 187
295.267 -60.363 977.222 220 204 188
295.267 -59.863 977.220 221 205 189
295.267 -59.363 977.200 221 205 189
295.267 -58.863 977.187 221 205 189
295.267 -58.363 977.181 220 204 188
295.267 -57.863 977.159 221 205 189
295.267 -57.363 977.152 220 204 188
295.767 -65.863 977.722 209 190 173
295.767 -65.363 977.630 210 192 172
295.767 -64.863 977.534 213 196 178
295.767 -64.363 977.474 214 198 179
295.767 -63.863 977.421 219 202 184
295.767 -63.363 977.363 222 205 187
295.767 -62.863 977.314 223 206 188
295.767 -62.363 977.293 222 205 187
295.767 -61.863 977.262 221 206 187
295.767 -61.363 977.258 222 207 188
295.767 -60.863 977.234 221 206 188
295.767 -60.363 977.234 220 204 188
295.767 -59.863 977.239 220 204 188
295.767 -59.363 977.208 223 207 191
295.767 -58.863 977.200 222 206 190
295.767 -58.363 977.198 221 205 189
295.767 -57.863 977.183 221 205 189
295.767 -57.363 977.171 221 205 189
296.267 -65.863 977.660 209 192 174
296.267 -65.363 977.553 215 198 180
296.267 -64.863 977.498 216 199 181
296.267 -64.363 977.441 214 199 180
296.267 -63.863 977.363 222 205 187
296.267 -63.363 977.341 223 206 188
296.267 -62.863 977.307 225 208 190
296.267 -62.363 977.284 221 204 186
296.267 -61.863 977.259 220 205 186
296.267 -61.363 977.256 225 210 191
296.267 -60.863 977.248 225 210 192
296.267 -60.363 977.243 222 206 190
296.267 -59.863 977.256 220 204 188
296.267 -59.363 977.233 222 206 190
296.267 -58.863 977.224 223 207 191
296.267 -58.363 977.219 221 205 189
296.267 -57.863 977.201 221 205 189
296.267 -57.363 977.180 221 205 189
296.767 -66.363 977.759 189 173 159
296.767 -65.863 977.606 208 191 175
296.767 -65.363 977.502 218 201 184
296.767 -64.863 977.440 218 201 183
296.767 -64.363 977.405 215 199 182
296.767 -63.863 977.352 221 204 186
296.767 -63.363 977.324 222 205 187
296.767 -62.863 977.296 222 205 187
296.767 -62.363 977.276 220 203 185
296.767 -61.863 977.275 221 206 187
296.767 -61.363 977.276 223 208 189
296.767 -60.863 977.294 226 210 193
296.767 -60.363 977.292 224 208 192
296.767 -59.863 977.298 223 207 191
296.767 -59.363 977.278 223 207 191
296.767 -58.863 977.280 223 207 191
296.767 -58.363 977.258 222 206 190
296.767 -57.863 977.239 222 206 190
296.767 -57.363 977.218 222 206 190
297.267 -66.363 977.658 197 184 171
297.267 -65.863 977.554 208 192 177
297.267 -65.363 977.465 219 202 186
297.267 -64.863 977.415 219 202 185
297.267 -64.363 977.382 215 199 183
297.267 -63.863 977.342 222 205 187
297.267 -63.363 977.323 220 203 185
297.267 -62.863 977.306 221 204 186
297.267 -62.363 977.302 221 204 186
297.267 -61.863 977.303 222 207 188
297.267 -61.363 977.306 220 205 186
297.267 -60.863 977.323 222 207 189
297.267 -60.363 977.316 223 207 191
297.267 -59.863 977.334 222 206 190
297.267 -59.363 977.318 222 206 190
297.267 -58.863 977.331 223 207 191
297.267 -58.363 977.298 222 206 190
297.267 -57.863 977.258 222 206 190
297.267 -57.363 977.226 222 206 190
297.767 -66.363 977.611 203 189 178
297.767 -65.863 977.506 216 200 185
297.767 -65.363 977.413 216 199 183
297.767 -64.863 977.382 215 198 182
297.767 -64.363 977.353 221 204 188
297.767 -63.863 977.337 220 203 185
297.767 -63.363 977.326 221 204 186
297.767 -62.863 977.324 224 207 189
297.767 -62.363 977.327 224 207 189
297.767 -61.863 977.330 223 208 189
297.767 -61.363 977.341 221 206 187
297.767 -60.863 977.345 220 204 186
297.767 -60.363 977.342 223 207 191
297.767 -59.863 977.351 222 206 190
297.767 -59.363 977.345 222 206 190
297.767 -58.863 977.363 224 208 192
297.767 -58.363 977.328 224 208 192
297.767 -57.863 977.284 222 206 190
297.767 -57.363 977.243 222 206 190
298.267 -66.363 977.563 217 201 187
298.267 -65.863 977.471 220 204 188
298.267 -65.363 977.394 212 197 178
298.267 -64.863 977.347 216 201 181
298.267 -64.363 977.336 223 208 188
298.267 -63.863 977.325 221 204 187
298.267 -63.363 977.327 221 204 188
298.267 -62.863 977.327 223 206 190
298.267 -62.363 977.335 224 208 190
298.267 -61.863 977.336 223 208 189
298.267 -61.363 977.352 222 207 188
298.267 -60.863 977.366 220 206 187
298.267 -60.363 977.358 223 208 189
298.267 -59.863 977.362 222 207 188
298.267 -59.363 977.372 222 207 188
298.267 -58.863 977.386 225 210 191
298.267 -58.363 977.335 224 209 190
298.267 -57.863 977.293 222 207 188
298.267 -57.363 977.259 223 207 191
298.767 -66.363 977.525 220 204 189
298.767 -65.863 977.434 218 202 186
298.767 -65.363 977.387 218 203 184
298.767 -64.863 977.347 222 207 187
298.767 -64.363 977.326 224 209 188
298.767 -63.863 977.315 224 207 191
298.767 -63.363 977.324 223 206 190
298.767 -62.863 977.326 223 206 190
298.767 -62.363 977.332 223 208 189
298.767 -61.863 977.324 223 208 189
298.767 -61.363 977.324 222 207 188
298.767 -60.863 977.355 222 207 188
298.767 -60.363 977.355 223 208 189
298.767 -59.863 977.370 223 208 189
298.767 -59.363 977.389 222 207 188
298.767 -58.863 977.391 224 209 190
298.767 -58.363 977.341 225 210 191
298.767 -57.863 977.315 223 208 189
298.767 -57.363 977.276 224 208 192
299.267 -66.363 977.477 224 208 192
299.267 -65.863 977.415 216 200 184
299.267 -65.363 977.381 220 204 188
299.267 -64.863 977.344 225 210 191
299.267 -64.363 977.330 224 209 190
299.267 -63.863 977.314 225 208 192
299.267 -63.363 977.319 223 206 190
299.267 -62.863 977.321 222 206 190
299.267 -62.363 977.323 222 207 188
299.267 -61.863 977.307 222 207 188
299.267 -61.363 977.303 222 207 188
299.267 -60.863 977.334 222 207 188
299.267 -60.363 977.340 222 207 188
299.267 -59.863 977.363 223 208 189
299.267 -59.363 977.385 223 208 189
299.267 -58.863 977.384 223 208 189
299.267 -58.363 977.357 224 209 190
299.267 -57.863 977.344 224 209 190
299.267 -57.363 977.299 224 208 192
299.767 -66.363 977.442 225 209 193
299.767 -65.863 977.393 223 207 191
299.767 -65.363 977.372 220 204 188
299.767 -64.863 977.341 225 210 191
299.767 -64.363 977.326 225 210 191
299.767 -63.863 977.317 225 209 193
299.767 -63.363 977.317 226 210 194
299.767 -62.863 977.317 222 206 190
299.767 -62.363 977.317 221 206 188
299.767 -61.863 977.309 222 207 188
299.767 -61.363 977.305 223 206 188
299.767 -60.863 977.321 222 206 188
299.767 -60.363 977.327 222 207 188
299.767 -59.863 977.349 223 208 189
299.767 -59.363 977.363 222 207 188
299.767 -58.863 977.371 223 208 189
299.767 -58.363 977.355 224 209 190
299.767 -57.863 977.343 223 208 189
299.767 -57.363 977.310 223 207 191
300.267 -66.363 977.414 224 208 192
300.267 -65.863 977.364 225 209 193
300.267 -65.363 977.357 223 207 191
300.267 -64.863 977.337 224 208 192
300.267 -64.363 977.313 225 209 193
300.267 -63.863 977.317 225 209 193
300.267 -63.363 977.330 225 209 193
300.267 -62.863 977.324 224 208 192
300.267 -62.363 977.326 222 207 188
300.267 -61.863 977.311 223 206 188
300.267 -61.363 977.309 222 205 187
300.267 -60.863 977.308 221 205 186
300.267 -60.363 977.314 221 206 187
300.267 -59.863 977.336 222 207 188
300.267 -59.363 977.347 223 208 189
300.267 -58.863 977.368 223 208 189
300.267 -58.363 977.353 223 208 189
300.267 -57.863 977.336 222 207 188
300.267 -57.363 977.297 222 206 190
300.767 -66.363 977.403 224 208 192
300.767 -65.863 977.349 227 211 195
300.767 -65.363 977.340 227 211 195
300.767 -64.863 977.332 224 208 192
300.767 -64.363 977.331 223 207 191
300.767 -63.863 977.334 224 209 193
300.767 -63.363 977.354 225 209 193
300.767 -62.863 977.342 225 209 193
300.767 -62.363 977.344 225 208 190
300.767 -61.863 977.318 224 207 189
300.767 -61.363 977.313 222 205 187
300.767 -60.863 977.313 221 205 186
300.767 -60.363 977.333 220 205 186
300.767 -59.863 977.364 221 206 187
300.767 -59.363 977.372 222 207 188
300.767 -58.863 977.383 223 208 189
300.767 -58.363 977.356 223 208 189
300.767 -57.863 977.333 221 206 187
300.767 -57.363 977.292 222 206 190
249.767 -51.363 967.647 126 117 114
249.767 -50.863 967.766 130 120 118
249.767 -50.363 967.802 140 130 126
249.767 -49.863 967.848 158 147 141
249.767 -49.363 967.938 177 168 158
250.267 -53.863 967.668 166 154 146
250.267 -53.363 967.793 179 168 162
250.267 -52.863 967.901 166 154 150
250.267 -52.363 967.978 150 139 137
250.267 -51.863 968.002 137 127 125
250.267 -51.363 968.051 126 117 116
250.267 -50.863 968.142 125 117 113
250.267 -50.363 968.181 137 127 122
250.267 -49.863 968.249 144 133 127
250.267 -49.363 968.363 168 156 150
250.267 -48.863 968.539 160 149 140
250.767 -54.863 967.629 136 127 123
250.767 -54.363 967.720 147 136 130
250.767 -53.863 967.885 159 148 142
250.767 -53.363 968.052 172 161 155
250.767 -52.863 968.206 163 152 148
250.767 -52.363 968.324 147 137 135
250.767 -51.863 968.381 131 121 119
250.767 -51.363 968.469 121 111 109
250.767 -50.863 968.533 121 111 108
250.767 -50.363 968.565 136 125 121
250.767 -49.863 968.666 153 142 136
250.767 -49.363 968.799 160 149 143
251.267 -55.863 967.637 147 138 133
251.267 -55.363 967.726 136 127 122
251.267 -54.863 967.878 131 122 118
251.267 -54.363 967.975 142 131 127
251.267 -53.863 968.107 155 144 138
251.267 -53.363 968.263 154 143 137
251.267 -52.863 968.434 156 145 141
251.267 -52.363 968.567 143 134 130
251.267 -51.863 968.668 133 123 121
251.267 -51.363 968.823 128 119 116
251.267 -50.863 968.932 129 120 116
251.267 -50.363 968.952 143 132 128
251.267 -49.863 968.989 158 147 141
251.267 -49.363 969.122 166 154 148
251.767 -56.863 967.808 153 144 137
251.767 -56.363 967.886 158 149 144
251.767 -55.863 967.930 173 164 159
251.767 -55.363 967.978 150 141 136
251.767 -54.863 968.093 139 130 126
251.767 -54.363 968.229 146 135 131
251.767 -53.863 968.371 156 145 139
251.767 -53.363 968.508 151 140 136
251.767 -52.863 968.679 145 134 130
251.767 -52.363 968.838 142 133 128
251.767 -51.863 968.939 140 131 126
251.767 -51.363 969.078 138 129 124
251.767 -50.863 969.269 144 134 131
251.767 -50.363 969.422 146 135 131
251.767 -49.863 969.485 147 136 130
251.767 -49.363 969.585 162 151 145
252.267 -56.863 967.992 157 148 141
252.267 -56.363 968.089 180 171 166
252.267 -55.863 968.190 195 186 181
252.267 -55.363 968.223 162 153 148
252.267 -54.863 968.275 153 144 140
252.267 -54.363 968.420 159 148 144
252.267 -53.863 968.563 168 157 153
252.267 -53.363 968.729 153 142 138
252.267 -52.863 968.938 142 131 127
252.267 -52.363 969.117 150 140 135
252.267 -51.863 969.274 148 139 134
252.267 -51.363 969.424 150 141 136
252.267 -50.863 969.592 158 149 146
252.267 -50.363 969.772 154 143 139
252.267 -49.863 969.968 147 136 130
252.267 -49.363 970.093 149 138 132
252.767 -56.863 968.107 163 154 147
252.767 -56.363 968.228 179 169 164
252.767 -55.863 968.352 150 141 136
252.767 -55.363 968.394 143 134 129
252.767 -54.863 968.464 136 127 123
252.767 -54.363 968.586 146 135 132
252.767 -53.863 968.748 166 154 150
252.767 -53.363 968.956 158 147 143
252.767 -52.863 969.152 153 142 138
252.767 -52.363 969.397 150 141 136
252.767 -51.863 969.601 149 140 135
252.767 -51.363 969.809 148 139 134
252.767 -50.863 969.939 155 145 142
252.767 -50.363 970.114 151 140 136
252.767 -49.863 970.311 150 139 133
252.767 -49.363 970.450 157 146 140
253.267 -56.863 968.312 147 138 133
253.267 -56.363 968.413 148 139 134
253.267 -55.863 968.538 142 133 128
253.267 -55.363 968.582 138 129 124
253.267 -54.863 968.691 135 126 122
253.267 -54.363 968.896 138 127 123
253.267 -53.863 969.105 152 141 137
253.267 -53.363 969.340 161 150 146
253.267 -52.863 969.490 152 141 137
253.267 -52.363 969.694 149 139 135
253.267 -51.863 969.904 147 137 133
253.267 -51.363 970.082 147 137 132
253.267 -50.863 970.275 146 135 129
253.267 -50.363 970.544 146 135 129
253.267 -49.863 970.782 147 134 128
253.267 -49.363 970.979 153 140 134
253.267 -48.863 971.145 147 135 128
253.767 -56.863 968.514 142 133 128
253.767 -56.363 968.646 142 133 128
253.767 -55.863 968.774 144 135 130
253.767 -55.363 968.885 143 134 129
253.767 -54.863 968.974 143 134 129
253.767 -54.363 969.189 149 138 134
253.767 -53.863 969.418 149 138 134
253.767 -53.363 969.643 153 142 138
253.767 -52.863 969.861 150 139 135
253.767 -52.363 969.990 148 137 133
253.767 -51.863 970.182 154 143 139
253.767 -51.363 970.371 149 138 134
253.767 -50.863 970.628 147 136 130
253.767 -50.363 970.921 145 134 128
253.767 -49.863 971.133 147 136 130
253.767 -49.363 971.354 163 150 144
254.267 -56.863 968.710 136 127 122
254.267 -56.363 968.915 138 129 124
254.267 -55.863 969.059 142 133 128
254.267 -55.363 969.205 148 139 134
254.267 -54.863 969.326 151 142 137
254.267 -54.363 969.454 154 143 139
254.267 -53.863 969.649 152 141 137
254.267 -53.363 969.911 151 140 136
254.267 -52.863 970.081 155 144 140
254.267 -52.363 970.221 164 153 149
254.267 -51.863 970.509 171 160 156
254.267 -51.363 970.810 160 149 145
254.267 -50.863 971.022 149 138 132
254.267 -50.363 971.277 149 138 132
254.267 -49.863 971.463 153 142 136
254.267 -49.363 971.661 156 145 139
254.767 -56.863 968.984 142 132 127
254.767 -56.363 969.170 150 140 135
254.767 -55.863 969.361 153 144 139
254.767 -55.363 969.488 156 146 141
254.767 -54.863 969.666 146 137 132
254.767 -54.363 969.798 146 135 131
254.767 -53.863 969.960 142 131 127
254.767 -53.363 970.196 137 126 122
254.767 -52.863 970.421 153 142 138
254.767 -52.363 970.622 171 160 156
254.767 -51.863 970.929 170 159 155
254.767 -51.363 971.184 158 147 143
254.767 -50.863 971.333 150 139 132
254.767 -50.363 971.540 149 138 132
254.767 -49.863 971.769 149 138 132
254.767 -49.363 971.974 148 137 131
255.267 -56.863 969.289 163 152 146
255.267 -56.363 969.441 170 159 153
255.267 -55.863 969.613 168 157 151
255.267 -55.363 969.823 167 155 149
255.267 -54.863 969.992 148 137 131
255.267 -54.363 970.133 143 132 128
255.267 -53.863 970.329 140 129 125
255.267 -53.363 970.534 137 126 122
255.267 -52.863 970.702 144 133 129
255.267 -52.363 970.911 150 139 135
255.267 -51.863 971.136 155 144 140
255.267 -51.363 971.377 150 139 134
255.267 -50.863 971.587 147 137 128
255.267 -50.363 971.852 154 144 136
255.267 -49.863 972.063 168 157 151
255.267 -49.363 972.188 149 138 132
255.267 -48.863 972.302 129 119 114
255.767 -56.863 969.544 170 159 153
255.767 -56.363 969.776 160 149 143
255.767 -55.863 969.932 157 146 140
255.767 -55.363 970.098 168 157 151
255.767 -54.863 970.302 168 157 151
255.767 -54.363 970.474 152 141 137
255.767 -53.863 970.683 142 131 127
255.767 -53.363 970.906 138 127 123
255.767 -52.863 971.022 134 123 119
255.767 -52.363 971.178 127 117 112
255.767 -51.863 971.384 145 134 130
255.767 -51.363 971.576 168 156 152
255.767 -50.863 971.797 160 150 141
255.767 -50.363 972.055 181 171 162
255.767 -49.863 972.219 183 171 165
255.767 -49.363 972.334 155 146 139
255.767 -48.863 972.479 136 127 122
256.267 -56.863 969.824 170 159 153
256.267 -56.363 970.081 140 129 123
256.267 -55.863 970.254 141 130 124
256.267 -55.363 970.462 152 141 135
256.267 -54.863 970.597 176 166 159
256.267 -54.363 970.786 160 149 144
256.267 -53.863 971.021 148 137 132
256.267 -53.363 971.232 138 127 122
256.267 -52.863 971.419 130 119 114
256.267 -52.363 971.557 123 112 107
256.267 -51.863 971.723 137 126 121
256.267 -51.363 971.960 171 160 154
256.267 -50.863 972.143 172 162 152
256.267 -50.363 972.304 163 153 144
256.267 -49.863 972.441 152 143 136
256.267 -49.363 972.543 143 134 127
256.267 -48.863 972.630 135 126 121
256.767 -56.863 970.120 148 139 133
256.767 -56.363 970.316 138 128 123
256.767 -55.863 970.550 140 129 125
256.767 -55.363 970.809 154 143 137
256.767 -54.863 970.967 188 179 170
256.767 -54.363 971.101 171 158 150
256.767 -53.863 971.277 158 143 136
256.767 -53.363 971.499 148 133 126
256.767 -52.863 971.738 139 126 118
256.767 -52.363 971.908 140 127 119
256.767 -51.863 972.092 163 150 142
256.767 -51.363 972.359 171 161 152
256.767 -50.863 972.492 166 155 146
256.767 -50.363 972.550 152 141 135
256.767 -49.863 972.623 137 126 122
256.767 -49.363 972.743 136 125 121
257.267 -56.863 970.383 138 128 122
257.267 -56.363 970.522 144 133 129
257.267 -55.863 970.834 143 132 126
257.267 -55.363 971.076 156 145 139
257.267 -54.863 971.309 187 175 166
257.267 -54.363 971.440 170 156 148
257.267 -53.863 971.528 168 152 145
257.267 -53.363 971.741 179 164 157
257.267 -52.863 972.025 173 160 152
257.267 -52.363 972.236 185 172 164
257.267 -51.863 972.432 173 160 152
257.267 -51.363 972.563 170 160 151
257.267 -50.863 972.654 168 157 148
257.267 -50.363 972.784 163 152 146
257.267 -49.863 972.906 139 128 124
257.267 -49.363 972.996 140 129 125
257.767 -56.863 970.830 140 129 123
257.767 -56.363 970.945 140 129 123
257.767 -55.863 971.166 144 133 127
257.767 -55.363 971.402 152 139 131
257.767 -54.863 971.577 186 173 165
257.767 -54.363 971.814 192 179 171
257.767 -53.863 972.001 190 176 167
257.767 -53.363 972.193 190 176 167
257.767 -52.863 972.377 188 175 166
257.767 -52.363 972.505 174 161 153
257.767 -51.863 972.670 155 142 134
257.767 -51.363 972.811 150 140 131
257.767 -50.863 972.891 152 142 134
257.767 -50.363 973.002 145 134 130
257.767 -49.863 973.163 132 121 117
257.767 -49.363 973.285 133 122 120
258.267 -56.863 971.071 151 141 133
258.267 -56.363 971.300 140 129 123
258.267 -55.863 971.475 141 128 122
258.267 -55.363 971.670 145 132 124
258.267 -54.863 971.836 177 164 155
258.267 -54.363 972.077 197 184 173
258.267 -53.863 972.371 189 175 164
258.267 -53.363 972.560 170 156 147
258.267 -52.863 972.793 177 164 155
258.267 -52.363 972.852 183 169 161
258.267 -51.863 973.014 156 143 135
258.267 -51.363 973.248 146 136 127
258.267 -50.863 973.297 144 133 127
258.267 -50.363 973.328 138 127 123
258.267 -49.863 973.392 128 118 116
258.267 -49.363 973.484 128 118 116
258.267 -48.863 973.688 129 119 116
258.767 -56.863 971.353 150 139 131
258.767 -56.363 971.553 142 129 123
258.767 -55.863 971.722 153 140 133
258.767 -55.363 971.941 155 142 134
258.767 -54.863 972.085 166 152 142
258.767 -54.363 972.369 187 173 161
258.767 -53.863 972.584 183 168 157
258.767 -53.363 972.873 175 161 150
258.767 -52.863 973.099 188 176 166
258.767 -52.363 973.284 190 177 170
258.767 -51.863 973.381 164 151 143
258.767 -51.363 973.475 147 137 128
258.767 -50.863 973.502 144 133 127
258.767 -50.363 973.505 136 125 121
258.767 -49.863 973.614 131 120 118
258.767 -49.363 973.779 128 118 116
258.767 -48.863 973.899 128 119 116
259.267 -56.863 971.653 150 139 130
259.267 -56.363 971.885 146 133 127
259.267 -55.863 972.092 154 141 133
259.267 -55.363 972.374 171 158 150
259.267 -54.863 972.543 185 171 161
259.267 -54.363 972.805 191 177 165
259.267 -53.863 972.938 191 177 164
259.267 -53.363 973.171 185 171 160
259.267 -52.863 973.352 191 179 168
259.267 -52.363 973.538 186 173 165
259.267 -51.863 973.724 171 158 150
259.267 -51.363 973.876 156 146 137
259.267 -50.863 973.976 147 136 130
259.267 -50.363 974.000 139 128 125
259.267 -49.863 974.040 131 120 118
259.267 -49.363 974.072 128 117 116
259.267 -48.863 974.155 133 123 121
259.767 -56.863 971.942 146 133 127
259.767 -56.363 972.197 139 126 118
259.767 -55.863 972.528 151 138 130
259.767 -55.363 972.820 186 173 164
259.767 -54.863 972.909 195 183 173
259.767 -54.363 973.029 192 179 171
259.767 -53.863 973.229 190 177 168
259.767 -53.363 973.397 190 177 168
259.767 -52.863 973.615 191 179 170
259.767 -52.363 973.944 185 172 163
259.767 -51.863 974.169 173 160 151
259.767 -51.363 974.316 158 145 136
259.767 -50.863 974.421 152 139 133
259.767 -50.363 974.443 141 130 124
259.767 -49.863 974.469 130 119 114
259.767 -49.363 974.498 130 119 116
259.767 -48.863 974.540 138 128 123
260.267 -56.863 972.381 146 133 127
260.267 -56.363 972.569 143 130 122
260.267 -55.863 972.847 156 143 135
260.267 -55.363 972.959 190 177 170
260.267 -54.863 973.061 180 168 158
260.267 -54.363 973.357 170 157 148
260.267 -53.863 973.667 162 149 140
260.267 -53.363 973.885 158 145 136
260.267 -52.863 974.120 184 170 161
260.267 -52.363 974.327 166 152 143
260.267 -51.863 974.503 161 148 139
260.267 -51.363 974.593 172 159 151
260.267 -50.863 974.695 157 144 138
260.267 -50.363 974.787 138 127 121
260.267 -49.863 974.821 133 122 116
260.267 -49.363 974.865 137 126 122
260.267 -48.863 974.905 134 124 119
260.767 -56.863 972.713 161 148 140
260.767 -56.363 972.892 150 137 129
260.767 -55.863 973.042 151 138 130
260.767 -55.363 973.274 164 151 143
260.767 -54.863 973.451 160 147 139
260.767 -54.363 973.769 157 144 136
260.767 -53.863 974.101 151 138 130
260.767 -53.363 974.274 156 143 135
260.767 -52.863 974.481 159 146 138
260.767 -52.363 974.622 157 144 136
260.767 -51.863 974.826 147 134 126
260.767 -51.363 974.918 167 153 145
260.767 -50.863 975.021 153 140 134
260.767 -50.363 975.109 133 121 116
