73.267 1.137 975.623 113 111 112
73.767 0.637 976.584 110 108 110
73.767 1.137 974.640 118 116 113
74.267 0.137 977.304 106 102 103
74.267 0.637 975.551 118 113 112
74.267 1.137 973.484 121 118 116
74.767 0.137 976.086 116 111 112
74.767 0.637 973.882 121 118 116
74.767 1.137 972.203 124 120 119
75.267 -0.363 977.123 113 111 114
75.267 0.137 974.891 119 116 116
75.267 0.637 972.738 123 119 118
75.267 1.137 971.720 125 121 120
75.767 -0.863 977.767 120 117 117
75.767 -0.363 975.751 119 115 116
75.767 0.137 973.481 122 119 117
75.767 0.637 971.994 123 119 118
75.767 1.137 971.217 123 119 118
76.267 -0.863 976.995 122 119 119
76.267 -0.363 974.510 122 119 119
76.267 0.137 972.405 125 121 120
76.267 0.637 971.341 122 119 117
76.267 1.137 970.495 122 119 117
76.767 -0.863 975.666 122 119 118
76.767 -0.363 972.523 119 116 114
76.767 0.137 971.157 110 106 105
76.767 0.637 970.357 107 103 103
76.767 1.137 970.009 113 109 108
77.267 -1.363 976.421 124 120 121
77.267 -0.863 973.721 119 115 116
77.267 -0.363 971.105 113 109 110
77.267 0.137 970.282 108 105 106
77.267 0.637 969.945 104 102 103
77.267 1.137 969.659 112 109 110
77.767 -1.863 976.733 125 121 122
77.767 -1.363 974.238 123 119 120
77.767 -0.863 971.174 118 113 114
77.767 -0.363 970.268 118 113 114
77.767 0.137 969.944 119 117 119
77.767 0.637 969.631 122 120 123
77.767 1.137 969.451 124 122 123
78.267 -2.363 976.931 129 123 123
78.267 -1.863 974.860 124 120 121
78.267 -1.363 971.838 121 118 118
78.267 -0.863 970.404 117 112 113
78.267 -0.363 969.878 121 118 118
78.267 0.137 969.639 122 120 123
78.267 0.637 969.426 124 122 125
78.267 1.137 969.288 126 124 125
78.767 -2.863 977.568 131 125 125
78.767 -2.363 975.599 130 124 124
78.767 -1.863 973.069 126 122 123
78.767 -1.363 970.744 122 119 119
78.767 -0.863 970.021 117 112 113
78.767 -0.363 969.658 121 118 118
78.767 0.137 969.421 122 120 123
78.767 0.637 969.256 124 122 123
78.767 1.137 969.178 126 123 123
79.267 -2.863 975.847 130 124 124
79.267 -2.363 973.746 127 121 121
79.267 -1.863 971.228 125 121 122
79.267 -1.363 970.205 119 115 116
79.267 -0.863 969.805 111 107 108
79.267 -0.363 969.454 115 110 111
79.267 0.137 969.216 120 119 119
79.267 0.637 969.135 123 120 121
79.267 1.137 969.085 124 120 119
79.767 -3.363 976.022 129 125 124
79.767 -2.863 973.943 126 120 120
79.767 -2.363 971.496 123 118 117
79.767 -1.863 970.463 117 112 113
79.767 -1.363 969.956 110 106 107
79.767 -0.863 969.582 106 102 103
79.767 -0.363 969.294 108 104 105
79.767 0.137 969.179 116 111 112
79.767 0.637 969.074 119 115 116
79.767 1.137 969.002 118 113 111
80.267 -3.863 976.631 126 122 121
80.267 -3.363 974.206 124 120 119
80.267 -2.863 971.962 119 113 113
80.267 -2.363 970.608 115 108 108
80.267 -1.863 969.970 109 105 106
80.267 -1.363 969.694 104 100 102
80.267 -0.863 969.496 102 98 99
80.267 -0.363 969.247 103 99 100
80.267 0.137 969.115 106 102 103
80.267 0.637 969.026 106 102 103
80.267 1.137 968.982 106 101 98
80.767 -4.363 977.398 128 122 122
80.767 -3.863 975.438 125 119 119
80.767 -3.363 972.309 121 116 117
80.767 -2.863 970.804 118 111 111
80.767 -2.363 970.108 110 106 107
80.767 -1.863 969.707 107 102 106
80.767 -1.363 969.530 104 99 103
80.767 -0.863 969.309 102 99 103
80.767 -0.363 969.134 101 99 99
80.767 0.137 969.050 104 100 102
80.767 0.637 968.970 102 98 95
80.767 1.137 968.924 111 105 99
81.267 -4.863 977.533 125 119 119
81.267 -4.363 976.212 128 122 122
81.267 -3.863 973.759 120 115 114
81.267 -3.363 971.151 121 116 117
81.267 -2.863 970.325 115 108 109
81.267 -2.363 969.827 113 107 109
81.267 -1.863 969.537 105 100 104
81.267 -1.363 969.327 104 100 103
81.267 -0.863 969.138 104 100 102
81.267 -0.363 969.064 107 104 103
81.267 0.137 968.987 110 104 104
81.267 0.637 968.921 121 117 113
81.267 1.137 968.869 140 134 125
81.767 -5.363 977.751 119 112 114
81.767 -4.863 976.639 128 122 122
81.767 -4.363 974.785 126 120 120
81.767 -3.863 971.864 120 115 114
81.767 -3.363 970.493 117 110 112
81.767 -2.863 969.895 113 107 108
81.767 -2.363 969.494 110 104 106
81.767 -1.863 969.298 109 103 105
81.767 -1.363 969.177 104 100 100
81.767 -0.863 969.067 107 103 103
81.767 -0.363 969.011 121 118 114
81.767 0.137 968.936 128 121 118
81.767 0.637 968.875 137 130 123
81.767 1.137 968.830 172 166 154
82.267 -5.363 977.124 125 119 121
82.267 -4.863 975.847 127 121 121
82.267 -4.363 973.792 123 118 117
82.267 -3.863 970.955 121 116 116
82.267 -3.363 970.000 113 107 109
82.267 -2.863 969.501 107 101 103
82.267 -2.363 969.270 117 110 112
82.267 -1.863 969.112 123 118 119
82.267 -1.363 969.012 111 106 104
82.267 -0.863 968.947 113 108 104
82.267 -0.363 968.909 127 122 117
82.267 0.137 968.870 141 132 126
82.267 0.637 968.837 159 150 141
82.267 1.137 968.795 196 187 175
82.767 -5.863 977.539 122 117 120
82.767 -5.363 976.397 126 120 122
82.767 -4.863 974.963 125 119 119
82.767 -4.363 972.754 124 119 118
82.767 -3.863 970.333 119 113 113
82.767 -3.363 969.562 112 106 108
82.767 -2.863 969.273 109 104 105
82.767 -2.363 969.089 122 117 118
82.767 -1.863 968.969 136 130 130
82.767 -1.363 968.899 115 109 106
82.767 -0.863 968.842 117 111 105
82.767 -0.363 968.792 146 140 131
82.767 0.137 968.774 168 159 149
82.767 0.637 968.764 195 185 173
82.767 1.137 968.754 202 193 178
83.267 -6.363 977.582 122 117 120
83.267 -5.863 976.687 119 112 116
83.267 -5.363 975.393 121 116 117
83.267 -4.863 973.335 123 118 117
83.267 -4.363 971.050 123 118 117
83.267 -3.863 969.712 117 110 110
83.267 -3.363 969.309 112 106 108
83.267 -2.863 969.104 111 107 108
83.267 -2.363 968.945 111 105 107
83.267 -1.863 968.854 110 104 104
83.267 -1.363 968.795 117 111 107
83.267 -0.863 968.737 134 127 120
83.267 -0.363 968.698 180 173 163
83.267 0.137 968.686 194 184 173
83.267 0.637 968.694 208 197 185
83.267 1.137 968.715 203 191 176
83.767 -6.863 977.608 127 123 124
83.767 -6.363 976.756 119 115 116
83.767 -5.863 975.896 121 118 117
83.767 -5.363 974.144 122 119 117
83.767 -4.863 971.531 121 118 116
83.767 -4.363 970.211 120 117 116
83.767 -3.863 969.514 117 112 111
83.767 -3.363 969.173 118 113 112
83.767 -2.863 968.985 116 111 110
83.767 -2.363 968.803 111 105 104
83.767 -1.863 968.702 117 111 108
83.767 -1.363 968.656 128 121 116
83.767 -0.863 968.617 170 161 153
83.767 -0.363 968.619 198 188 178
83.767 0.137 968.626 196 186 173
83.767 0.637 968.627 204 195 178
83.767 1.137 968.623 196 187 171
84.267 -7.363 977.534 127 121 121
84.267 -6.863 976.746 132 126 126
84.267 -6.363 976.017 128 122 122
84.267 -5.863 975.031 127 121 121
84.267 -5.363 972.864 122 117 116
84.267 -4.863 970.791 125 119 119
84.267 -4.363 969.771 122 117 116
84.267 -3.863 969.289 122 117 116
84.267 -3.363 969.073 125 119 119
84.267 -2.863 968.846 120 117 113
84.267 -2.363 968.705 117 111 108
84.267 -1.863 968.634 130 123 119
84.267 -1.363 968.581 150 141 134
84.267 -0.863 968.552 184 175 166
84.267 -0.363 968.556 201 191 181
84.267 0.137 968.563 206 196 182
84.267 0.637 968.555 210 201 184
84.267 1.137 968.542 204 195 178
84.767 -7.863 977.479 132 126 125
84.767 -7.363 976.715 131 125 125
84.767 -6.863 975.976 131 126 123
84.767 -6.363 975.152 128 123 120
84.767 -5.863 973.484 126 121 118
84.767 -5.363 971.589 125 120 117
84.767 -4.863 970.122 128 123 120
84.767 -4.363 969.513 125 120 117
84.767 -3.863 969.125 129 124 121
84.767 -3.363 968.966 131 126 123
84.767 -2.863 968.751 127 122 118
84.767 -2.363 968.599 130 125 121
84.767 -1.863 968.512 145 138 131
84.767 -1.363 968.469 177 168 160
84.767 -0.863 968.460 190 180 171
84.767 -0.363 968.452 197 186 176
84.767 0.137 968.442 205 196 181
84.767 0.637 968.416 208 199 182
84.767 1.137 968.393 210 201 184
85.267 -8.363 977.072 142 135 133
85.267 -7.863 976.555 140 133 130
85.267 -7.363 975.810 139 132 129
85.267 -6.863 975.073 139 132 129
85.267 -6.363 973.822 135 128 125
85.267 -5.863 971.977 131 124 121
85.267 -5.363 970.834 136 129 126
85.267 -4.863 969.733 137 130 127
85.267 -4.363 969.300 134 127 122
85.267 -3.863 968.967 139 132 127
85.267 -3.363 968.759 137 131 125
85.267 -2.863 968.566 135 128 121
85.267 -2.363 968.411 144 135 128
85.267 -1.863 968.375 180 171 162
85.267 -1.363 968.330 202 193 182
85.267 -0.863 968.314 199 188 176
85.267 -0.363 968.290 203 191 178
85.267 0.137 968.288 206 197 182
85.267 0.637 968.290 207 198 181
85.267 1.137 968.267 210 201 184
85.767 -8.363 976.180 148 138 136
85.767 -7.863 975.396 140 131 126
85.767 -7.363 974.524 148 139 134
85.767 -6.863 973.844 150 141 136
85.767 -6.363 972.558 146 137 134
85.767 -5.863 971.315 142 132 130
85.767 -5.363 970.351 144 134 132
85.767 -4.863 969.543 144 135 130
85.767 -4.363 969.151 147 138 131
85.767 -3.863 968.774 151 142 135
85.767 -3.363 968.547 152 143 136
85.767 -2.863 968.313 156 147 138
85.767 -2.363 968.222 195 185 175
85.767 -1.863 968.202 209 199 188
85.767 -1.363 968.172 210 200 188
85.767 -0.863 968.161 207 197 182
85.767 -0.363 968.141 209 197 181
85.767 0.137 968.121 206 197 182
85.767 0.637 968.125 208 199 182
85.767 1.137 968.138 210 201 184
86.267 -8.363 974.432 157 148 143
86.267 -7.863 973.700 155 146 141
86.267 -7.363 972.931 152 143 138
86.267 -6.863 972.418 161 152 145
86.267 -6.363 971.214 151 141 137
86.267 -5.863 970.364 138 128 126
86.267 -5.363 969.649 140 131 126
86.267 -4.863 969.159 147 138 132
86.267 -4.363 968.793 160 151 143
86.267 -3.863 968.429 183 173 164
86.267 -3.363 968.190 187 179 168
86.267 -2.863 968.029 199 189 178
86.267 -2.363 968.011 210 200 188
86.267 -1.863 967.984 211 201 189
86.267 -1.363 967.920 213 201 187
86.267 -0.863 967.897 212 200 185
86.267 -0.363 967.902 211 199 183
86.267 0.137 967.946 209 200 185
86.267 0.637 967.963 209 200 183
86.267 1.137 967.991 212 203 186
86.767 -8.363 972.748 153 143 139
86.767 -7.863 972.074 153 144 139
86.767 -7.363 971.403 167 157 150
86.767 -6.863 970.977 168 158 151
86.767 -6.363 970.096 164 155 150
86.767 -5.863 969.541 151 142 137
86.767 -5.363 968.897 146 137 129
86.767 -4.863 968.545 153 144 135
86.767 -4.363 968.133 184 174 165
86.767 -3.863 967.860 197 189 178
86.767 -3.363 967.761 201 193 180
86.767 -2.863 967.682 203 193 180
86.767 -2.363 967.664 207 198 183
86.767 -1.863 967.652 212 201 187
86.767 -1.363 967.632 215 204 190
86.767 -0.863 967.637 214 203 187
86.767 -0.363 967.655 215 204 188
86.767 0.137 967.714 213 204 189
86.767 0.637 967.752 212 203 186
86.767 1.137 967.765 213 204 187
87.267 -8.363 971.233 144 134 132
87.267 -7.863 970.812 153 144 139
87.267 -7.363 969.962 156 147 140
87.267 -6.863 969.654 166 155 146
87.267 -6.363 969.055 172 161 155
87.267 -5.863 968.571 158 147 140
87.267 -5.363 968.101 160 150 140
87.267 -4.863 967.752 181 171 160
87.767 -8.363 969.639 153 144 141
87.767 -7.863 969.250 153 144 139
87.767 -7.363 968.652 151 142 135
87.767 -6.863 968.301 169 159 150
87.767 -6.363 967.893 168 154 146
88.267 -8.363 968.136 152 142 140
88.267 -7.863 967.827 144 135 130
51.767 10.137 977.564 124 120 121
51.767 10.637 977.445 119 115 116
52.267 9.137 977.696 122 120 121
52.267 9.637 977.513 128 124 125
52.267 10.137 977.406 134 130 131
52.267 10.637 977.168 133 129 130
52.767 1.637 977.567 148 143 139
52.767 2.137 977.452 159 154 150
52.767 2.637 977.335 158 153 149
52.767 3.137 977.286 152 148 143
52.767 3.637 977.312 152 147 143
52.767 4.137 977.285 144 139 135
52.767 4.637 977.277 149 144 140
52.767 5.137 977.413 168 162 157
52.767 5.637 977.602 156 151 145
52.767 6.137 977.698 157 152 146
52.767 8.137 977.595 122 118 121
52.767 8.637 977.390 125 121 122
52.767 9.137 977.280 125 121 122
52.767 9.637 977.108 132 128 130
52.767 10.137 976.948 136 132 134
52.767 10.637 976.753 140 136 137
53.267 1.637 977.001 144 139 135
53.267 2.137 976.832 141 136 132
53.267 2.637 976.650 159 154 150
53.267 3.137 976.464 172 168 163
53.267 3.637 976.361 141 136 132
53.267 4.137 976.454 136 131 127
53.267 4.637 976.645 150 145 141
53.267 5.137 976.848 183 177 173
53.267 5.637 976.976 158 153 147
53.267 6.137 977.090 153 148 142
53.267 6.637 977.157 144 139 135
53.267 7.137 977.212 136 131 129
53.267 7.637 977.243 124 119 120
53.267 8.137 977.162 118 111 113
53.267 8.637 976.988 121 118 118
53.267 9.137 976.875 136 132 133
53.267 9.637 976.768 141 136 139
53.267 10.137 976.573 135 130 134
53.267 10.637 976.407 125 120 124
53.767 1.637 976.399 126 121 117
53.767 2.137 976.317 123 119 114
53.767 2.637 976.214 132 127 123
53.767 3.137 976.115 140 133 130
53.767 3.637 976.050 130 125 121
53.767 4.137 976.036 132 127 123
53.767 4.637 976.034 147 142 138
53.767 5.137 976.098 197 192 187
53.767 5.637 976.308 185 180 174
53.767 6.137 976.431 157 152 146
53.767 6.637 976.481 156 149 143
53.767 7.137 976.699 149 142 139
53.767 7.637 976.825 130 124 124
53.767 8.137 976.823 121 116 117
53.767 8.637 976.721 126 120 122
53.767 9.137 976.591 126 122 123
53.767 9.637 976.440 124 120 123
53.767 10.137 976.324 125 120 124
53.767 10.637 976.014 121 117 120
54.267 1.637 976.090 132 127 124
54.267 2.137 975.917 139 134 131
54.267 2.637 975.815 121 113 111
54.267 3.137 975.699 126 119 116
54.267 3.637 975.578 128 123 119
54.267 4.137 975.528 135 130 126
54.267 4.637 975.555 157 152 148
54.267 5.137 975.593 174 169 164
54.267 5.637 975.715 181 176 171
54.267 6.137 975.814 158 153 147
54.267 6.637 975.996 142 135 129
54.267 7.137 976.213 145 138 134
54.267 7.637 976.296 130 124 124
54.267 8.137 976.280 127 121 123
54.267 8.637 976.191 124 119 120
54.267 9.137 975.997 125 119 121
54.267 9.637 975.891 124 119 123
54.267 10.137 975.727 119 113 117
54.267 10.637 975.530 118 112 116
54.767 1.637 975.832 132 127 124
54.767 2.137 975.629 142 134 131
54.767 2.637 975.467 127 119 116
54.767 3.137 975.355 135 128 124
54.767 3.637 975.313 130 125 121
54.767 4.137 975.301 130 125 121
54.767 4.637 975.299 154 149 145
54.767 5.137 975.331 176 171 166
54.767 5.637 975.377 185 179 173
54.767 6.137 975.439 170 166 159
54.767 6.637 975.600 160 152 145
54.767 7.137 975.722 147 139 134
54.767 7.637 975.779 139 133 130
54.767 8.137 975.815 129 123 124
54.767 8.637 975.823 124 119 120
54.767 9.137 975.784 129 124 126
54.767 9.637 975.658 122 118 121
54.767 10.137 975.498 119 113 118
54.767 10.637 975.379 119 113 117
55.267 1.637 975.537 132 127 124
55.267 2.137 975.366 139 133 129
55.267 2.637 975.181 141 133 129
55.267 3.137 975.016 150 144 138
55.267 3.637 974.898 137 132 127
55.267 4.137 974.875 126 121 117
55.267 4.637 974.869 129 124 121
55.267 5.137 974.883 163 157 154
55.267 5.637 974.954 168 159 156
55.267 6.137 975.081 168 160 154
55.267 6.637 975.207 162 153 148
55.267 7.137 975.283 152 144 139
55.267 7.637 975.328 134 126 124
55.267 8.137 975.394 124 119 118
55.267 8.637 975.390 124 120 120
55.267 9.137 975.370 125 120 122
55.267 9.637 975.275 121 119 121
55.267 10.137 975.214 117 115 117
55.267 10.637 975.076 118 116 120
55.767 1.637 975.066 134 129 126
55.767 2.137 974.912 150 145 142
55.767 2.637 974.850 139 134 130
55.767 3.137 974.714 147 142 138
55.767 3.637 974.524 135 132 127
55.767 4.137 974.455 130 125 122
55.767 4.637 974.431 129 123 123
55.767 5.137 974.458 132 127 125
55.767 5.637 974.504 145 138 135
55.767 6.137 974.667 154 146 143
55.767 6.637 974.810 154 145 140
55.767 7.137 974.863 163 155 152
55.767 7.637 974.808 154 146 144
55.767 8.137 974.912 139 134 131
55.767 8.637 974.893 132 126 126
55.767 9.137 974.848 129 125 126
55.767 9.637 974.811 122 120 122
55.767 10.137 974.721 119 118 120
55.767 10.637 974.549 119 118 120
56.267 1.637 974.776 127 123 122
56.267 2.137 974.622 133 128 125
56.267 2.637 974.501 133 128 125
56.267 3.137 974.363 132 127 124
56.267 3.637 974.214 132 128 125
56.267 4.137 974.150 130 126 125
56.267 4.637 974.100 127 121 121
56.267 5.137 974.137 123 118 117
56.267 5.637 974.244 137 131 129
56.267 6.137 974.344 140 134 131
56.267 6.637 974.371 144 136 133
56.267 7.137 974.424 146 138 135
56.267 7.637 974.443 158 150 148
56.267 8.137 974.436 162 157 154
56.267 8.637 974.430 141 135 135
56.267 9.137 974.427 131 125 125
56.267 9.637 974.326 131 127 128
56.267 10.137 974.220 123 119 120
56.267 10.637 974.126 120 116 119
56.767 1.637 974.574 115 111 112
56.767 2.137 974.423 122 119 118
56.767 2.637 974.223 132 128 128
56.767 3.137 973.972 135 131 129
56.767 3.637 973.839 135 131 130
56.767 4.137 973.775 134 130 131
56.767 4.637 973.754 127 122 124
56.767 5.137 973.751 123 118 119
56.767 5.637 973.810 128 122 122
56.767 6.137 973.978 135 130 127
56.767 6.637 974.046 139 131 129
56.767 7.137 974.082 135 128 125
56.767 7.637 974.084 144 139 136
56.767 8.137 974.057 163 158 155
56.767 8.637 974.022 152 147 144
56.767 9.137 974.019 138 133 130
56.767 9.637 973.873 139 135 134
56.767 10.137 973.814 127 123 124
56.767 10.637 973.794 122 119 119
57.267 1.637 974.285 100 98 102
57.267 2.137 973.993 106 104 106
57.267 2.637 973.777 120 118 118
57.267 3.137 973.607 133 130 130
57.267 3.637 973.483 118 115 116
57.267 4.137 973.389 126 121 124
57.267 4.637 973.341 120 116 119
57.267 5.137 973.343 120 115 118
57.267 5.637 973.343 126 120 122
57.267 6.137 973.329 130 124 126
57.267 6.637 973.448 138 131 132
57.267 7.137 973.655 133 127 126
57.267 7.637 973.734 135 130 127
57.267 8.137 973.668 153 148 145
57.267 8.637 973.595 155 150 147
57.267 9.137 973.569 151 146 142
57.267 9.637 973.527 141 137 136
57.267 10.137 973.463 128 124 123
57.267 10.637 973.389 123 119 118
57.767 1.637 973.969 94 92 96
57.767 2.137 973.644 92 91 94
57.767 2.637 973.424 100 98 102
57.767 3.137 973.305 118 116 116
57.767 3.637 973.158 109 107 110
57.767 4.137 973.008 110 105 109
57.767 4.637 972.911 107 102 108
57.767 5.137 972.874 113 108 113
57.767 5.637 972.859 128 122 126
57.767 6.137 972.824 126 120 123
57.767 6.637 972.838 134 128 128
57.767 7.137 973.058 134 128 128
57.767 7.637 973.247 129 123 121
57.767 8.137 973.287 142 137 134
57.767 8.637 973.276 156 148 145
57.767 9.137 973.273 160 152 149
57.767 9.637 973.232 153 147 147
57.767 10.137 973.093 145 139 139
57.767 10.637 972.998 129 123 123
58.267 1.637 973.692 94 95 100
58.267 2.137 973.448 92 92 97
58.267 2.637 973.253 92 92 96
58.267 3.137 973.063 101 101 106
58.267 3.637 972.878 102 100 105
58.267 4.137 972.745 94 92 97
58.267 4.637 972.611 92 91 95
58.267 5.137 972.516 101 99 104
58.267 5.637 972.472 117 115 119
58.267 6.137 972.483 120 118 122
58.267 6.637 972.570 129 124 127
58.267 7.137 972.678 129 125 126
58.267 7.637 972.730 125 119 119
58.267 8.137 972.784 138 130 128
58.267 8.637 972.820 153 145 142
58.267 9.137 972.859 163 154 151
58.267 9.637 972.822 170 162 159
58.267 10.137 972.746 156 148 145
58.267 10.637 972.691 138 130 127
58.767 1.637 973.404 95 96 102
58.767 2.137 973.176 93 94 99
58.767 2.637 972.943 92 92 97
58.767 3.137 972.662 97 97 103
58.767 3.637 972.475 102 100 105
58.767 4.137 972.402 98 96 102
58.767 4.637 972.328 93 92 96
58.767 5.137 972.248 92 91 95
58.767 5.637 972.146 98 96 102
58.767 6.137 972.150 111 109 114
58.767 6.637 972.189 125 121 125
58.767 7.137 972.235 124 120 123
58.767 7.637 972.330 126 120 121
58.767 8.137 972.391 131 125 125
58.767 8.637 972.388 141 133 131
58.767 9.137 972.361 150 142 139
58.767 9.637 972.289 166 157 154
58.767 10.137 972.244 164 156 153
58.767 10.637 972.194 143 135 132
59.267 1.637 973.178 93 94 99
59.267 2.137 972.901 92 93 98
59.267 2.637 972.645 93 94 99
59.267 3.137 972.404 98 98 104
59.267 3.637 972.229 100 99 107
59.267 4.137 972.092 98 98 105
59.267 4.637 972.001 92 92 98
59.267 5.137 971.906 91 90 97
59.267 5.637 971.800 88 88 95
59.267 6.137 971.753 92 92 99
59.267 6.637 971.748 108 106 111
59.267 7.137 971.740 119 117 121
59.267 7.637 971.844 122 118 121
59.267 8.137 971.922 128 124 124
59.267 8.637 971.860 136 130 129
59.267 9.137 971.789 141 134 132
59.267 9.637 971.691 146 138 136
59.267 10.137 971.624 158 150 148
59.267 10.637 971.609 149 143 140
59.767 1.637 972.944 97 98 103
59.767 2.137 972.642 96 97 103
59.767 2.637 972.368 96 97 103
59.767 3.137 972.211 94 94 100
59.767 3.637 972.039 93 93 102
59.767 4.137 971.848 101 101 109
59.767 4.637 971.730 100 100 108
59.767 5.137 971.558 92 92 100
59.767 5.637 971.398 86 86 94
59.767 6.137 971.368 86 86 94
59.767 6.637 971.359 91 90 95
59.767 7.137 971.308 102 101 106
59.767 7.637 971.315 118 116 120
59.767 8.137 971.353 126 121 125
59.767 8.637 971.308 135 131 132
59.767 9.137 971.271 137 131 131
59.767 9.637 971.175 135 130 128
59.767 10.137 971.111 138 133 130
59.767 10.637 971.101 148 143 140
60.267 1.637 972.753 96 97 103
60.267 2.137 972.378 100 101 106
60.267 2.637 972.102 98 99 104
60.267 3.137 971.932 91 92 97
60.267 3.637 971.777 95 95 103
60.267 4.137 971.560 102 102 110
60.267 4.637 971.376 103 103 111
60.267 5.137 971.194 95 95 103
60.267 5.637 971.000 87 87 95
60.267 6.137 970.937 85 85 94
60.267 6.637 970.918 86 85 94
60.267 7.137 970.884 88 87 94
60.267 7.637 970.911 105 103 108
60.267 8.137 970.931 119 117 121
60.267 8.637 970.843 123 119 122
60.267 9.137 970.775 120 117 117
60.267 9.637 970.549 133 127 126
60.267 10.137 970.513 145 140 137
60.267 10.637 970.512 147 142 139
60.767 1.637 972.628 92 93 98
60.767 2.137 972.214 95 96 102
60.767 2.637 971.938 97 98 103
60.767 3.137 971.708 93 94 100
60.767 3.637 971.500 93 93 100
60.767 4.137 971.282 101 101 108
60.767 4.637 971.066 108 107 116
60.767 5.137 970.863 102 102 110
60.767 5.637 970.711 92 92 100
60.767 6.137 970.643 84 84 93
60.767 6.637 970.609 85 85 95
60.767 7.137 970.548 87 87 95
60.767 7.637 970.450 92 92 98
60.767 8.137 970.399 105 103 108
60.767 8.637 970.351 118 116 119
60.767 9.137 970.307 123 119 122
60.767 9.637 970.071 136 131 131
60.767 10.137 970.032 151 146 143
60.767 10.637 969.995 139 134 131
61.267 1.637 972.571 93 95 100
61.267 2.137 972.210 93 95 102
61.267 2.637 971.835 93 96 103
61.267 3.137 971.466 97 97 104
61.267 3.637 971.271 94 95 100
61.267 4.137 971.062 95 96 102
61.267 4.637 970.834 101 101 106
61.267 5.137 970.675 103 103 110
61.267 5.637 970.530 104 103 111
61.267 6.137 970.433 92 92 98
61.267 6.637 970.366 86 88 97
61.267 7.137 970.258 88 88 97
61.267 7.637 970.114 88 87 94
61.267 8.137 970.003 93 92 98
61.267 8.637 969.864 103 100 107
61.267 9.137 969.790 113 108 114
61.267 9.637 969.697 129 124 126
61.267 10.137 969.585 138 130 132
61.267 10.637 969.520 135 127 127
61.767 1.637 972.583 97 98 103
61.767 2.137 972.250 94 97 104
61.767 2.637 971.841 92 95 103
61.767 3.137 971.384 93 95 103
61.767 3.637 971.103 96 97 103
61.767 4.137 970.863 96 97 103
61.767 4.637 970.667 97 98 103
61.767 5.137 970.504 94 94 103
61.767 5.637 970.327 104 104 112
61.767 6.137 970.188 108 108 116
61.767 6.637 970.051 96 99 108
61.767 7.137 969.891 92 92 100
61.767 7.637 969.779 88 87 95
61.767 8.137 969.650 87 86 94
61.767 8.637 969.477 92 90 96
61.767 9.137 969.377 101 98 105
61.767 9.637 969.276 119 112 116
61.767 10.137 969.171 125 119 121
61.767 10.637 969.139 133 127 129
62.267 1.637 972.631 96 97 103
62.267 2.137 972.262 92 95 100
62.267 2.637 971.878 93 96 103
62.267 3.137 971.417 93 95 102
62.267 3.637 971.047 95 96 102
62.267 4.137 970.758 93 94 99
62.267 4.637 970.554 92 92 97
62.267 5.137 970.348 92 92 99
62.267 5.637 970.154 93 93 102
62.267 6.137 969.942 98 98 106
62.267 6.637 969.758 95 98 105
62.267 7.137 969.588 96 96 104
62.267 7.637 969.452 96 96 104
62.267 8.137 969.300 95 94 103
62.267 8.637 969.171 86 85 92
62.267 9.137 968.996 91 87 94
62.267 9.637 968.830 103 98 104
62.267 10.137 968.772 117 110 114
62.267 10.637 968.759 130 124 126
62.767 1.637 972.666 96 97 103
62.767 2.137 972.248 93 94 99
62.767 2.637 971.898 93 94 99
62.767 3.137 971.459 92 94 99
62.767 3.637 971.053 93 94 99
62.767 4.137 970.697 91 92 96
62.767 4.637 970.424 90 91 95
62.767 5.137 970.201 91 91 98
62.767 5.637 969.946 92 92 99
62.767 6.137 969.658 95 95 103
62.767 6.637 969.488 95 95 103
62.767 7.137 969.334 92 92 100
62.767 7.637 969.179 97 97 105
62.767 8.137 969.008 101 100 108
62.767 8.637 968.856 87 86 94
62.767 9.137 968.533 85 84 93
62.767 9.637 968.336 93 91 97
62.767 10.137 968.277 105 100 106
62.767 10.637 968.260 125 120 124
63.267 1.637 972.818 98 97 103
63.267 2.137 972.313 96 97 103
63.267 2.637 971.939 95 96 102
63.267 3.137 971.458 94 95 100
63.267 3.637 971.039 92 92 97
63.267 4.137 970.672 90 91 95
63.267 4.637 970.352 90 91 95
63.267 5.137 970.082 91 91 98
63.267 5.637 969.771 92 92 100
63.267 6.137 969.465 93 93 102
63.267 6.637 969.262 88 90 95
63.267 7.137 969.029 87 87 94
63.267 7.637 968.870 98 98 105
63.267 8.137 968.738 104 104 112
63.267 8.637 968.473 90 90 97
63.267 9.137 968.155 86 85 94
63.267 9.637 967.938 87 86 94
63.267 10.137 967.816 92 90 95
63.267 10.637 967.766 108 106 111
63.767 1.637 973.086 99 98 103
63.767 2.137 972.604 97 98 103
63.767 2.637 972.160 95 96 102
63.767 3.137 971.539 94 95 100
63.767 3.637 971.075 91 92 96
63.767 4.137 970.688 90 91 95
63.767 4.637 970.351 90 91 95
63.767 5.137 970.027 91 91 98
63.767 5.637 969.707 92 92 100
63.767 6.137 969.379 92 92 100
63.767 6.637 969.063 92 93 98
63.767 7.137 968.768 91 92 96
63.767 7.637 968.609 96 96 104
63.767 8.137 968.392 94 94 103
63.767 8.637 968.040 92 92 100
63.767 9.137 967.851 90 90 98
63.767 9.637 967.700 86 86 94
64.267 1.637 973.489 103 102 107
64.267 2.137 972.965 102 101 106
64.267 2.637 972.374 97 98 103
64.267 3.137 971.745 95 96 102
64.267 3.637 971.311 91 92 96
64.267 4.137 970.792 91 92 96
64.267 4.637 970.357 91 92 96
64.267 5.137 969.935 92 92 99
64.267 5.637 969.618 92 92 100
64.267 6.137 969.292 93 93 102
64.267 6.637 968.904 94 95 100
64.267 7.137 968.639 94 95 100
64.267 7.637 968.371 95 95 103
64.267 8.137 968.017 92 92 100
64.267 8.637 967.692 92 94 102
64.767 1.637 973.966 106 106 108
64.767 2.137 973.273 104 104 106
64.767 2.637 972.525 101 101 103
64.767 3.137 971.972 97 97 100
64.767 3.637 971.558 96 95 100
64.767 4.137 970.901 94 93 98
64.767 4.637 970.395 92 92 97
64.767 5.137 969.893 94 94 99
64.767 5.637 969.542 95 96 102
64.767 6.137 969.240 95 95 103
64.767 6.637 968.868 94 94 103
64.767 7.137 968.493 96 96 104
64.767 7.637 968.063 97 97 105
64.767 8.137 967.719 95 95 103
65.267 1.637 974.313 107 107 109
65.267 2.137 973.598 106 106 108
65.267 2.637 972.778 104 104 106
65.267 3.137 972.157 99 99 103
65.267 3.637 971.633 95 94 99
65.267 4.137 970.939 93 92 97
65.267 4.637 970.455 92 92 97
65.267 5.137 970.010 94 93 99
65.267 5.637 969.588 96 97 103
65.267 6.137 969.220 98 99 104
65.267 6.637 968.816 95 96 103
65.267 7.137 968.328 93 94 100
65.267 7.637 967.840 94 95 102
65.767 1.637 974.625 108 108 111
65.767 2.137 973.799 108 108 110
65.767 2.637 973.031 107 107 109
65.767 3.137 972.438 103 103 105
65.767 3.637 971.836 98 98 100
65.767 4.137 971.108 97 97 99
65.767 4.637 970.598 95 94 99
65.767 5.137 970.139 96 96 102
65.767 5.637 969.653 98 99 103
65.767 6.137 969.225 103 104 108
65.767 6.637 968.780 100 101 106
65.767 7.137 968.292 95 96 102
65.767 7.637 967.737 93 94 99
66.267 1.637 975.007 107 106 111
66.267 2.137 974.095 108 108 110
66.267 2.637 973.337 110 110 112
66.267 3.137 972.742 106 106 107
66.267 3.637 972.139 104 104 106
66.267 4.137 971.392 105 105 107
66.267 4.637 970.838 100 100 103
66.267 5.137 970.305 102 103 105
66.267 5.637 969.735 103 104 108
66.267 6.137 969.271 104 105 109
66.267 6.637 968.788 103 104 109
66.267 7.137 968.328 97 98 103
66.267 7.637 967.730 94 95 100
66.767 1.637 975.560 105 104 109
66.767 2.137 974.561 108 108 110
66.767 2.637 973.753 109 109 111
66.767 3.137 973.045 108 108 108
66.767 3.637 972.388 107 107 107
66.767 4.137 971.690 108 108 108
66.767 4.637 971.036 107 107 108
66.767 5.137 970.424 106 106 108
66.767 5.637 969.852 104 105 107
66.767 6.137 969.359 104 105 107
66.767 6.637 968.856 105 106 111
66.767 7.137 968.379 103 104 109
66.767 7.637 967.755 94 95 100
67.267 1.637 976.121 102 101 106
67.267 2.137 975.111 105 105 107
67.267 2.637 974.193 108 108 110
67.267 3.137 973.384 113 113 113
67.267 3.637 972.686 115 115 114
67.267 4.137 972.044 113 113 113
67.267 4.637 971.263 111 111 111
67.267 5.137 970.596 110 111 111
67.267 5.637 970.039 107 108 110
67.267 6.137 969.467 107 108 110
67.267 6.637 968.943 107 108 112
67.267 7.137 968.421 106 107 111
67.267 7.637 967.826 102 103 107
67.767 1.637 976.643 101 100 106
67.767 2.137 975.498 101 100 105
67.767 2.637 974.420 108 106 109
67.767 3.137 973.615 118 116 116
67.767 3.637 972.971 122 120 121
67.767 4.137 972.387 121 121 121
67.767 4.637 971.552 119 119 118
67.767 5.137 970.785 118 118 117
67.767 5.637 970.164 117 119 117
67.767 6.137 969.534 115 116 116
67.767 6.637 969.084 111 112 116
67.767 7.137 968.546 108 109 113
67.767 7.637 967.924 109 110 114
68.267 1.637 977.027 95 94 100
68.267 2.137 975.740 100 99 104
68.267 2.637 974.562 110 108 111
68.267 3.137 973.778 120 119 119
68.267 3.637 973.079 125 124 122
68.267 4.137 972.494 125 124 122
68.267 4.637 971.701 123 123 121
68.267 5.137 970.898 125 125 123
68.267 5.637 970.240 122 122 120
68.267 6.137 969.627 118 119 117
68.267 6.637 969.192 113 115 118
68.267 7.137 968.644 109 110 114
68.267 7.637 968.053 109 110 114
68.767 1.637 977.223 94 93 99
68.767 2.137 975.756 99 98 103
68.767 2.637 974.440 110 108 111
68.767 3.137 973.682 121 119 119
68.767 3.637 973.048 123 122 120
68.767 4.137 972.427 130 129 127
68.767 4.637 971.678 129 129 127
68.767 5.137 970.927 129 129 127
68.767 5.637 970.331 128 128 126
68.767 6.137 969.762 125 125 123
68.767 6.637 969.270 122 123 125
68.767 7.137 968.772 119 119 121
68.767 7.637 968.229 113 115 116
68.767 8.137 967.784 117 118 118
69.267 1.637 977.197 94 93 100
69.267 2.137 975.641 100 99 104
69.267 2.637 974.302 112 110 113
69.267 3.137 973.485 124 122 122
69.267 3.637 972.882 123 121 120
69.267 4.137 972.187 129 128 126
69.267 4.637 971.493 127 126 124
69.267 5.137 970.884 126 126 124
69.267 5.637 970.325 128 128 126
69.267 6.137 969.796 127 127 125
69.267 6.637 969.311 126 127 127
69.267 7.137 968.861 126 126 126
69.267 7.637 968.348 121 122 122
69.267 8.137 967.929 122 123 123
69.767 1.637 977.178 92 91 96
69.767 2.137 975.580 103 102 107
69.767 2.637 974.219 116 113 116
69.767 3.137 973.356 123 121 121
69.767 3.637 972.566 125 121 118
69.767 4.137 971.732 124 120 117
69.767 4.637 971.148 123 122 118
69.767 5.137 970.750 125 124 120
69.767 5.637 970.276 129 128 124
69.767 6.137 969.756 129 130 126
69.767 6.637 969.300 127 127 125
69.767 7.137 968.870 126 126 124
69.767 7.637 968.390 126 126 124
69.767 8.137 968.004 125 125 123
69.767 8.637 967.778 125 125 123
70.267 1.637 977.160 92 92 97
70.267 2.137 975.471 104 103 108
70.267 2.637 973.935 119 117 119
70.267 3.137 972.991 127 125 123
70.267 3.637 972.063 127 123 120
70.267 4.137 971.247 124 120 117
70.267 4.637 970.831 124 123 119
70.267 5.137 970.583 128 127 123
70.267 5.637 970.072 129 128 124
70.267 6.137 969.495 126 125 121
70.267 6.637 969.166 126 127 122
70.267 7.137 968.809 127 128 123
70.267 7.637 968.395 128 129 124
70.267 8.137 968.057 128 129 124
70.267 8.637 967.845 128 129 124
70.767 1.637 977.002 92 90 96
70.767 2.137 975.397 106 105 109
70.767 2.637 973.495 120 119 119
70.767 3.137 972.417 126 125 122
70.767 3.637 971.591 126 125 121
70.767 4.137 970.941 125 124 120
70.767 4.637 970.613 125 125 120
70.767 5.137 970.317 127 126 122
70.767 5.637 969.860 128 127 123
70.767 6.137 969.391 126 126 121
70.767 6.637 969.102 125 125 121
70.767 7.137 968.775 127 128 124
70.767 7.637 968.402 128 128 124
70.767 8.137 968.115 127 127 122
70.767 8.637 967.878 127 128 122
70.767 9.137 967.654 131 132 126
71.267 1.637 976.893 96 93 102
71.267 2.137 975.127 112 110 113
71.267 2.637 972.952 122 121 119
71.267 3.137 971.918 128 127 123
71.267 3.637 971.228 128 128 124
71.267 4.137 970.771 124 124 120
71.267 4.637 970.421 124 124 119
71.267 5.137 970.052 125 125 120
71.267 5.637 969.716 126 125 121
71.267 6.137 969.413 127 126 122
71.267 6.637 969.112 128 127 125
71.267 7.137 968.763 129 129 126
71.267 7.637 968.467 129 128 123
71.267 8.137 968.190 128 128 122
71.267 8.637 967.960 125 125 117
71.267 9.137 967.722 137 135 126
71.767 1.637 976.569 105 103 108
71.767 2.137 974.730 120 119 120
71.767 2.637 972.636 123 122 119
71.767 3.137 971.603 127 126 121
71.767 3.637 970.924 125 124 120
71.767 4.137 970.518 124 123 119
71.767 4.637 970.199 123 122 118
71.767 5.137 969.815 123 122 118
71.767 5.637 969.551 124 123 119
71.767 6.137 969.361 128 127 123
71.767 6.637 968.999 129 128 126
71.767 7.137 968.703 129 128 124
71.767 7.637 968.488 128 127 122
71.767 8.137 968.225 130 127 120
71.767 8.637 968.074 130 128 118
71.767 9.137 967.815 146 144 132
71.767 9.637 967.647 190 187 174
72.267 1.637 975.693 112 110 112
72.267 2.137 973.666 120 119 117
72.267 2.637 972.173 125 122 117
72.267 3.137 971.238 123 121 116
72.267 3.637 970.547 119 118 113
72.267 4.137 970.185 121 120 116
72.267 4.637 969.929 125 124 120
72.267 5.137 969.618 122 121 117
72.267 5.637 969.394 119 119 114
72.267 6.137 969.195 121 120 116
72.267 6.637 968.909 124 123 119
72.267 7.137 968.676 128 127 122
72.267 7.637 968.503 131 128 121
72.267 8.137 968.323 132 130 120
72.267 8.637 968.159 139 135 124
72.267 9.137 967.950 152 148 136
72.267 9.637 967.739 184 179 163
72.767 1.637 974.733 118 116 113
72.767 2.137 972.727 123 119 116
72.767 2.637 971.449 124 121 116
72.767 3.137 970.694 117 115 110
72.767 3.637 970.227 119 118 113
72.767 4.137 969.927 124 122 118
72.767 4.637 969.672 129 127 123
72.767 5.137 969.489 124 122 118
72.767 5.637 969.289 119 117 113
72.767 6.137 969.111 116 115 110
72.767 6.637 968.953 117 116 111
72.767 7.137 968.724 120 119 113
72.767 7.637 968.547 125 122 113
72.767 8.137 968.432 141 137 126
72.767 8.637 968.296 158 154 140
72.767 9.137 968.101 168 161 146
72.767 9.637 967.810 184 177 159
73.267 1.637 973.632 119 116 114
73.267 2.137 972.006 122 119 116
73.267 2.637 971.043 120 117 116
73.267 3.137 970.452 118 113 111
73.267 3.637 970.001 123 119 116
73.267 4.137 969.776 127 123 120
73.267 4.637 969.603 129 125 122
73.267 5.137 969.415 127 123 120
73.267 5.637 969.228 121 118 114
73.267 6.137 969.093 117 112 109
73.267 6.637 968.962 111 110 105
73.267 7.137 968.801 113 111 104
73.267 7.637 968.640 123 119 110
73.267 8.137 968.500 163 158 146
73.267 8.637 968.372 177 170 154
73.267 9.137 968.199 174 168 150
73.267 9.637 967.940 181 174 155
73.267 10.137 967.708 191 184 165
73.767 1.637 972.843 122 119 116
73.767 2.137 971.564 120 117 116
73.767 2.637 970.806 119 115 113
73.767 3.137 970.292 122 118 116
73.767 3.637 969.912 126 122 119
73.767 4.137 969.687 124 120 117
73.767 4.637 969.524 120 117 113
73.767 5.137 969.316 121 118 114
73.767 5.637 969.163 119 115 111
73.767 6.137 969.088 119 115 111
73.767 6.637 969.011 117 116 110
73.767 7.137 968.897 120 118 109
73.767 7.637 968.715 146 142 131
73.767 8.137 968.608 179 173 160
73.767 8.637 968.522 183 175 159
73.767 9.137 968.326 183 173 156
73.767 9.637 968.145 184 176 157
73.767 10.137 967.853 187 179 161
74.267 1.637 971.962 121 118 116
74.267 2.137 970.998 120 117 116
74.267 2.637 970.450 120 117 116
74.267 3.137 970.049 125 122 120
74.267 3.637 969.767 125 124 120
74.267 4.137 969.596 119 118 116
74.267 4.637 969.453 111 110 108
74.267 5.137 969.263 116 111 109
74.267 5.637 969.134 115 110 106
74.267 6.137 969.072 118 115 108
74.267 6.637 969.045 123 119 110
74.267 7.137 968.974 135 128 118
74.267 7.637 968.833 173 168 151
74.267 8.137 968.718 191 184 166
74.267 8.637 968.623 187 179 160
74.267 9.137 968.470 187 179 159
74.267 9.637 968.247 184 175 158
74.267 10.137 968.046 181 174 156
74.267 10.637 967.734 183 175 157
74.767 1.637 971.122 125 121 120
74.767 2.137 970.631 120 117 116
74.767 2.637 970.223 127 123 122
74.767 3.137 969.820 121 119 117
74.767 3.637 969.618 122 121 119
74.767 4.137 969.512 116 115 112
74.767 4.637 969.365 115 110 109
74.767 5.137 969.243 111 107 106
74.767 5.637 969.158 111 107 104
74.767 6.137 969.101 117 112 107
74.767 6.637 969.071 126 119 111
74.767 7.137 969.046 155 149 138
74.767 7.637 968.960 196 189 173
74.767 8.137 968.824 201 194 176
74.767 8.637 968.694 195 187 168
74.767 9.137 968.545 192 184 165
74.767 9.637 968.365 187 179 160
74.767 10.137 968.166 180 171 154
74.767 10.637 967.898 186 177 160
75.267 1.637 970.858 123 119 118
75.267 2.137 970.308 123 119 118
75.267 2.637 969.966 127 123 122
75.267 3.137 969.727 125 122 121
75.267 3.637 969.563 126 123 123
75.267 4.137 969.436 119 116 116
75.267 4.637 969.328 115 110 111
75.267 5.137 969.273 112 108 108
75.267 5.637 969.238 117 111 109
75.267 6.137 969.170 123 119 113
75.267 6.637 969.107 143 135 126
75.267 7.137 969.076 187 180 168
75.267 7.637 968.985 197 190 174
75.267 8.137 968.881 201 193 176
75.267 8.637 968.733 202 194 175
75.267 9.137 968.604 199 191 172
75.267 9.637 968.446 190 183 164
75.267 10.137 968.259 183 174 155
75.267 10.637 968.120 184 174 157
75.767 1.637 970.492 124 120 119
75.767 2.137 970.013 125 121 120
75.767 2.637 969.750 126 122 121
75.767 3.137 969.612 124 120 120
75.767 3.637 969.529 125 121 122
75.767 4.137 969.421 124 120 121
75.767 4.637 969.323 117 112 113
75.767 5.137 969.275 116 109 109
75.767 5.637 969.247 122 118 113
75.767 6.137 969.214 140 134 129
75.767 6.637 969.155 184 175 164
75.767 7.137 969.101 197 189 176
75.767 7.637 969.025 194 185 168
75.767 8.137 968.904 196 188 170
75.767 8.637 968.802 205 197 178
75.767 9.137 968.678 203 195 176
75.767 9.637 968.578 202 192 173
75.767 10.137 968.340 197 189 171
75.767 10.637 968.185 185 177 158
76.267 1.637 970.031 127 123 122
76.267 2.137 969.804 127 123 122
76.267 2.637 969.643 126 122 121
76.267 3.137 969.512 127 123 122
76.267 3.637 969.427 128 124 123
76.267 4.137 969.358 127 123 123
76.267 4.637 969.302 127 121 121
76.267 5.137 969.271 119 113 110
76.267 5.637 969.260 127 122 117
76.267 6.137 969.227 162 156 148
76.267 6.637 969.160 198 188 177
76.267 7.137 969.123 197 188 174
76.267 7.637 969.041 189 180 163
76.267 8.137 968.905 187 179 160
76.267 8.637 968.826 202 194 175
76.267 9.137 968.723 207 198 180
76.267 9.637 968.639 202 192 174
76.267 10.137 968.397 206 195 177
76.267 10.637 968.223 193 185 166
76.767 1.637 969.770 125 121 120
76.767 2.137 969.601 129 125 124
76.767 2.637 969.502 129 125 124
76.767 3.137 969.429 130 126 125
76.767 3.637 969.382 133 129 127
76.767 4.137 969.319 128 124 123
76.767 4.637 969.260 130 125 122
76.767 5.137 969.250 126 121 116
76.767 5.637 969.236 153 148 139
76.767 6.137 969.212 191 184 173
76.767 6.637 969.134 201 191 179
76.767 7.137 969.077 195 186 171
76.767 7.637 968.973 190 183 163
76.767 8.137 968.857 188 180 161
76.767 8.637 968.789 196 188 170
76.767 9.137 968.720 205 197 179
76.767 9.637 968.667 205 194 174
76.767 10.137 968.546 204 193 175
76.767 10.637 968.326 196 185 167
77.267 1.637 969.512 121 119 119
77.267 2.137 969.412 126 125 123
77.267 2.637 969.384 127 126 124
77.267 3.137 969.363 129 126 124
77.267 3.637 969.333 130 126 123
77.267 4.137 969.278 129 124 120
77.267 4.637 969.240 131 126 121
77.267 5.137 969.216 141 135 127
77.267 5.637 969.203 176 168 158
77.267 6.137 969.128 201 192 181
77.267 6.637 969.074 205 193 178
77.267 7.137 969.046 196 185 168
77.267 7.637 968.938 192 183 164
77.267 8.137 968.843 195 185 167
77.267 8.637 968.784 201 191 172
77.267 9.137 968.745 204 194 174
77.267 9.637 968.676 207 196 176
77.267 10.137 968.580 206 195 175
77.267 10.637 968.503 201 192 173
77.767 1.637 969.335 127 126 124
77.767 2.137 969.274 127 126 124
77.767 2.637 969.249 127 126 124
77.767 3.137 969.248 129 127 123
77.767 3.637 969.245 130 127 122
77.767 4.137 969.195 132 127 122
77.767 4.637 969.149 149 142 134
77.767 5.137 969.126 166 156 146
77.767 5.637 969.110 187 177 165
77.767 6.137 969.086 198 189 176
77.767 6.637 969.057 202 190 173
77.767 7.137 968.974 198 187 170
77.767 7.637 968.876 197 186 168
77.767 8.137 968.795 206 195 175
77.767 8.637 968.747 205 194 174
77.767 9.137 968.704 206 195 175
77.767 9.637 968.637 211 200 180
77.767 10.137 968.568 212 201 181
77.767 10.637 968.499 204 196 175
78.267 1.637 969.244 126 125 123
78.267 2.137 969.200 127 126 122
78.267 2.637 969.183 127 126 122
78.267 3.137 969.178 126 123 117
78.267 3.637 969.159 131 126 120
78.267 4.137 969.124 145 140 131
78.267 4.637 969.106 181 175 163
78.267 5.137 969.101 183 173 161
78.267 5.637 969.092 195 186 172
78.267 6.137 969.064 192 184 168
78.267 6.637 968.976 200 189 171
78.267 7.137 968.882 201 190 172
78.267 7.637 968.793 199 188 171
78.267 8.137 968.750 202 191 171
78.267 8.637 968.711 201 190 171
78.267 9.137 968.689 204 193 173
78.267 9.637 968.631 203 192 172
78.267 10.137 968.564 203 192 172
78.267 10.637 968.470 207 199 178
78.767 1.637 969.135 128 124 122
78.767 2.137 969.133 127 123 119
78.767 2.637 969.127 129 126 120
78.767 3.137 969.104 130 126 118
78.767 3.637 969.084 147 140 129
78.767 4.137 969.066 172 166 154
78.767 4.637 969.062 202 194 181
78.767 5.137 969.059 189 181 166
78.767 5.637 969.022 195 185 171
78.767 6.137 968.952 185 173 157
78.767 6.637 968.875 193 183 164
78.767 7.137 968.787 201 190 171
78.767 7.637 968.734 204 193 173
78.767 8.137 968.705 206 195 175
78.767 8.637 968.683 206 195 175
78.767 9.137 968.649 207 196 175
78.767 9.637 968.596 199 188 168
78.767 10.137 968.539 202 191 171
78.767 10.637 968.429 209 201 180
79.267 1.637 969.058 128 123 120
79.267 2.137 969.048 126 121 117
79.267 2.637 969.028 130 123 116
79.267 3.137 969.012 160 153 142
79.267 3.637 969.003 181 173 160
79.267 4.137 968.979 192 184 170
79.267 4.637 968.958 199 190 174
79.267 5.137 968.940 194 186 167
79.267 5.637 968.903 191 180 162
79.267 6.137 968.814 184 173 153
79.267 6.637 968.740 195 184 164
79.267 7.137 968.700 206 195 175
79.267 7.637 968.684 208 197 177
79.267 8.137 968.675 213 202 181
79.267 8.637 968.667 214 203 181
79.267 9.137 968.626 208 197 175
79.267 9.637 968.592 205 194 174
79.267 10.137 968.498 211 200 180
79.267 10.637 968.411 210 202 181
79.767 1.637 968.993 122 118 113
79.767 2.137 968.981 126 119 113
79.767 2.637 968.955 155 148 140
79.767 3.137 968.932 192 184 171
79.767 3.637 968.928 193 184 167
79.767 4.137 968.918 191 183 165
79.767 4.637 968.890 199 191 172
79.767 5.137 968.841 201 190 172
79.767 5.637 968.777 195 184 164
79.767 6.137 968.727 194 184 163
79.767 6.637 968.698 195 184 164
79.767 7.137 968.673 196 185 165
79.767 7.637 968.656 203 192 172
79.767 8.137 968.649 213 202 180
79.767 8.637 968.626 211 200 178
79.767 9.137 968.602 209 198 176
79.767 9.637 968.542 217 206 186
79.767 10.137 968.460 218 207 187
79.767 10.637 968.387 214 206 185
80.267 1.637 968.965 119 111 106
80.267 2.137 968.944 137 129 121
80.267 2.637 968.898 183 173 165
80.267 3.137 968.853 198 189 175
80.267 3.637 968.858 190 183 163
80.267 4.137 968.864 188 180 161
80.267 4.637 968.827 198 187 170
80.267 5.137 968.793 203 192 172
80.267 5.637 968.757 206 195 174
80.267 6.137 968.720 206 195 174
80.267 6.637 968.701 203 192 172
80.267 7.137 968.676 193 183 162
80.267 7.637 968.660 197 186 165
80.267 8.137 968.648 205 194 172
80.267 8.637 968.614 206 195 173
80.267 9.137 968.588 215 204 182
80.267 9.637 968.489 217 206 186
80.267 10.137 968.401 216 205 185
80.267 10.637 968.320 213 205 184
80.767 1.637 968.903 130 122 110
80.767 2.137 968.880 168 158 143
80.767 2.637 968.825 193 184 167
80.767 3.137 968.787 193 181 165
80.767 3.637 968.765 189 179 160
80.767 4.137 968.751 191 180 162
80.767 4.637 968.738 198 187 170
80.767 5.137 968.728 199 188 171
80.767 5.637 968.721 205 194 176
80.767 6.137 968.709 206 195 177
80.767 6.637 968.696 207 196 176
80.767 7.137 968.674 206 195 175
80.767 7.637 968.645 201 190 171
80.767 8.137 968.622 207 196 176
80.767 8.637 968.601 210 202 181
80.767 9.137 968.543 214 206 185
80.767 9.637 968.430 213 205 182
80.767 10.137 968.337 210 202 179
80.767 10.637 968.212 209 201 180
81.267 1.637 968.841 168 159 146
81.267 2.137 968.822 185 176 160
81.267 2.637 968.781 189 180 163
81.267 3.137 968.739 189 177 160
81.267 3.637 968.705 197 186 168
81.267 4.137 968.700 200 189 171
81.267 4.637 968.714 202 191 173
81.267 5.137 968.718 203 192 174
81.267 5.637 968.711 209 198 180
81.267 6.137 968.688 209 198 180
81.267 6.637 968.672 205 194 174
81.267 7.137 968.658 205 194 174
81.267 7.637 968.625 204 193 173
81.267 8.137 968.601 211 200 180
81.267 8.637 968.583 214 206 185
81.267 9.137 968.504 214 206 185
81.267 9.637 968.362 212 204 182
81.267 10.137 968.269 209 201 180
81.267 10.637 968.105 203 195 174
81.767 1.637 968.812 193 184 171
81.767 2.137 968.802 183 173 156
81.767 2.637 968.764 188 176 160
81.767 3.137 968.709 202 191 174
81.767 3.637 968.681 205 194 176
81.767 4.137 968.677 201 190 172
81.767 4.637 968.685 203 192 174
81.767 5.137 968.691 204 193 175
81.767 5.637 968.679 206 195 177
81.767 6.137 968.634 205 194 176
81.767 6.637 968.602 202 191 171
81.767 7.137 968.596 203 192 172
81.767 7.637 968.576 206 195 175
81.767 8.137 968.561 212 201 181
81.767 8.637 968.534 211 203 182
81.767 9.137 968.453 216 208 187
81.767 9.637 968.282 213 205 184
81.767 10.137 968.169 206 198 177
81.767 10.637 967.989 198 190 171
82.267 1.637 968.791 204 195 179
82.267 2.137 968.774 197 185 170
82.267 2.637 968.736 198 187 170
82.267 3.137 968.693 204 193 175
82.267 3.637 968.664 204 193 175
82.267 4.137 968.653 204 193 175
82.267 4.637 968.644 207 196 178
82.267 5.137 968.629 206 195 177
82.267 5.637 968.616 206 195 177
82.267 6.137 968.590 206 195 177
82.267 6.637 968.559 204 193 175
82.267 7.137 968.523 204 193 175
82.267 7.637 968.482 203 192 174
82.267 8.137 968.456 209 198 180
82.267 8.637 968.368 207 199 180
82.267 9.137 968.267 214 206 187
82.267 9.637 968.087 210 202 183
82.267 10.137 967.954 205 197 178
82.267 10.637 967.762 197 189 171
82.767 1.637 968.756 206 194 178
82.767 2.137 968.734 208 197 179
82.767 2.637 968.692 205 194 176
82.767 3.137 968.666 202 191 173
82.767 3.637 968.644 202 191 173
82.767 4.137 968.628 208 197 179
82.767 4.637 968.612 207 196 178
82.767 5.137 968.589 210 199 181
82.767 5.637 968.571 212 201 183
82.767 6.137 968.560 211 200 182
82.767 6.637 968.520 210 199 181
82.767 7.137 968.421 205 194 176
82.767 7.637 968.308 201 190 172
82.767 8.137 968.259 205 194 176
82.767 8.637 968.154 205 197 178
82.767 9.137 968.080 206 198 179
82.767 9.637 967.881 205 197 179
82.767 10.137 967.692 206 197 180
83.267 1.637 968.710 201 190 172
83.267 2.137 968.680 205 194 176
83.267 2.637 968.652 203 192 174
83.267 3.137 968.637 201 190 172
83.267 3.637 968.610 203 192 174
83.267 4.137 968.584 209 198 180
83.267 4.637 968.569 213 202 184
83.267 5.137 968.553 211 200 182
83.267 5.637 968.532 210 199 181
83.267 6.137 968.511 210 199 181
83.267 6.637 968.418 207 196 178
83.267 7.137 968.283 200 189 171
83.267 7.637 968.172 197 186 168
83.267 8.137 968.072 195 184 166
83.267 8.637 967.978 199 191 172
83.267 9.137 967.916 205 197 178
83.267 9.637 967.719 205 196 179
83.767 1.637 968.595 200 191 174
83.767 2.137 968.570 202 194 175
83.767 2.637 968.575 201 193 174
83.767 3.137 968.577 201 192 174
83.767 3.637 968.561 200 191 174
83.767 4.137 968.538 205 196 179
83.767 4.637 968.514 212 203 186
83.767 5.137 968.464 203 194 177
83.767 5.637 968.403 201 192 175
83.767 6.137 968.350 204 195 178
83.767 6.637 968.246 200 192 173
83.767 7.137 968.121 195 187 168
83.767 7.637 968.021 190 183 163
83.767 8.137 967.822 189 181 162
83.767 8.637 967.708 197 189 171
84.267 1.637 968.510 203 194 177
84.267 2.137 968.498 203 195 176
84.267 2.637 968.512 206 198 179
84.267 3.137 968.520 204 195 177
84.267 3.637 968.513 204 195 178
84.267 4.137 968.490 207 198 181
84.267 4.637 968.433 210 201 184
84.267 5.137 968.304 209 200 183
84.267 5.637 968.191 202 193 176
84.267 6.137 968.138 204 195 178
84.267 6.637 968.063 196 188 170
84.267 7.137 967.922 194 186 167
84.267 7.637 967.775 194 186 167
84.267 8.137 967.635 189 181 162
84.767 1.637 968.377 211 202 185
84.767 2.137 968.390 209 201 182
84.767 2.637 968.412 209 201 182
84.767 3.137 968.420 207 199 181
84.767 3.637 968.418 209 200 183
84.767 4.137 968.395 210 201 184
84.767 4.637 968.305 209 200 183
84.767 5.137 968.196 207 198 181
84.767 5.637 968.106 201 192 175
84.767 6.137 968.013 199 190 173
84.767 6.637 967.879 191 184 164
84.767 7.137 967.751 191 184 165
85.267 1.637 968.247 211 202 185
85.267 2.137 968.242 211 203 184
85.267 2.637 968.252 210 202 183
85.267 3.137 968.249 210 202 184
