166.767 -124.363 980.444 230 213 197
166.767 -123.863 980.446 228 212 196
166.767 -123.363 980.449 227 211 195
166.767 -122.863 980.467 227 211 195
166.767 -122.363 980.483 228 212 196
166.767 -121.863 980.495 221 205 189
166.767 -121.363 980.529 217 202 184
166.767 -120.863 980.568 225 210 192
166.767 -120.363 980.598 220 205 186
166.767 -119.863 980.637 206 189 171
166.767 -119.363 980.712 181 164 146
166.767 -118.863 980.828 198 181 163
166.767 -118.363 980.925 195 177 163
166.767 -117.863 981.009 160 143 132
166.767 -117.363 981.061 125 110 103
166.767 -116.863 981.058 112 98 96
166.767 -116.363 980.983 116 104 103
166.767 -115.863 980.800 127 118 116
166.767 -115.363 980.544 131 122 117
167.267 -124.363 980.441 228 213 195
167.267 -123.863 980.443 227 211 195
167.267 -123.363 980.447 225 209 193
167.267 -122.863 980.455 225 209 193
167.267 -122.363 980.468 223 207 191
167.267 -121.863 980.487 222 206 190
167.267 -121.363 980.511 201 185 171
167.267 -120.863 980.552 212 196 180
167.267 -120.363 980.590 217 200 185
167.267 -119.863 980.627 208 192 176
167.267 -119.363 980.686 197 181 166
167.267 -118.863 980.784 200 184 170
167.267 -118.363 980.852 200 184 170
167.267 -117.863 980.876 171 157 146
167.267 -117.363 980.925 137 122 117
167.267 -116.863 980.851 120 107 106
167.267 -116.363 980.738 125 116 114
167.267 -115.863 980.537 136 126 124
167.267 -115.363 980.211 137 130 124
167.767 -124.363 980.441 227 212 193
167.767 -123.863 980.447 226 211 192
167.767 -123.363 980.459 215 199 183
167.767 -122.863 980.467 200 184 168
167.767 -122.363 980.477 220 204 188
167.767 -121.863 980.487 222 206 191
167.767 -121.363 980.499 210 194 181
167.767 -120.863 980.530 204 188 175
167.767 -120.363 980.569 183 167 153
167.767 -119.863 980.597 156 140 127
167.767 -119.363 980.651 183 167 153
167.767 -118.863 980.700 204 188 175
167.767 -118.363 980.725 199 186 171
167.767 -117.863 980.727 195 181 171
167.767 -117.363 980.716 152 139 131
167.767 -116.863 980.592 132 119 116
167.767 -116.363 980.439 131 122 117
167.767 -115.863 980.175 137 128 123
167.767 -115.363 979.893 140 133 127
168.267 -124.363 980.445 226 211 192
168.267 -123.863 980.454 218 203 184
168.267 -123.363 980.473 189 173 157
168.267 -122.863 980.496 186 171 155
168.267 -122.363 980.501 194 181 165
168.267 -121.863 980.496 205 192 176
168.267 -121.363 980.502 212 198 187
168.267 -120.863 980.516 181 168 156
168.267 -120.363 980.544 168 153 142
168.267 -119.863 980.553 144 130 119
168.267 -119.363 980.582 150 136 125
168.267 -118.863 980.581 191 177 166
168.267 -118.363 980.575 203 189 177
168.267 -117.863 980.536 187 175 163
168.267 -117.363 980.468 149 136 127
168.267 -116.863 980.343 137 126 121
168.267 -116.363 980.085 135 126 121
168.267 -115.863 979.770 137 128 123
168.267 -115.363 979.499 138 129 122
168.767 -124.363 980.455 222 206 188
168.767 -123.863 980.477 200 184 168
168.767 -123.363 980.499 183 167 152
168.767 -122.863 980.525 176 163 148
168.767 -122.363 980.529 183 169 156
168.767 -121.863 980.514 167 153 141
168.767 -121.363 980.515 168 155 147
168.767 -120.863 980.519 161 148 141
168.767 -120.363 980.533 151 138 131
168.767 -119.863 980.522 145 133 125
168.767 -119.363 980.508 159 146 138
168.767 -118.863 980.476 150 137 129
168.767 -118.363 980.433 168 156 147
168.767 -117.863 980.302 156 144 135
168.767 -117.363 980.158 145 132 124
168.767 -116.863 979.944 137 126 120
168.767 -116.363 979.647 134 125 120
168.767 -115.863 979.316 139 130 125
168.767 -115.363 979.065 143 134 129
169.267 -124.363 980.482 204 188 172
169.267 -123.863 980.519 181 166 151
169.267 -123.363 980.542 155 141 130
169.267 -122.863 980.564 154 140 131
169.267 -122.363 980.562 173 160 152
169.267 -121.863 980.542 146 133 125
169.267 -121.363 980.527 139 128 123
169.267 -120.863 980.518 147 136 131
169.267 -120.363 980.500 134 123 119
169.267 -119.863 980.485 135 124 119
169.267 -119.363 980.435 137 126 121
169.267 -118.863 980.306 137 126 122
169.267 -118.363 980.214 123 112 105
169.267 -117.863 979.963 142 131 124
169.267 -117.363 979.830 139 128 121
169.267 -116.863 979.571 126 117 111
169.267 -116.363 979.237 125 117 112
169.267 -115.863 978.932 137 127 124
169.267 -115.363 978.715 144 134 132
169.767 -124.363 980.511 184 168 155
169.767 -123.863 980.544 176 159 149
169.767 -123.363 980.565 135 121 112
169.767 -122.863 980.588 163 149 142
169.767 -122.363 980.578 147 134 128
169.767 -121.863 980.543 128 118 111
169.767 -121.363 980.500 131 122 117
169.767 -120.863 980.485 138 129 124
169.767 -120.363 980.438 128 119 114
169.767 -119.863 980.400 130 121 116
169.767 -119.363 980.266 135 126 121
169.767 -118.863 980.104 136 127 122
169.767 -118.363 979.914 127 117 112
169.767 -117.863 979.635 137 126 122
169.767 -117.363 979.436 137 126 122
169.767 -116.863 979.157 118 107 104
169.767 -116.363 978.908 119 109 107
169.767 -115.863 978.658 132 122 121
169.767 -115.363 978.428 135 125 123
170.267 -124.363 980.523 171 157 146
170.267 -123.863 980.536 187 173 162
170.267 -123.363 980.551 173 159 149
170.267 -122.863 980.573 175 163 154
170.267 -122.363 980.561 136 126 119
170.267 -121.863 980.511 127 120 114
170.267 -121.363 980.452 133 123 121
170.267 -120.863 980.410 141 131 129
170.267 -120.363 980.302 139 129 127
170.267 -119.863 980.187 142 133 128
170.267 -119.363 979.973 139 130 125
170.267 -118.863 979.832 135 128 122
170.267 -118.363 979.582 134 124 118
170.267 -117.863 979.301 136 125 121
170.267 -117.363 978.980 126 117 114
170.267 -116.863 978.802 116 107 104
170.267 -116.363 978.622 119 110 107
170.267 -115.863 978.414 122 112 110
170.267 -115.363 978.260 128 119 114
170.767 -124.363 980.504 166 153 141
170.767 -123.863 980.497 206 192 181
170.767 -123.363 980.500 185 171 160
170.767 -122.863 980.513 168 155 146
170.767 -122.363 980.478 133 124 117
170.767 -121.863 980.434 125 119 112
170.767 -121.363 980.382 133 123 121
170.767 -120.863 980.278 143 134 130
170.767 -120.363 980.090 146 137 132
170.767 -119.863 979.868 142 133 128
170.767 -119.363 979.661 135 126 120
170.767 -118.863 979.470 139 130 125
170.767 -118.363 979.252 148 135 129
170.767 -117.863 978.914 138 127 121
170.767 -117.363 978.617 130 120 116
170.767 -116.863 978.517 119 108 106
170.767 -116.363 978.286 123 113 111
170.767 -115.863 978.169 126 118 112
170.767 -115.363 978.056 138 129 124
171.267 -124.363 980.466 179 168 155
171.267 -123.863 980.455 203 189 178
171.267 -123.363 980.433 192 179 167
171.267 -122.863 980.392 164 151 142
171.267 -122.363 980.327 138 127 121
171.267 -121.863 980.274 133 124 119
171.267 -121.363 980.237 136 126 121
171.267 -120.863 980.077 129 119 114
171.267 -120.363 979.845 139 128 123
171.267 -119.863 979.581 142 131 125
171.267 -119.363 979.437 136 124 116
171.267 -118.863 979.146 148 135 128
171.267 -118.363 978.883 164 150 142
171.267 -117.863 978.594 155 142 135
171.267 -117.363 978.257 135 124 120
171.267 -116.863 978.171 116 105 102
171.267 -116.363 978.018 123 115 110
171.267 -115.863 977.967 139 130 125
171.767 -124.363 980.394 187 174 165
171.767 -123.863 980.353 181 168 156
171.767 -123.363 980.290 179 164 153
171.767 -122.863 980.160 168 154 145
171.767 -122.363 980.083 145 134 128
171.767 -121.863 980.043 150 139 133
171.767 -121.363 979.993 140 129 125
171.767 -120.863 979.791 126 115 108
171.767 -120.363 979.552 140 127 119
171.767 -119.863 979.196 143 130 122
171.767 -119.363 979.065 143 129 120
171.767 -118.863 978.707 174 160 151
171.767 -118.363 978.513 180 163 153
171.767 -117.863 978.268 168 153 144
171.767 -117.363 977.977 134 121 114
171.767 -116.863 977.892 130 119 114
172.267 -124.363 980.283 175 162 153
172.267 -123.863 980.174 184 170 159
172.267 -123.363 980.077 170 156 145
172.267 -122.863 979.905 172 158 149
172.267 -122.363 979.829 155 142 134
172.267 -121.863 979.770 154 141 135
172.267 -121.363 979.680 145 132 126
172.267 -120.863 979.439 133 120 113
172.267 -120.363 979.124 141 126 119
172.267 -119.863 978.754 145 131 122
172.267 -119.363 978.496 159 142 132
172.267 -118.863 978.248 189 173 161
172.267 -118.363 978.173 186 169 157
172.267 -117.863 977.954 159 142 132
172.267 -117.363 977.824 132 118 110
172.767 -124.363 980.155 168 155 146
172.767 -123.863 980.025 179 166 156
172.767 -123.363 979.872 179 161 151
172.767 -122.863 979.721 168 152 143
172.767 -122.363 979.640 153 140 132
172.767 -121.863 979.539 148 135 129
172.767 -121.363 979.252 152 139 133
172.767 -120.863 978.950 145 132 124
172.767 -120.363 978.644 140 126 117
172.767 -119.863 978.429 151 134 124
172.767 -119.363 978.140 176 160 147
172.767 -118.863 977.951 179 161 148
172.767 -118.363 977.809 184 163 152
173.267 -124.363 979.888 146 135 126
173.267 -123.863 979.690 147 135 126
173.267 -123.363 979.579 162 148 137
173.267 -122.863 979.494 166 151 140
173.267 -122.363 979.261 153 138 128
173.267 -121.863 979.053 155 139 129
173.267 -121.363 978.744 158 142 134
173.267 -120.863 978.526 148 132 122
173.267 -120.363 978.290 151 134 124
173.267 -119.863 978.120 170 152 141
173.267 -119.363 977.868 176 159 148
173.767 -124.363 979.523 130 120 110
173.767 -123.863 979.236 138 126 116
173.767 -123.363 979.133 155 143 131
173.767 -122.863 979.087 175 160 147
173.767 -122.363 978.879 185 169 154
173.767 -121.863 978.618 183 167 151
173.767 -121.363 978.437 174 158 145
173.767 -120.863 978.175 179 160 148
173.767 -120.363 977.828 164 146 132
174.267 -124.363 979.136 149 136 125
174.267 -123.863 978.897 160 146 133
174.267 -123.363 978.759 176 162 149
174.267 -122.863 978.664 184 168 153
174.267 -122.363 978.423 187 170 156
174.267 -121.863 978.181 188 171 155
174.267 -121.363 978.010 186 168 154
174.767 -124.363 978.684 168 151 138
174.767 -123.863 978.435 186 170 155
174.767 -123.363 978.324 190 174 159
174.767 -122.863 978.240 186 170 154
174.767 -122.363 978.035 184 167 150
174.767 -121.863 977.797 184 167 150
175.267 -124.363 978.296 195 179 164
175.267 -123.863 978.050 188 172 157
175.267 -123.363 977.795 169 153 138
175.767 -124.363 977.941 202 186 171
124.267 -112.863 981.024 135 126 123
124.267 -112.363 980.977 136 127 121
124.267 -109.363 981.039 167 151 144
124.767 -114.863 981.612 141 130 129
124.767 -114.363 981.313 132 122 121
124.767 -113.863 981.148 119 110 108
124.767 -113.363 980.951 105 97 94
124.767 -112.863 980.868 124 116 109
124.767 -112.363 980.845 135 124 118
124.767 -111.863 980.875 135 122 116
124.767 -111.363 980.902 142 129 123
124.767 -110.863 980.968 154 141 133
124.767 -110.363 981.046 167 153 145
124.767 -109.863 981.132 164 149 142
124.767 -109.363 981.255 163 148 141
124.767 -108.863 981.292 172 156 149
124.767 -108.363 981.313 170 153 143
124.767 -107.863 981.323 190 174 161
124.767 -107.363 981.330 181 166 152
124.767 -106.863 981.314 180 167 153
125.267 -114.863 981.494 138 129 127
125.267 -114.363 981.155 130 121 119
125.267 -113.863 980.952 120 110 109
125.267 -113.363 980.777 122 112 106
125.267 -112.863 980.718 150 140 132
125.267 -112.363 980.747 172 161 150
125.267 -111.863 980.842 172 157 147
125.267 -111.363 980.958 169 153 145
125.267 -110.863 981.077 173 157 149
125.267 -110.363 981.274 177 163 154
125.267 -109.863 981.340 162 147 140
125.267 -109.363 981.389 159 144 137
125.267 -108.863 981.446 179 163 155
125.267 -108.363 981.431 184 168 157
125.267 -107.863 981.399 180 163 154
125.267 -107.363 981.384 180 163 154
125.267 -106.863 981.361 177 162 152
125.267 -106.363 981.331 162 150 141
125.267 -105.863 981.290 156 146 137
125.767 -114.863 981.195 126 118 114
125.767 -114.363 980.949 120 110 108
125.767 -113.863 980.787 129 119 114
125.767 -113.363 980.697 141 130 124
125.767 -112.863 980.686 175 162 152
125.767 -112.363 980.746 185 173 159
125.767 -111.863 980.879 193 176 166
125.767 -111.363 981.012 177 160 150
125.767 -110.863 981.217 160 144 134
125.767 -110.363 981.426 185 171 162
125.767 -109.863 981.508 166 151 142
125.767 -109.363 981.520 173 158 151
125.767 -108.863 981.519 180 166 157
125.767 -108.363 981.473 171 157 148
125.767 -107.863 981.426 161 146 139
125.767 -107.363 981.396 158 143 136
125.767 -106.863 981.363 166 150 143
125.767 -106.363 981.329 160 148 142
125.767 -105.863 981.286 148 137 131
126.267 -114.863 981.000 118 107 103
126.267 -114.363 980.826 132 121 117
126.267 -113.863 980.745 153 142 136
126.267 -113.363 980.682 156 143 135
126.267 -112.863 980.690 163 150 138
126.267 -112.363 980.828 184 169 156
126.267 -111.863 980.965 190 174 161
126.267 -111.363 981.160 179 163 150
126.267 -110.863 981.408 168 153 142
126.267 -110.363 981.541 183 168 159
126.267 -109.863 981.597 168 154 145
126.267 -109.363 981.602 152 139 131
126.267 -108.863 981.578 135 123 116
126.267 -108.363 981.523 131 119 113
126.267 -107.863 981.452 132 119 113
126.267 -107.363 981.399 132 119 113
126.267 -106.863 981.338 151 138 132
126.267 -106.363 981.294 150 139 135
126.267 -105.863 981.255 145 136 131
126.767 -114.863 980.840 122 110 104
126.767 -114.363 980.766 146 133 127
126.767 -113.863 980.752 154 141 135
126.767 -113.363 980.708 148 133 126
126.767 -112.863 980.776 158 143 133
126.767 -112.363 980.877 187 171 157
126.767 -111.863 981.073 193 177 164
126.767 -111.363 981.304 185 171 158
126.767 -110.863 981.498 179 166 153
126.767 -110.363 981.644 160 147 138
126.767 -109.863 981.688 131 119 111
126.767 -109.363 981.663 121 111 103
126.767 -108.863 981.600 126 118 111
126.767 -108.363 981.536 126 119 113
126.767 -107.863 981.461 121 111 107
126.767 -107.363 981.396 132 121 118
126.767 -106.863 981.308 152 141 138
126.767 -106.363 981.256 135 126 121
126.767 -105.863 981.230 127 120 114
127.267 -114.863 980.814 140 129 123
127.267 -114.363 980.765 151 138 132
127.267 -113.863 980.778 148 135 129
127.267 -113.363 980.781 141 126 121
127.267 -112.863 980.870 168 153 144
127.267 -112.363 981.029 195 179 167
127.267 -111.863 981.214 187 173 160
127.267 -111.363 981.436 183 168 157
127.267 -110.863 981.649 183 169 160
127.267 -110.363 981.732 146 135 128
127.267 -109.863 981.716 129 119 112
127.267 -109.363 981.675 117 107 102
127.267 -108.863 981.604 131 123 120
127.267 -108.363 981.529 137 129 126
127.267 -107.863 981.455 121 111 109
127.267 -107.363 981.380 129 119 116
127.267 -106.863 981.290 138 127 124
127.267 -106.363 981.236 141 131 127
127.267 -105.863 981.205 131 122 117
127.767 -114.863 980.779 147 136 130
127.767 -114.363 980.760 147 136 132
127.767 -113.863 980.820 149 135 132
127.767 -113.363 980.942 149 136 130
127.767 -112.863 981.074 176 161 153
127.767 -112.363 981.294 184 169 160
127.767 -111.863 981.453 167 152 141
127.767 -111.363 981.709 184 169 160
127.767 -110.863 981.820 176 164 155
127.767 -110.363 981.824 142 131 127
127.767 -109.863 981.780 124 115 112
127.767 -109.363 981.697 107 99 96
127.767 -108.863 981.597 117 108 106
127.767 -108.363 981.489 143 135 132
127.767 -107.863 981.417 132 122 120
127.767 -107.363 981.329 133 122 118
127.767 -106.863 981.276 147 136 132
127.767 -106.363 981.223 158 147 143
127.767 -105.863 981.171 134 125 120
128.267 -114.863 980.797 139 130 124
128.267 -114.363 980.818 145 135 130
128.267 -113.863 980.945 155 144 140
128.267 -113.363 981.061 153 140 135
128.267 -112.863 981.259 161 147 141
128.267 -112.363 981.517 169 155 146
128.267 -111.863 981.791 168 153 144
128.267 -111.363 981.922 173 160 151
128.267 -110.863 981.965 164 153 146
128.267 -110.363 981.916 133 124 119
128.267 -109.863 981.821 119 110 108
128.267 -109.363 981.708 112 104 103
128.267 -108.863 981.622 115 108 105
128.267 -108.363 981.497 136 128 125
128.267 -107.863 981.387 139 129 127
128.267 -107.363 981.314 149 138 134
128.267 -106.863 981.270 159 148 144
128.267 -106.363 981.203 160 149 143
128.267 -105.863 981.136 146 135 129
128.767 -114.863 980.838 134 123 119
128.767 -114.363 980.918 152 141 135
128.767 -113.863 981.005 164 151 145
128.767 -113.363 981.161 138 126 120
128.767 -112.863 981.488 146 132 124
128.767 -112.363 981.799 160 146 139
128.767 -111.863 981.931 175 166 156
128.767 -111.363 981.996 156 145 139
128.767 -110.863 982.009 131 122 118
128.767 -110.363 981.974 119 109 107
128.767 -109.863 981.883 120 112 110
128.767 -109.363 981.744 113 108 105
128.767 -108.863 981.611 111 105 104
128.767 -108.363 981.505 120 116 113
128.767 -107.863 981.413 133 125 122
128.767 -107.363 981.317 139 132 125
128.767 -106.863 981.241 143 134 126
128.767 -106.363 981.182 157 146 140
128.767 -105.863 981.130 153 142 136
129.267 -114.863 980.892 138 128 123
129.267 -114.363 980.937 162 152 148
129.267 -113.863 981.077 180 169 164
129.267 -113.363 981.357 157 146 142
129.267 -112.863 981.673 141 129 124
129.267 -112.363 981.943 155 143 137
129.267 -111.863 982.013 175 166 156
129.267 -111.363 982.052 133 122 116
129.267 -110.863 982.070 112 102 98
129.267 -110.363 982.022 116 107 105
129.267 -109.863 981.942 120 112 110
129.267 -109.363 981.799 113 108 105
129.267 -108.863 981.615 107 101 102
129.267 -108.363 981.505 115 107 107
129.267 -107.863 981.426 123 116 113
129.267 -107.363 981.343 123 115 111
129.267 -106.863 981.236 128 119 113
129.267 -106.363 981.173 156 145 140
129.267 -105.863 981.111 163 152 147
129.767 -114.863 980.926 146 137 134
129.767 -114.363 981.005 172 163 158
129.767 -113.863 981.227 168 158 153
129.767 -113.363 981.547 141 132 127
129.767 -112.863 981.859 147 138 133
129.767 -112.363 982.028 157 148 143
129.767 -111.863 982.122 153 144 137
129.767 -111.363 982.161 125 117 111
129.767 -110.863 982.147 108 98 96
129.767 -110.363 982.064 124 116 113
129.767 -109.863 981.933 122 115 112
129.767 -109.363 981.714 112 104 103
129.767 -108.863 981.598 115 105 106
129.767 -108.363 981.513 122 113 114
129.767 -107.863 981.426 124 117 114
129.767 -107.363 981.334 121 111 109
129.767 -106.863 981.221 128 119 116
129.767 -106.363 981.177 145 134 130
129.767 -105.863 981.127 163 152 146
130.267 -114.863 980.970 155 146 141
130.267 -114.363 981.175 172 163 158
130.267 -113.863 981.349 143 134 129
130.267 -113.363 981.619 132 123 118
130.267 -112.863 981.888 142 133 128
130.267 -112.363 982.074 153 143 140
130.267 -111.863 982.157 138 129 123
130.267 -111.363 982.174 125 117 111
130.267 -110.863 982.154 112 102 100
130.267 -110.363 982.089 123 115 114
130.267 -109.863 981.968 125 117 117
130.267 -109.363 981.727 123 116 113
130.267 -108.863 981.612 127 119 118
130.267 -108.363 981.533 129 120 121
130.267 -107.863 981.414 121 111 110
130.267 -107.363 981.324 118 107 105
130.267 -106.863 981.236 143 132 129
130.267 -106.363 981.187 153 140 134
130.267 -105.863 981.125 168 155 148
130.767 -114.863 980.970 160 149 142
130.767 -114.363 981.193 162 151 145
130.767 -113.863 981.427 137 126 122
130.767 -113.363 981.723 134 123 118
130.767 -112.863 982.012 155 146 141
130.767 -112.363 982.103 173 163 159
130.767 -111.863 982.140 138 128 124
130.767 -111.363 982.155 125 116 113
130.767 -110.863 982.131 111 102 102
130.767 -110.363 982.038 113 104 104
130.767 -109.863 981.953 121 112 113
130.767 -109.363 981.791 123 116 113
130.767 -108.863 981.638 139 131 129
130.767 -108.363 981.507 132 124 122
130.767 -107.863 981.407 115 104 103
130.767 -107.363 981.354 120 110 108
130.767 -106.863 981.276 144 133 129
130.767 -106.363 981.199 176 163 156
130.767 -105.863 981.125 194 181 172
131.267 -114.863 980.981 175 161 154
131.267 -114.363 981.293 174 161 154
131.267 -113.863 981.572 150 138 132
131.267 -113.363 981.705 152 139 133
131.267 -112.863 982.049 177 167 161
131.267 -112.363 982.124 184 173 170
131.267 -111.863 982.126 145 137 134
131.267 -111.363 982.109 123 116 112
131.267 -110.863 982.070 116 106 105
131.267 -110.363 982.013 115 104 105
131.267 -109.863 981.901 119 109 110
131.267 -109.363 981.764 128 119 117
131.267 -108.863 981.616 157 148 146
131.267 -108.363 981.516 141 132 128
131.267 -107.863 981.444 124 115 110
131.267 -107.363 981.388 127 117 113
131.267 -106.863 981.318 149 137 131
131.267 -106.363 981.218 168 155 146
131.267 -105.863 981.122 180 168 157
131.767 -114.863 981.035 166 152 144
131.767 -114.363 981.366 161 148 141
131.767 -113.863 981.635 176 163 157
131.767 -113.363 981.910 154 143 137
131.767 -112.863 982.076 149 138 134
131.767 -112.363 982.094 168 158 153
131.767 -111.863 982.088 139 130 125
131.767 -111.363 982.069 125 116 113
131.767 -110.863 982.016 119 110 109
131.767 -110.363 981.937 119 110 111
131.767 -109.863 981.778 119 111 109
131.767 -109.363 981.659 135 125 121
131.767 -108.863 981.578 156 146 142
131.767 -108.363 981.486 128 119 116
131.767 -107.863 981.440 118 106 103
131.767 -107.363 981.386 120 109 103
131.767 -106.863 981.320 122 111 104
131.767 -106.363 981.227 131 119 109
131.767 -105.863 981.125 154 141 132
132.267 -114.863 981.080 155 142 134
132.267 -114.363 981.423 147 134 126
132.267 -113.863 981.680 170 157 151
132.267 -113.363 981.916 155 144 138
132.267 -112.863 982.034 140 129 123
132.267 -112.363 982.064 155 144 140
132.267 -111.863 982.046 134 123 119
132.267 -111.363 982.015 124 115 112
132.267 -110.863 981.915 119 109 109
132.267 -110.363 981.808 118 108 109
132.267 -109.863 981.671 116 107 105
132.267 -109.363 981.585 138 129 123
132.267 -108.863 981.504 168 158 151
132.267 -108.363 981.459 137 126 120
132.267 -107.863 981.424 126 116 109
132.267 -107.363 981.355 132 122 114
132.267 -106.863 981.277 141 130 121
132.267 -106.363 981.195 161 148 139
132.267 -105.863 981.099 179 166 156
132.767 -114.863 981.100 180 168 159
132.767 -114.363 981.478 169 156 148
132.767 -113.863 981.729 171 161 152
132.767 -113.363 981.955 179 168 159
132.767 -112.863 982.030 171 160 152
132.767 -112.363 982.046 164 153 146
132.767 -111.863 981.989 161 150 146
132.767 -111.363 981.915 133 123 121
132.767 -110.863 981.820 119 111 109
132.767 -110.363 981.710 113 105 103
132.767 -109.863 981.592 125 117 113
132.767 -109.363 981.490 156 147 138
132.767 -108.863 981.404 186 176 167
132.767 -108.363 981.392 175 166 155
132.767 -107.863 981.360 187 176 166
132.767 -107.363 981.291 196 184 174
132.767 -106.863 981.224 177 166 154
132.767 -106.363 981.161 180 168 156
132.767 -105.863 981.100 179 168 155
133.267 -114.863 981.168 181 170 161
133.267 -114.363 981.558 168 157 147
133.267 -113.863 981.796 174 164 155
133.267 -113.363 981.963 184 173 164
133.267 -112.863 981.995 180 169 160
133.267 -112.363 981.984 153 141 132
133.267 -111.863 981.908 158 149 143
133.267 -111.363 981.822 144 135 130
133.267 -110.863 981.720 127 119 116
133.267 -110.363 981.596 119 110 108
133.267 -109.863 981.498 130 120 116
133.267 -109.363 981.393 181 171 162
133.267 -108.863 981.348 205 192 181
133.267 -108.363 981.322 199 186 173
133.267 -107.863 981.302 208 195 182
133.267 -107.363 981.253 205 191 179
133.267 -106.863 981.207 197 184 171
133.267 -106.363 981.148 200 187 173
133.267 -105.863 981.089 168 154 141
133.767 -114.863 981.225 161 150 144
133.767 -114.363 981.595 162 152 143
133.767 -113.863 981.813 172 162 153
133.767 -113.363 981.955 181 171 162
133.767 -112.863 981.974 176 163 155
133.767 -112.363 981.925 156 143 134
133.767 -111.863 981.837 151 141 134
133.767 -111.363 981.734 138 129 124
133.767 -110.863 981.644 132 122 120
133.767 -110.363 981.522 123 113 111
133.767 -109.863 981.430 133 122 116
133.767 -109.363 981.345 196 184 174
133.767 -108.863 981.266 217 202 190
133.767 -108.363 981.230 214 198 183
133.767 -107.863 981.219 213 197 182
133.767 -107.363 981.209 205 192 176
133.767 -106.863 981.169 192 179 165
133.767 -106.363 981.117 176 162 151
133.767 -105.863 981.064 160 146 135
134.267 -114.863 981.267 137 126 121
134.267 -114.363 981.522 158 147 141
134.267 -113.863 981.797 173 162 156
134.267 -113.363 981.924 194 181 175
134.267 -112.863 981.946 170 157 149
134.267 -112.363 981.908 153 140 132
134.267 -111.863 981.791 154 144 137
134.267 -111.363 981.671 145 136 131
134.267 -110.863 981.583 137 127 125
134.267 -110.363 981.473 125 116 111
134.267 -109.863 981.368 132 122 114
134.267 -109.363 981.248 196 184 172
134.267 -108.863 981.185 219 205 189
134.267 -108.363 981.174 218 202 186
134.267 -107.863 981.169 218 202 187
134.267 -107.363 981.165 218 202 187
134.267 -106.863 981.140 179 163 151
134.267 -106.363 981.101 160 146 135
134.267 -105.863 981.052 160 146 135
134.767 -114.863 981.235 155 145 140
134.767 -114.363 981.399 158 147 143
134.767 -113.863 981.786 150 140 134
134.767 -113.363 981.919 171 160 154
134.767 -112.863 981.929 154 143 137
134.767 -112.363 981.895 145 134 128
134.767 -111.863 981.722 133 124 118
134.767 -111.363 981.601 122 113 111
134.767 -110.863 981.484 136 126 123
134.767 -110.363 981.387 141 132 127
134.767 -109.863 981.249 168 155 147
134.767 -109.363 981.170 212 198 187
134.767 -108.863 981.150 220 205 191
134.767 -108.363 981.146 218 201 185
134.767 -107.863 981.143 215 199 184
134.767 -107.363 981.122 217 202 186
134.767 -106.863 981.100 179 164 151
134.767 -106.363 981.075 159 145 136
134.767 -105.863 981.039 154 141 132
135.267 -114.863 981.303 155 144 140
135.267 -114.363 981.454 141 130 124
135.267 -113.863 981.799 133 124 117
135.267 -113.363 981.896 156 147 140
135.267 -112.863 981.911 152 143 138
135.267 -112.363 981.855 133 123 121
135.267 -111.863 981.660 123 116 113
135.267 -111.363 981.530 113 105 103
135.267 -110.863 981.414 120 112 108
135.267 -110.363 981.282 148 138 129
135.267 -109.863 981.176 179 166 156
135.267 -109.363 981.124 215 203 191
135.267 -108.863 981.095 215 201 188
135.267 -108.363 981.084 208 195 179
135.267 -107.863 981.101 211 198 182
135.267 -107.363 981.097 208 194 180
135.267 -106.863 981.084 180 168 156
135.267 -106.363 981.064 153 140 132
135.267 -105.863 981.028 144 131 125
135.767 -114.863 981.345 137 126 122
135.767 -114.363 981.502 135 124 118
135.767 -113.863 981.800 139 130 123
135.767 -113.363 981.849 153 144 137
135.767 -112.863 981.863 140 131 127
135.767 -112.363 981.741 128 119 116
135.767 -111.863 981.548 124 116 116
135.767 -111.363 981.440 118 109 107
135.767 -110.863 981.307 117 108 104
135.767 -110.363 981.206 145 134 128
135.767 -109.863 981.143 179 167 157
135.767 -109.363 981.106 216 204 192
135.767 -108.863 981.075 199 185 174
135.767 -108.363 981.054 171 157 146
135.767 -107.863 981.053 187 173 160
135.767 -107.363 981.063 191 177 166
135.767 -106.863 981.068 166 153 142
135.767 -106.363 981.051 129 117 109
135.767 -105.863 981.013 133 119 116
136.267 -114.863 981.358 144 133 129
136.267 -114.363 981.628 138 127 122
136.267 -113.863 981.811 143 134 127
136.267 -113.363 981.827 140 131 124
136.267 -112.863 981.806 129 120 116
136.267 -112.363 981.688 123 113 112
136.267 -111.863 981.501 125 117 117
136.267 -111.363 981.399 119 110 108
136.267 -110.863 981.266 116 107 103
136.267 -110.363 981.154 137 126 120
136.267 -109.863 981.101 183 169 160
136.267 -109.363 981.063 208 196 184
136.267 -108.863 981.045 176 162 151
136.267 -108.363 981.036 147 133 124
136.267 -107.863 981.032 166 151 140
136.267 -107.363 981.039 173 161 149
136.267 -106.863 981.036 163 150 141
136.267 -106.363 981.016 149 136 129
136.267 -105.863 980.993 138 124 121
136.767 -114.863 981.385 159 148 145
136.767 -114.363 981.701 158 147 143
136.767 -113.863 981.811 169 160 154
136.767 -113.363 981.813 150 141 136
136.767 -112.863 981.749 129 119 116
136.767 -112.363 981.643 126 117 114
136.767 -111.863 981.494 125 117 117
136.767 -111.363 981.388 122 113 114
136.767 -110.863 981.217 120 111 109
136.767 -110.363 981.108 142 131 125
136.767 -109.863 981.059 185 172 164
136.767 -109.363 981.021 196 184 174
136.767 -108.863 980.987 159 145 135
136.767 -108.363 980.991 157 144 135
136.767 -107.863 980.992 167 153 144
136.767 -107.363 980.987 164 151 142
136.767 -106.863 980.977 153 141 132
136.767 -106.363 980.972 142 131 125
136.767 -105.863 980.963 126 116 111
137.267 -114.863 981.447 134 123 121
137.267 -114.363 981.706 149 138 134
137.267 -113.863 981.795 176 168 162
137.267 -113.363 981.796 154 145 140
137.267 -112.863 981.711 134 124 122
137.267 -112.363 981.592 130 120 119
137.267 -111.863 981.456 124 116 116
137.267 -111.363 981.344 122 113 114
137.267 -110.863 981.181 126 119 116
137.267 -110.363 981.072 156 145 140
137.267 -109.863 981.011 186 173 165
137.267 -109.363 980.979 183 169 160
137.267 -108.863 980.956 158 145 136
137.267 -108.363 980.950 163 150 141
137.267 -107.863 980.951 180 168 156
137.267 -107.363 980.958 179 168 156
137.267 -106.863 980.962 157 146 137
137.267 -106.363 980.954 150 140 131
137.267 -105.863 980.944 141 130 124
137.767 -114.863 981.539 123 112 110
137.767 -114.363 981.704 135 124 120
137.767 -113.863 981.749 156 147 142
137.767 -113.363 981.744 140 131 126
137.767 -112.863 981.685 128 119 116
137.767 -112.363 981.568 124 115 113
137.767 -111.863 981.432 120 111 114
137.767 -111.363 981.255 121 112 113
137.767 -110.863 981.123 128 119 117
137.767 -110.363 981.026 168 156 153
137.767 -109.863 980.982 209 196 188
137.767 -109.363 980.955 186 173 164
137.767 -108.863 980.933 166 151 142
137.767 -108.363 980.928 175 162 153
137.767 -107.863 980.933 203 191 179
137.767 -107.363 980.951 186 174 162
137.767 -106.863 980.948 158 148 137
137.767 -106.363 980.928 166 155 145
137.767 -105.863 980.916 161 151 142
138.267 -114.863 981.461 138 129 122
138.267 -114.363 981.652 146 137 132
138.267 -113.863 981.709 168 158 153
138.267 -113.363 981.695 132 124 121
138.267 -112.863 981.630 121 113 111
138.267 -112.363 981.528 118 109 107
138.267 -111.863 981.376 115 109 109
138.267 -111.363 981.206 117 111 109
138.267 -110.863 981.070 119 110 105
138.267 -110.363 980.961 171 158 151
138.267 -109.863 980.939 207 194 185
138.267 -109.363 980.923 184 171 162
138.267 -108.863 980.898 168 154 142
138.267 -108.363 980.912 192 179 167
138.267 -107.863 980.924 215 201 190
138.267 -107.363 980.948 172 160 148
138.267 -106.863 980.949 146 133 124
138.267 -106.363 980.925 168 157 147
138.267 -105.863 980.903 170 160 150
138.767 -114.863 981.381 147 138 134
138.767 -114.363 981.581 150 141 137
138.767 -113.863 981.661 160 150 148
138.767 -113.363 981.643 130 122 119
138.767 -112.863 981.557 120 112 110
138.767 -112.363 981.441 118 109 107
138.767 -111.863 981.274 113 107 107
138.767 -111.363 981.124 118 109 107
138.767 -110.863 981.013 119 108 103
138.767 -110.363 980.938 189 176 168
138.767 -109.863 980.912 200 187 177
138.767 -109.363 980.892 177 166 155
138.767 -108.863 980.881 169 156 144
138.767 -108.363 980.900 197 184 171
138.767 -107.863 980.919 216 202 190
138.767 -107.363 980.937 169 157 145
138.767 -106.863 980.924 161 148 137
138.767 -106.363 980.898 175 162 153
138.767 -105.863 980.876 173 163 152
139.267 -114.863 981.407 136 125 124
139.267 -114.363 981.559 132 122 121
139.267 -113.863 981.614 137 127 126
139.267 -113.363 981.578 124 117 114
139.267 -112.863 981.506 120 113 111
139.267 -112.363 981.410 120 115 112
139.267 -111.863 981.237 119 112 112
139.267 -111.363 981.080 116 107 105
139.267 -110.863 980.987 139 129 124
139.267 -110.363 980.923 200 187 178
139.267 -109.863 980.890 194 183 171
139.267 -109.363 980.871 177 166 153
139.267 -108.863 980.873 172 160 147
139.267 -108.363 980.885 186 172 159
139.267 -107.863 980.905 207 193 180
139.267 -107.363 980.918 184 170 158
139.267 -106.863 980.894 198 184 171
139.267 -106.363 980.879 196 184 171
139.267 -105.863 980.859 197 184 171
139.767 -114.863 981.478 131 119 119
139.767 -114.363 981.572 130 120 119
139.767 -113.863 981.594 141 131 130
139.767 -113.363 981.534 122 115 112
139.767 -112.863 981.469 123 117 116
139.767 -112.363 981.356 123 118 117
139.767 -111.863 981.198 123 119 116
139.767 -111.363 981.043 125 118 114
139.767 -110.863 980.982 145 135 127
139.767 -110.363 980.912 194 183 172
139.767 -109.863 980.872 196 183 171
139.767 -109.363 980.854 180 167 153
139.767 -108.863 980.857 176 163 149
139.767 -108.363 980.865 189 175 162
139.767 -107.863 980.881 209 195 182
139.767 -107.363 980.886 209 195 182
139.767 -106.863 980.858 207 193 180
139.767 -106.363 980.844 208 194 181
139.767 -105.863 980.837 209 195 182
140.267 -114.863 981.539 137 126 123
140.267 -114.363 981.566 152 141 137
140.267 -113.863 981.567 139 129 127
140.267 -113.363 981.490 124 117 114
140.267 -112.863 981.432 126 120 120
140.267 -112.363 981.299 121 116 116
140.267 -111.863 981.167 118 112 109
140.267 -111.363 981.037 137 130 124
140.267 -110.863 980.986 153 141 133
140.267 -110.363 980.924 192 179 167
140.267 -109.863 980.861 193 179 166
140.267 -109.363 980.853 184 170 157
140.267 -108.863 980.858 186 172 159
140.267 -108.363 980.857 199 185 172
140.267 -107.863 980.850 203 189 176
140.267 -107.363 980.857 192 179 163
140.267 -106.863 980.838 202 188 172
140.267 -106.363 980.817 211 195 180
140.267 -105.863 980.803 208 192 177
140.767 -114.863 981.565 174 162 153
140.767 -114.363 981.594 176 166 159
140.767 -113.863 981.582 139 129 125
140.767 -113.363 981.498 130 122 120
140.767 -112.863 981.410 123 119 118
140.767 -112.363 981.254 116 111 112
140.767 -111.863 981.152 118 111 108
140.767 -111.363 981.024 138 129 123
140.767 -110.863 980.980 174 163 154
140.767 -110.363 980.930 202 189 176
140.767 -109.863 980.868 188 174 161
140.767 -109.363 980.860 186 173 157
140.767 -108.863 980.860 186 173 158
140.767 -108.363 980.844 197 184 170
140.767 -107.863 980.820 204 191 175
140.767 -107.363 980.835 194 181 165
140.767 -106.863 980.810 203 187 171
140.767 -106.363 980.794 209 193 177
140.767 -105.863 980.777 199 184 167
141.267 -114.863 981.602 198 185 176
141.267 -114.363 981.642 167 155 148
141.267 -113.863 981.622 132 123 120
141.267 -113.363 981.548 128 122 121
141.267 -112.863 981.394 123 119 118
141.267 -112.363 981.218 115 110 109
141.267 -111.863 981.133 115 106 104
141.267 -111.363 981.004 142 133 127
141.267 -110.863 980.963 190 179 170
141.267 -110.363 980.907 208 194 181
141.267 -109.863 980.871 195 180 164
141.267 -109.363 980.862 184 169 153
141.267 -108.863 980.858 200 185 171
141.267 -108.363 980.844 200 185 171
141.267 -107.863 980.811 205 189 174
141.267 -107.363 980.808 206 191 176
141.267 -106.863 980.783 196 181 166
141.267 -106.363 980.767 204 190 174
141.267 -105.863 980.751 205 191 175
141.767 -114.863 981.648 194 179 170
141.767 -114.363 981.675 144 131 125
141.767 -113.863 981.654 119 108 106
141.767 -113.363 981.582 126 118 118
141.767 -112.863 981.386 127 121 121
141.767 -112.363 981.193 118 112 109
141.767 -111.863 981.109 122 115 111
141.767 -111.363 980.989 156 147 141
141.767 -110.863 980.943 203 189 181
141.767 -110.363 980.902 215 199 186
141.767 -109.863 980.867 212 196 180
141.767 -109.363 980.847 212 197 178
141.767 -108.863 980.829 215 199 183
141.767 -108.363 980.819 208 192 177
141.767 -107.863 980.797 203 187 172
141.767 -107.363 980.779 206 190 175
141.767 -106.863 980.763 209 195 179
141.767 -106.363 980.749 211 198 182
141.767 -105.863 980.720 215 202 186
142.267 -114.863 981.657 188 173 162
142.267 -114.363 981.671 136 125 116
142.267 -113.863 981.647 115 105 103
142.267 -113.363 981.560 111 102 103
142.267 -112.863 981.381 124 119 118
142.267 -112.363 981.176 126 119 116
142.267 -111.863 981.086 137 127 122
142.267 -111.363 980.978 174 164 156
142.267 -110.863 980.921 212 199 188
142.267 -110.363 980.888 221 206 191
142.267 -109.863 980.855 218 202 186
142.267 -109.363 980.837 220 205 186
142.267 -108.863 980.811 219 203 187
142.267 -108.363 980.799 208 192 177
142.267 -107.863 980.779 200 184 170
142.267 -107.363 980.760 209 193 178
142.267 -106.863 980.743 219 204 189
142.267 -106.363 980.721 221 208 192
142.267 -105.863 980.688 222 209 193
142.767 -114.863 981.646 192 179 166
142.767 -114.363 981.651 137 126 117
142.767 -113.863 981.595 115 104 102
142.767 -113.363 981.514 109 101 99
142.767 -112.863 981.373 120 112 110
142.767 -112.363 981.157 132 122 120
142.767 -111.863 981.077 153 143 136
142.767 -111.363 980.969 197 186 177
142.767 -110.863 980.904 220 207 193
142.767 -110.363 980.867 225 209 193
142.767 -109.863 980.833 225 209 193
142.767 -109.363 980.815 222 206 190
142.767 -108.863 980.795 219 205 189
142.767 -108.363 980.780 216 200 184
142.767 -107.863 980.753 216 200 184
142.767 -107.363 980.729 224 208 192
142.767 -106.863 980.708 223 209 192
142.767 -106.363 980.679 224 211 194
142.767 -105.863 980.650 222 209 192
143.267 -114.863 981.600 184 171 160
143.267 -114.363 981.599 148 136 130
143.267 -113.863 981.539 124 115 111
143.267 -113.363 981.461 122 112 111
143.267 -112.863 981.353 130 119 117
143.267 -112.363 981.136 144 131 129
143.267 -111.863 981.027 173 161 151
143.267 -111.363 980.953 212 200 188
143.267 -110.863 980.886 223 209 193
143.267 -110.363 980.852 226 210 194
143.267 -109.863 980.819 222 206 190
143.267 -109.363 980.793 223 207 191
143.267 -108.863 980.767 223 209 192
143.267 -108.363 980.745 221 205 189
143.267 -107.863 980.727 222 206 190
143.267 -107.363 980.698 224 208 192
143.267 -106.863 980.666 224 209 193
143.267 -106.363 980.636 224 211 194
143.267 -105.863 980.611 223 210 193
143.767 -114.863 981.532 152 140 132
143.767 -114.363 981.515 151 140 136
143.767 -113.863 981.465 136 126 124
143.767 -113.363 981.376 135 125 123
143.767 -112.863 981.263 143 131 127
143.767 -112.363 981.089 166 152 145
143.767 -111.863 980.973 203 191 178
143.767 -111.363 980.914 218 204 191
143.767 -110.863 980.862 226 210 194
143.767 -110.363 980.831 225 209 191
143.767 -109.863 980.798 222 207 188
143.767 -109.363 980.777 225 209 193
143.767 -108.863 980.747 221 207 190
143.767 -108.363 980.705 222 206 190
143.767 -107.863 980.679 223 207 191
143.767 -107.363 980.669 223 207 191
143.767 -106.863 980.640 224 209 193
143.767 -106.363 980.610 223 210 193
143.767 -105.863 980.588 222 209 192
144.267 -114.863 981.482 147 135 129
144.267 -114.363 981.448 140 129 125
144.267 -113.863 981.388 136 126 124
144.267 -113.363 981.298 140 129 126
144.267 -112.863 981.164 147 136 129
144.267 -112.363 981.031 175 161 153
144.267 -111.863 980.951 208 196 182
144.267 -111.363 980.871 220 207 191
144.267 -110.863 980.827 226 210 194
144.267 -110.363 980.786 224 209 190
144.267 -109.863 980.759 216 201 182
144.267 -109.363 980.736 211 195 179
144.267 -108.863 980.717 213 199 182
144.267 -108.363 980.681 221 206 187
144.267 -107.863 980.646 224 209 190
144.267 -107.363 980.646 225 210 191
144.267 -106.863 980.628 224 210 191
144.267 -106.363 980.603 223 210 191
144.267 -105.863 980.589 221 208 190
144.767 -114.863 981.446 137 130 123
144.767 -114.363 981.378 127 118 116
144.767 -113.863 981.324 128 118 116
144.767 -113.363 981.209 132 119 116
144.767 -112.863 981.086 152 138 130
144.767 -112.363 980.999 199 185 172
144.767 -111.863 980.897 213 200 183
144.767 -111.363 980.826 222 209 192
144.767 -110.863 980.782 223 210 193
144.767 -110.363 980.745 223 210 193
144.767 -109.863 980.725 215 202 185
144.767 -109.363 980.698 192 179 162
144.767 -108.863 980.691 202 189 172
144.767 -108.363 980.674 217 204 188
144.767 -107.863 980.647 221 208 192
144.767 -107.363 980.639 223 210 194
144.767 -106.863 980.618 222 209 193
144.767 -106.363 980.602 219 206 190
144.767 -105.863 980.590 218 205 189
145.267 -114.863 981.396 131 123 116
145.267 -114.363 981.313 127 118 113
145.267 -113.863 981.252 128 118 114
145.267 -113.363 981.137 135 122 116
145.267 -112.863 980.991 144 130 119
145.267 -112.363 980.943 203 188 173
145.267 -111.863 980.837 218 205 188
145.267 -111.363 980.777 223 210 193
145.267 -110.863 980.741 224 211 194
145.267 -110.363 980.713 223 210 193
145.267 -109.863 980.690 221 208 191
145.267 -109.363 980.678 207 194 177
145.267 -108.863 980.678 211 198 182
145.267 -108.363 980.658 221 208 192
145.267 -107.863 980.641 223 210 194
145.267 -107.363 980.627 222 209 193
145.267 -106.863 980.603 220 207 191
145.267 -106.363 980.590 213 200 184
145.267 -105.863 980.573 218 205 189
145.767 -114.863 981.331 133 122 116
145.767 -114.363 981.254 130 119 113
145.767 -113.863 981.146 138 125 118
145.767 -113.363 981.034 155 141 132
145.767 -112.863 980.914 177 162 148
145.767 -112.363 980.871 213 197 181
145.767 -111.863 980.799 221 208 191
145.767 -111.363 980.745 223 210 193
145.767 -110.863 980.714 225 212 195
145.767 -110.363 980.695 225 212 195
145.767 -109.863 980.680 223 210 193
145.767 -109.363 980.664 219 206 189
145.767 -108.863 980.657 216 203 187
145.767 -108.363 980.639 220 207 191
145.767 -107.863 980.625 220 207 191
145.767 -107.363 980.600 217 204 188
145.767 -106.863 980.582 214 201 185
145.767 -106.363 980.573 216 203 187
145.767 -105.863 980.556 219 206 190
146.267 -114.863 981.245 143 130 122
146.267 -114.363 981.140 141 128 120
146.267 -113.863 981.033 163 148 139
146.267 -113.363 980.945 197 184 171
146.267 -112.863 980.865 207 193 177
146.267 -112.363 980.822 222 207 188
146.267 -111.863 980.762 223 210 193
146.267 -111.363 980.731 224 211 194
146.267 -110.863 980.699 226 213 196
146.267 -110.363 980.690 226 213 196
146.267 -109.863 980.684 225 212 195
146.267 -109.363 980.660 224 211 194
146.267 -108.863 980.648 223 210 194
146.267 -108.363 980.630 223 210 194
146.267 -107.863 980.609 220 207 191
146.267 -107.363 980.587 212 199 183
146.267 -106.863 980.571 218 205 189
146.267 -106.363 980.554 222 209 193
146.267 -105.863 980.538 218 205 189
146.767 -114.863 981.080 172 159 147
146.767 -114.363 980.990 184 170 159
146.767 -113.863 980.949 201 187 172
146.767 -113.363 980.892 213 200 184
146.767 -112.863 980.818 222 206 190
146.767 -112.363 980.776 223 208 190
146.767 -111.863 980.723 223 210 193
146.767 -111.363 980.706 224 211 194
146.767 -110.863 980.689 226 213 196
146.767 -110.363 980.677 226 213 196
146.767 -109.863 980.676 226 213 196
146.767 -109.363 980.654 226 213 196
146.767 -108.863 980.639 224 211 194
146.767 -108.363 980.616 223 210 194
146.767 -107.863 980.577 225 212 196
146.767 -107.363 980.576 223 210 194
146.767 -106.863 980.564 223 210 194
146.767 -106.363 980.544 221 208 192
146.767 -105.863 980.527 216 203 187
147.267 -114.863 980.934 204 190 175
147.267 -114.363 980.881 214 199 183
147.267 -113.863 980.852 220 204 188
147.267 -113.363 980.801 222 206 190
147.267 -112.863 980.750 226 210 194
147.267 -112.363 980.715 224 208 193
147.267 -111.863 980.689 223 210 193
147.267 -111.363 980.682 224 211 194
147.267 -110.863 980.676 226 213 196
147.267 -110.363 980.648 226 213 196
147.267 -109.863 980.626 226 213 196
147.267 -109.363 980.626 226 213 196
147.267 -108.863 980.603 225 212 196
147.267 -108.363 980.585 222 209 193
147.267 -107.863 980.551 221 208 192
147.267 -107.363 980.551 219 206 190
147.267 -106.863 980.542 219 206 190
147.267 -106.363 980.524 219 206 190
147.267 -105.863 980.510 218 205 189
147.767 -114.863 980.867 221 206 187
147.767 -114.363 980.823 225 210 191
147.767 -113.863 980.772 222 209 190
147.767 -113.363 980.720 224 211 194
147.767 -112.863 980.693 225 212 195
147.767 -112.363 980.662 224 211 194
147.767 -111.863 980.654 224 211 194
147.767 -111.363 980.657 225 212 195
147.767 -110.863 980.649 225 212 195
147.767 -110.363 980.613 225 212 195
147.767 -109.863 980.581 227 214 197
147.767 -109.363 980.589 225 212 195
147.767 -108.863 980.571 220 207 191
147.767 -108.363 980.562 217 204 188
147.767 -107.863 980.545 214 201 185
147.767 -107.363 980.537 219 206 190
147.767 -106.863 980.524 221 208 192
147.767 -106.363 980.512 220 207 191
147.767 -105.863 980.501 220 207 191
148.267 -114.863 980.822 225 210 191
148.267 -114.363 980.769 226 211 192
148.267 -113.863 980.712 224 211 192
148.267 -113.363 980.670 225 212 195
148.267 -112.863 980.658 226 213 196
148.267 -112.363 980.643 225 212 195
148.267 -111.863 980.640 225 212 195
148.267 -111.363 980.642 225 212 195
148.267 -110.863 980.617 225 212 195
148.267 -110.363 980.589 224 211 194
148.267 -109.863 980.563 223 210 193
148.267 -109.363 980.565 222 209 192
148.267 -108.863 980.560 212 199 183
148.267 -108.363 980.562 207 194 178
148.267 -107.863 980.548 205 192 176
148.267 -107.363 980.527 209 196 180
148.267 -106.863 980.508 217 204 188
148.267 -106.363 980.498 219 206 190
148.267 -105.863 980.494 221 208 192
148.767 -114.863 980.780 224 209 190
148.767 -114.363 980.714 227 211 193
148.767 -113.863 980.677 227 214 197
148.767 -113.363 980.652 226 213 196
148.767 -112.863 980.631 226 213 197
148.767 -112.363 980.625 225 212 196
148.767 -111.863 980.632 224 211 194
148.767 -111.363 980.629 220 207 190
148.767 -110.863 980.601 219 206 189
148.767 -110.363 980.577 215 202 185
148.767 -109.863 980.548 214 201 184
148.767 -109.363 980.547 214 201 184
148.767 -108.863 980.542 199 186 170
148.767 -108.363 980.548 186 173 157
148.767 -107.863 980.542 184 170 154
148.767 -107.363 980.530 197 184 168
148.767 -106.863 980.512 214 201 185
148.767 -106.363 980.496 219 206 190
148.767 -105.863 980.490 216 203 187
149.267 -114.863 980.718 227 212 195
149.267 -114.363 980.678 228 212 196
149.267 -113.863 980.666 226 213 196
149.267 -113.363 980.642 226 213 196
149.267 -112.863 980.615 226 213 196
149.267 -112.363 980.610 222 209 193
149.267 -111.863 980.612 217 204 188
149.267 -111.363 980.601 210 197 181
149.267 -110.863 980.583 211 198 181
149.267 -110.363 980.569 207 194 178
149.267 -109.863 980.548 214 201 184
149.267 -109.363 980.545 217 204 188
149.267 -108.863 980.529 211 198 182
149.267 -108.363 980.527 206 193 177
149.267 -107.863 980.524 200 187 171
149.267 -107.363 980.523 206 193 177
149.267 -106.863 980.503 208 195 179
149.267 -106.363 980.490 211 198 182
149.267 -105.863 980.491 216 203 187
149.767 -114.863 980.689 228 212 196
149.767 -114.363 980.664 227 211 195
149.767 -113.863 980.662 225 212 195
149.767 -113.363 980.638 225 212 196
149.767 -112.863 980.608 224 211 195
149.767 -112.363 980.596 214 201 185
149.767 -111.863 980.602 203 190 174
149.767 -111.363 980.590 202 189 173
149.767 -110.863 980.572 212 199 183
149.767 -110.363 980.548 217 204 188
149.767 -109.863 980.528 219 206 190
149.767 -109.363 980.519 222 209 193
149.767 -108.863 980.514 220 207 191
149.767 -108.363 980.514 212 199 183
149.767 -107.863 980.516 209 196 180
149.767 -107.363 980.518 187 174 158
149.767 -106.863 980.497 189 176 160
149.767 -106.363 980.486 212 199 183
149.767 -105.863 980.492 216 203 187
150.267 -114.863 980.674 226 210 194
150.267 -114.363 980.646 226 210 194
150.267 -113.863 980.642 224 211 195
150.267 -113.363 980.624 224 211 195
150.267 -112.863 980.596 224 211 195
150.267 -112.363 980.567 218 205 189
150.267 -111.863 980.574 216 203 187
150.267 -111.363 980.571 220 207 191
150.267 -110.863 980.557 221 208 192
150.267 -110.363 980.535 221 208 192
150.267 -109.863 980.518 221 208 192
150.267 -109.363 980.515 218 205 189
150.267 -108.863 980.507 216 203 187
150.267 -108.363 980.502 202 189 173
150.267 -107.863 980.506 196 184 167
150.267 -107.363 980.511 188 175 159
150.267 -106.863 980.494 199 186 171
150.267 -106.363 980.477 214 201 185
150.267 -105.863 980.478 218 205 189
150.767 -114.863 980.665 225 209 193
150.767 -114.363 980.639 224 209 193
150.767 -113.863 980.626 223 210 194
150.767 -113.363 980.604 224 211 195
150.767 -112.863 980.589 223 210 194
150.767 -112.363 980.566 222 208 195
150.767 -111.863 980.570 222 209 193
150.767 -111.363 980.565 219 206 190
150.767 -110.863 980.531 219 206 190
150.767 -110.363 980.517 217 204 188
150.767 -109.863 980.492 208 195 179
150.767 -109.363 980.501 200 187 171
150.767 -108.863 980.503 211 198 182
150.767 -108.363 980.500 217 204 189
150.767 -107.863 980.507 213 200 185
150.767 -107.363 980.510 185 172 156
150.767 -106.863 980.494 195 184 167
150.767 -106.363 980.481 216 203 187
150.767 -105.863 980.483 222 209 193
151.267 -114.863 980.643 223 210 194
151.267 -114.363 980.622 223 210 194
151.267 -113.863 980.613 221 208 192
151.267 -113.363 980.595 220 207 191
151.267 -112.863 980.571 217 204 188
151.267 -112.363 980.555 206 193 177
151.267 -111.863 980.551 205 192 176
151.267 -111.363 980.544 204 191 175
151.267 -110.863 980.513 212 199 183
151.267 -110.363 980.510 217 205 189
151.267 -109.863 980.489 213 201 185
151.267 -109.363 980.501 212 200 184
151.267 -108.863 980.497 218 206 190
151.267 -108.363 980.497 221 209 194
151.267 -107.863 980.503 220 208 193
151.267 -107.363 980.510 216 204 188
151.267 -106.863 980.502 222 210 194
151.267 -106.363 980.487 226 214 198
151.267 -105.863 980.482 227 215 200
