189.267 -16.863 960.139 156 148 145
189.267 -16.363 960.150 154 146 143
189.267 -15.863 960.171 138 129 124
189.267 -15.363 960.190 140 130 127
189.267 -14.863 960.211 131 121 118
189.267 -14.363 960.225 141 131 127
189.267 -13.863 960.269 144 133 128
189.267 -13.363 960.294 149 138 132
189.267 -12.863 960.313 170 160 151
189.267 -12.363 960.334 179 168 158
189.267 -11.863 960.366 192 180 171
189.267 -11.363 960.387 198 186 175
189.267 -10.863 960.424 193 181 171
189.267 -10.363 960.453 190 177 166
189.267 -9.863 960.512 195 183 173
189.267 -9.363 960.571 190 179 171
189.267 -8.863 960.604 177 166 158
189.767 -17.863 960.092 146 138 136
189.767 -17.363 960.113 151 143 140
189.767 -16.863 960.135 167 158 155
189.767 -16.363 960.147 163 155 152
189.767 -15.863 960.173 156 146 144
189.767 -15.363 960.195 148 138 136
189.767 -14.863 960.215 135 125 123
189.767 -14.363 960.229 141 130 128
189.767 -13.863 960.268 138 127 123
189.767 -13.363 960.316 145 134 128
189.767 -12.863 960.333 183 171 162
189.767 -12.363 960.364 202 189 180
189.767 -11.863 960.380 207 194 185
189.767 -11.363 960.402 205 193 181
189.767 -10.863 960.431 189 177 165
189.767 -10.363 960.455 186 174 162
189.767 -9.863 960.506 190 177 168
189.767 -9.363 960.559 171 158 150
189.767 -8.863 960.604 157 145 138
190.267 -17.863 960.092 142 134 132
190.267 -17.363 960.110 150 142 139
190.267 -16.863 960.121 148 140 137
190.267 -16.363 960.135 140 132 129
190.267 -15.863 960.159 146 136 134
190.267 -15.363 960.180 148 138 136
190.267 -14.863 960.197 146 136 134
190.267 -14.363 960.205 144 134 132
190.267 -13.863 960.249 146 135 131
190.267 -13.363 960.310 157 146 140
190.267 -12.863 960.339 191 180 171
190.267 -12.363 960.387 208 195 186
190.267 -11.863 960.388 209 196 187
190.267 -11.363 960.402 209 197 185
190.267 -10.863 960.439 190 179 166
190.267 -10.363 960.470 192 180 168
190.267 -9.863 960.493 188 175 166
190.267 -9.363 960.530 171 158 149
190.267 -8.863 960.591 154 142 134
190.767 -17.863 960.079 139 131 129
190.767 -17.363 960.097 133 125 122
190.767 -16.863 960.109 139 131 128
190.767 -16.363 960.129 139 131 128
190.767 -15.863 960.145 135 127 124
190.767 -15.363 960.166 141 133 130
190.767 -14.863 960.182 150 140 139
190.767 -14.363 960.198 164 154 152
190.767 -13.863 960.236 168 159 154
190.767 -13.363 960.288 171 161 155
190.767 -12.863 960.335 186 175 167
190.767 -12.363 960.380 203 190 181
190.767 -11.863 960.393 208 195 186
190.767 -11.363 960.399 208 196 184
190.767 -10.863 960.434 186 174 162
190.767 -10.363 960.454 184 172 160
190.767 -9.863 960.478 198 185 176
190.767 -9.363 960.506 189 176 167
190.767 -8.863 960.567 170 158 149
191.267 -17.863 960.066 139 131 129
191.267 -17.363 960.086 145 137 134
191.267 -16.863 960.096 151 143 140
191.267 -16.363 960.121 140 132 129
191.267 -15.863 960.138 133 125 123
191.267 -15.363 960.153 129 121 119
191.267 -14.863 960.175 138 129 128
191.267 -14.363 960.197 154 144 142
191.267 -13.863 960.235 160 151 148
191.267 -13.363 960.275 146 137 131
191.267 -12.863 960.317 152 141 134
191.267 -12.363 960.354 188 175 167
191.267 -11.863 960.384 204 191 182
191.267 -11.363 960.390 210 198 186
191.267 -10.863 960.413 195 184 171
191.267 -10.363 960.434 189 177 165
191.267 -9.863 960.453 190 177 168
191.267 -9.363 960.457 189 177 165
191.267 -8.863 960.501 198 187 176
191.767 -17.863 960.044 154 146 144
191.767 -17.363 960.068 148 140 137
191.767 -16.863 960.089 135 127 124
191.767 -16.363 960.124 145 137 134
191.767 -15.863 960.148 134 126 124
191.767 -15.363 960.159 130 122 120
191.767 -14.863 960.189 130 122 120
191.767 -14.363 960.214 135 127 125
191.767 -13.863 960.241 152 142 140
191.767 -13.363 960.275 137 128 123
191.767 -12.863 960.316 155 144 137
191.767 -12.363 960.335 186 173 164
191.767 -11.863 960.367 191 179 170
191.767 -11.363 960.379 204 192 180
191.767 -10.863 960.385 206 194 182
191.767 -10.363 960.395 189 177 165
191.767 -9.863 960.433 192 179 171
191.767 -9.363 960.447 193 181 167
191.767 -8.863 960.486 213 201 189
192.267 -17.863 960.036 151 143 141
192.267 -17.363 960.066 137 129 126
192.267 -16.863 960.095 127 119 116
192.267 -16.363 960.131 136 128 125
192.267 -15.863 960.157 143 138 135
192.267 -15.363 960.169 136 128 126
192.267 -14.863 960.191 130 122 120
192.267 -14.363 960.215 141 133 131
192.267 -13.863 960.242 145 135 133
192.267 -13.363 960.276 144 135 130
192.267 -12.863 960.321 163 153 145
192.267 -12.363 960.331 161 148 139
192.267 -11.863 960.349 185 172 163
192.267 -11.363 960.367 200 188 176
192.267 -10.863 960.386 211 199 187
192.267 -10.363 960.389 198 186 174
192.267 -9.863 960.420 172 159 149
192.267 -9.363 960.446 185 173 159
192.267 -8.863 960.471 209 198 186
192.767 -17.863 960.036 142 134 132
192.767 -17.363 960.076 128 120 118
192.767 -16.863 960.106 122 115 112
192.767 -16.363 960.142 138 130 128
192.767 -15.863 960.165 155 147 144
192.767 -15.363 960.178 146 138 136
192.767 -14.863 960.185 139 131 129
192.767 -14.363 960.215 138 130 128
192.767 -13.863 960.243 134 126 123
192.767 -13.363 960.282 139 132 126
192.767 -12.863 960.327 156 148 139
192.767 -12.363 960.340 147 137 127
192.767 -11.863 960.356 170 160 150
192.767 -11.363 960.389 196 186 176
192.767 -10.863 960.412 207 196 185
192.767 -10.363 960.406 207 195 183
192.767 -9.863 960.411 187 175 163
192.767 -9.363 960.436 183 170 156
192.767 -8.863 960.476 205 193 182
193.267 -17.863 960.038 125 118 116
193.267 -17.363 960.085 121 113 111
193.267 -16.863 960.107 120 112 110
193.267 -16.363 960.143 126 119 116
193.267 -15.863 960.161 137 129 126
193.267 -15.363 960.170 135 127 125
193.267 -14.863 960.174 137 129 127
193.267 -14.363 960.216 132 124 122
193.267 -13.863 960.252 129 121 118
193.267 -13.363 960.296 136 129 123
193.267 -12.863 960.326 154 146 137
193.267 -12.363 960.342 168 159 149
193.267 -11.863 960.364 187 177 167
193.267 -11.363 960.412 193 184 173
193.267 -10.863 960.438 205 195 183
193.267 -10.363 960.431 209 197 185
193.267 -9.863 960.434 207 195 183
193.267 -9.363 960.461 189 177 164
193.267 -8.863 960.498 186 175 165
193.767 -17.863 960.043 118 109 107
193.767 -17.363 960.076 119 110 108
193.767 -16.863 960.103 123 116 113
193.767 -16.363 960.142 121 113 111
193.767 -15.863 960.151 125 118 114
193.767 -15.363 960.172 125 118 116
193.767 -14.863 960.180 128 120 118
193.767 -14.363 960.220 125 118 116
193.767 -13.863 960.254 135 127 124
193.767 -13.363 960.297 145 138 132
193.767 -12.863 960.327 164 156 148
193.767 -12.363 960.356 175 168 156
193.767 -11.863 960.394 193 185 174
193.767 -11.363 960.415 198 188 178
193.767 -10.863 960.450 201 191 180
193.767 -10.363 960.457 202 192 180
193.767 -9.863 960.455 203 193 181
193.767 -9.363 960.482 200 187 178
193.767 -8.863 960.531 188 179 168
194.267 -17.863 960.029 121 113 111
194.267 -17.363 960.066 123 116 113
194.267 -16.863 960.103 133 125 123
194.267 -16.363 960.147 140 132 130
194.267 -15.863 960.159 131 123 120
194.267 -15.363 960.182 124 117 114
194.267 -14.863 960.193 121 113 111
194.267 -14.363 960.232 123 116 113
194.267 -13.863 960.269 141 133 130
194.267 -13.363 960.311 150 143 137
194.267 -12.863 960.327 167 158 151
194.267 -12.363 960.358 170 161 152
194.267 -11.863 960.401 175 167 157
194.267 -11.363 960.428 166 156 147
194.267 -10.863 960.455 172 162 152
194.267 -10.363 960.462 167 156 146
194.267 -9.863 960.473 174 164 154
194.267 -9.363 960.498 193 184 173
194.267 -8.863 960.556 181 171 163
194.767 -17.863 960.014 134 126 124
194.767 -17.363 960.060 127 119 117
194.767 -16.863 960.107 148 140 138
194.767 -16.363 960.156 154 146 144
194.767 -15.863 960.181 137 129 126
194.767 -15.363 960.190 127 119 117
194.767 -14.863 960.208 122 115 112
194.767 -14.363 960.245 130 122 120
194.767 -13.863 960.271 143 135 132
194.767 -13.363 960.321 154 147 141
194.767 -12.863 960.341 155 147 141
194.767 -12.363 960.376 145 136 132
194.767 -11.863 960.424 153 143 137
194.767 -11.363 960.439 149 140 133
194.767 -10.863 960.462 147 137 131
194.767 -10.363 960.469 155 145 137
194.767 -9.863 960.495 156 145 137
194.767 -9.363 960.526 172 162 153
194.767 -8.863 960.573 162 152 144
195.267 -17.863 960.025 129 121 119
195.267 -17.363 960.075 132 124 122
195.267 -16.863 960.123 143 135 133
195.267 -16.363 960.166 162 154 152
195.267 -15.863 960.183 149 141 138
195.267 -15.363 960.195 130 122 120
195.267 -14.863 960.213 126 119 116
195.267 -14.363 960.247 145 137 135
195.267 -13.863 960.272 157 149 146
195.267 -13.363 960.320 160 153 147
195.267 -12.863 960.343 141 134 129
195.267 -12.363 960.385 132 124 121
195.267 -11.863 960.446 143 133 131
195.267 -11.363 960.462 131 121 118
195.267 -10.863 960.491 128 119 116
195.267 -10.363 960.498 153 142 138
195.267 -9.863 960.515 156 145 140
195.267 -9.363 960.529 168 158 151
195.267 -8.863 960.575 164 154 148
195.767 -17.863 960.049 123 113 111
195.767 -17.363 960.093 135 125 123
195.767 -16.863 960.138 137 127 124
195.767 -16.363 960.165 160 150 147
195.767 -15.863 960.175 145 136 131
195.767 -15.363 960.191 130 120 117
195.767 -14.863 960.215 148 138 136
195.767 -14.363 960.239 163 154 151
195.767 -13.863 960.271 173 164 159
195.767 -13.363 960.314 167 157 152
195.767 -12.863 960.348 156 147 143
195.767 -12.363 960.378 146 136 134
195.767 -11.863 960.427 142 132 130
195.767 -11.363 960.456 136 126 124
195.767 -10.863 960.513 134 124 122
195.767 -10.363 960.525 150 140 138
195.767 -9.863 960.527 152 142 140
195.767 -9.363 960.523 154 146 140
195.767 -8.863 960.560 159 151 145
196.267 -17.863 960.071 142 132 130
196.267 -17.363 960.101 155 146 141
196.267 -16.863 960.138 163 154 149
196.267 -16.363 960.166 161 152 147
196.267 -15.863 960.181 143 134 129
196.267 -15.363 960.190 146 137 132
196.267 -14.863 960.216 164 155 150
196.267 -14.363 960.242 152 143 138
196.267 -13.863 960.276 162 153 148
196.267 -13.363 960.315 171 162 157
196.267 -12.863 960.349 166 156 152
196.267 -12.363 960.380 150 140 138
196.267 -11.863 960.410 136 126 124
196.267 -11.363 960.445 134 124 122
196.267 -10.863 960.502 134 124 122
196.267 -10.363 960.525 149 139 137
196.267 -9.863 960.533 139 129 127
196.267 -9.363 960.534 137 129 126
196.267 -8.863 960.555 148 140 136
196.767 -17.863 960.081 162 153 148
196.767 -17.363 960.100 167 157 152
196.767 -16.863 960.135 169 160 154
196.767 -16.363 960.175 175 167 159
196.767 -15.863 960.194 171 162 157
196.767 -15.363 960.201 160 151 146
196.767 -14.863 960.226 151 142 137
196.767 -14.363 960.252 138 129 124
196.767 -13.863 960.278 152 143 138
196.767 -13.363 960.310 149 140 135
196.767 -12.863 960.351 159 149 145
196.767 -12.363 960.390 145 135 133
196.767 -11.863 960.417 135 125 123
196.767 -11.363 960.453 133 123 121
196.767 -10.863 960.493 125 116 113
196.767 -10.363 960.526 133 123 121
196.767 -9.863 960.547 139 129 127
196.767 -9.363 960.552 143 135 132
196.767 -8.863 960.576 143 135 132
197.267 -17.863 960.087 160 151 146
197.267 -17.363 960.091 169 160 153
197.267 -16.863 960.141 153 144 137
197.267 -16.363 960.185 157 148 141
197.267 -15.863 960.196 141 132 127
197.267 -15.363 960.204 130 121 116
197.267 -14.863 960.226 139 130 125
197.267 -14.363 960.250 145 136 131
197.267 -13.863 960.270 154 145 140
197.267 -13.363 960.288 143 134 129
197.267 -12.863 960.344 161 152 148
197.267 -12.363 960.394 149 139 138
197.267 -11.863 960.422 136 126 125
197.267 -11.363 960.454 129 119 117
197.267 -10.863 960.490 120 110 109
197.267 -10.363 960.522 130 120 118
197.267 -9.863 960.557 125 116 114
197.267 -9.363 960.594 126 119 116
197.267 -8.863 960.610 125 118 114
197.767 -17.863 960.086 166 156 151
197.767 -17.363 960.084 164 155 150
197.767 -16.863 960.134 158 149 143
197.767 -16.363 960.176 157 148 141
197.767 -15.863 960.188 133 124 119
197.767 -15.363 960.200 128 119 114
197.767 -14.863 960.231 143 134 129
197.767 -14.363 960.250 161 152 147
197.767 -13.863 960.265 156 147 142
197.767 -13.363 960.275 142 133 128
197.767 -12.863 960.322 145 136 134
197.767 -12.363 960.381 140 130 129
197.767 -11.863 960.414 137 127 126
197.767 -11.363 960.448 132 122 121
197.767 -10.863 960.477 134 124 123
197.767 -10.363 960.514 130 120 119
197.767 -9.863 960.551 124 115 113
197.767 -9.363 960.615 121 111 109
197.767 -8.863 960.631 126 117 113
198.267 -17.863 960.078 151 141 139
198.267 -17.363 960.084 154 145 140
198.267 -16.863 960.116 162 153 148
198.267 -16.363 960.150 166 156 151
198.267 -15.863 960.175 153 144 139
198.267 -15.363 960.192 148 139 134
198.267 -14.863 960.233 167 157 152
198.267 -14.363 960.249 173 164 159
198.267 -13.863 960.258 159 150 145
198.267 -13.363 960.263 137 128 123
198.267 -12.863 960.306 128 119 116
198.267 -12.363 960.351 125 116 114
198.267 -11.863 960.384 134 124 123
198.267 -11.363 960.424 136 126 125
198.267 -10.863 960.460 149 139 138
198.267 -10.363 960.490 138 128 127
198.267 -9.863 960.535 132 122 120
198.267 -9.363 960.614 134 123 119
198.267 -8.863 960.638 166 152 147
198.767 -17.863 960.068 144 134 132
198.767 -17.363 960.098 151 141 139
198.767 -16.863 960.127 159 149 146
198.767 -16.363 960.144 168 159 154
198.767 -15.863 960.167 168 159 153
198.767 -15.363 960.183 164 155 149
198.767 -14.863 960.212 168 159 153
198.767 -14.363 960.243 161 152 147
198.767 -13.863 960.254 166 156 152
198.767 -13.363 960.266 135 126 122
198.767 -12.863 960.308 123 113 111
198.767 -12.363 960.335 121 111 110
198.767 -11.863 960.364 131 121 120
198.767 -11.363 960.399 134 124 123
198.767 -10.863 960.450 131 121 120
198.767 -10.363 960.466 130 120 119
198.767 -9.863 960.522 143 134 131
198.767 -9.363 960.613 175 163 156
198.767 -8.863 960.644 196 184 175
199.267 -17.863 960.044 135 127 124
199.267 -17.363 960.095 141 133 130
199.267 -16.863 960.135 156 148 144
199.267 -16.363 960.149 167 159 153
199.267 -15.863 960.167 170 161 153
199.267 -15.363 960.187 163 154 145
199.267 -14.863 960.205 161 152 145
199.267 -14.363 960.243 157 148 143
199.267 -13.863 960.262 162 152 150
199.267 -13.363 960.271 134 124 122
199.267 -12.863 960.314 125 116 113
199.267 -12.363 960.337 124 115 113
199.267 -11.863 960.355 128 119 117
199.267 -11.363 960.388 131 121 120
199.267 -10.863 960.445 126 117 116
199.267 -10.363 960.473 126 118 112
199.267 -9.863 960.526 140 131 126
199.267 -9.363 960.621 168 158 149
199.267 -8.863 960.651 185 174 163
199.767 -17.863 960.030 133 125 122
199.767 -17.363 960.086 134 126 123
199.767 -16.863 960.135 160 153 148
199.767 -16.363 960.162 168 160 154
199.767 -15.863 960.182 171 162 155
199.767 -15.363 960.196 170 161 154
199.767 -14.863 960.206 168 158 152
199.767 -14.363 960.250 163 154 149
199.767 -13.863 960.268 160 150 148
199.767 -13.363 960.276 137 127 125
199.767 -12.863 960.310 128 119 116
199.767 -12.363 960.330 128 119 117
199.767 -11.863 960.342 127 118 116
199.767 -11.363 960.383 137 127 126
199.767 -10.863 960.433 129 119 117
199.767 -10.363 960.500 130 121 116
199.767 -9.863 960.547 146 137 132
199.767 -9.363 960.616 168 158 149
199.767 -8.863 960.646 180 170 159
200.267 -17.863 960.027 135 127 124
200.267 -17.363 960.081 139 131 128
200.267 -16.863 960.139 167 159 155
200.267 -16.363 960.169 159 152 146
200.267 -15.863 960.184 152 143 136
200.267 -15.363 960.200 162 153 146
200.267 -14.863 960.207 172 163 158
200.267 -14.363 960.253 168 159 154
200.267 -13.863 960.267 168 158 156
200.267 -13.363 960.292 158 148 146
200.267 -12.863 960.317 139 129 127
200.267 -12.363 960.326 137 127 126
200.267 -11.863 960.327 136 126 125
200.267 -11.363 960.348 142 132 131
200.267 -10.863 960.399 150 140 138
200.267 -10.363 960.496 142 133 128
200.267 -9.863 960.540 145 136 131
200.267 -9.363 960.603 154 145 136
200.267 -8.863 960.633 171 161 150
200.767 -17.863 960.034 143 135 132
200.767 -17.363 960.080 152 144 141
200.767 -16.863 960.141 164 156 152
200.767 -16.363 960.169 143 136 130
200.767 -15.863 960.180 136 127 122
200.767 -15.363 960.190 155 145 141
200.767 -14.863 960.198 168 158 154
200.767 -14.363 960.239 164 154 150
200.767 -13.863 960.256 155 145 143
200.767 -13.363 960.285 145 135 133
200.767 -12.863 960.305 143 133 131
200.767 -12.363 960.316 158 148 147
200.767 -11.863 960.320 149 139 138
200.767 -11.363 960.353 138 128 127
200.767 -10.863 960.386 145 135 133
200.767 -10.363 960.450 144 135 130
200.767 -9.863 960.508 141 132 127
200.767 -9.363 960.555 158 149 142
200.767 -8.863 960.618 177 168 158
201.267 -17.863 960.032 158 150 147
201.267 -17.363 960.077 157 149 146
201.267 -16.863 960.137 147 139 135
201.267 -16.363 960.164 138 131 125
201.267 -15.863 960.181 139 129 126
201.267 -15.363 960.193 158 148 146
201.267 -14.863 960.209 168 157 155
201.267 -14.363 960.238 152 142 140
201.267 -13.863 960.253 135 125 123
201.267 -13.363 960.284 125 116 113
201.267 -12.863 960.313 144 134 132
201.267 -12.363 960.313 157 147 146
201.267 -11.863 960.330 137 127 126
201.267 -11.363 960.364 134 124 123
201.267 -10.863 960.375 135 125 123
201.267 -10.363 960.427 133 123 119
201.267 -9.863 960.473 140 131 126
201.267 -9.363 960.512 146 137 134
201.267 -8.863 960.604 155 146 139
201.767 -17.863 960.045 153 145 142
201.767 -17.363 960.083 145 137 134
201.767 -16.863 960.117 142 134 130
201.767 -16.363 960.159 141 134 128
201.767 -15.863 960.188 158 148 146
201.767 -15.363 960.204 161 151 149
201.767 -14.863 960.231 162 152 150
201.767 -14.363 960.247 140 130 128
201.767 -13.863 960.259 136 126 124
201.767 -13.363 960.288 130 120 118
201.767 -12.863 960.302 143 133 132
201.767 -12.363 960.304 148 139 137
201.767 -11.863 960.333 138 128 127
201.767 -11.363 960.364 142 132 131
201.767 -10.863 960.372 138 128 126
201.767 -10.363 960.425 130 121 117
201.767 -9.863 960.459 138 129 124
201.767 -9.363 960.479 132 122 121
201.767 -8.863 960.552 127 118 114
202.267 -17.863 960.052 140 130 129
202.267 -17.363 960.092 137 127 126
202.267 -16.863 960.125 144 134 133
202.267 -16.363 960.157 155 145 144
202.267 -15.863 960.183 144 134 134
202.267 -15.363 960.203 135 125 124
202.267 -14.863 960.236 138 128 126
202.267 -14.363 960.254 130 120 118
202.267 -13.863 960.261 139 129 128
202.267 -13.363 960.292 149 139 138
202.267 -12.863 960.303 143 134 136
202.267 -12.363 960.325 138 131 132
202.267 -11.863 960.336 136 129 129
202.267 -11.363 960.363 138 131 132
202.267 -10.863 960.374 131 124 123
202.267 -10.363 960.418 128 122 119
202.267 -9.863 960.443 130 124 121
202.267 -9.363 960.480 133 125 123
202.267 -8.863 960.503 123 116 112
202.767 -17.863 960.043 132 122 121
202.767 -17.363 960.079 128 119 117
202.767 -16.863 960.117 135 125 124
202.767 -16.363 960.150 138 128 127
202.767 -15.863 960.172 131 121 122
202.767 -15.363 960.198 128 119 117
202.767 -14.863 960.214 128 119 116
202.767 -14.363 960.241 127 118 116
202.767 -13.863 960.251 138 128 126
202.767 -13.363 960.283 142 132 131
202.767 -12.863 960.302 171 163 164
202.767 -12.363 960.325 138 132 132
202.767 -11.863 960.330 134 128 128
202.767 -11.363 960.358 130 124 124
202.767 -10.863 960.385 144 139 137
202.767 -10.363 960.404 140 135 132
202.767 -9.863 960.412 138 133 130
202.767 -9.363 960.453 140 132 130
202.767 -8.863 960.474 134 126 123
203.267 -17.863 960.022 131 121 120
203.267 -17.363 960.068 126 117 116
203.267 -16.863 960.109 132 122 121
203.267 -16.363 960.139 138 128 127
203.267 -15.863 960.149 135 125 125
203.267 -15.363 960.189 132 122 121
203.267 -14.863 960.204 133 123 121
203.267 -14.363 960.234 140 130 128
203.267 -13.863 960.244 153 143 141
203.267 -13.363 960.275 136 126 125
203.267 -12.863 960.288 136 126 127
203.267 -12.363 960.310 127 119 120
203.267 -11.863 960.325 133 125 126
203.267 -11.363 960.355 134 127 126
203.267 -10.863 960.390 137 130 127
203.267 -10.363 960.403 137 130 128
203.267 -9.863 960.415 142 135 132
203.267 -9.363 960.428 137 129 127
203.267 -8.863 960.480 137 129 126
203.767 -17.863 960.014 126 117 114
203.767 -17.363 960.052 124 115 112
203.767 -16.863 960.088 130 120 118
203.767 -16.363 960.126 133 123 121
203.767 -15.863 960.138 135 125 124
203.767 -15.363 960.182 141 131 130
203.767 -14.863 960.200 153 143 140
203.767 -14.363 960.222 168 158 153
203.767 -13.863 960.241 166 155 153
203.767 -13.363 960.263 140 130 129
203.767 -12.863 960.278 128 119 118
203.767 -12.363 960.305 121 112 113
203.767 -11.863 960.319 128 120 118
203.767 -11.363 960.352 136 128 126
203.767 -10.863 960.369 140 132 130
203.767 -10.363 960.398 137 129 126
203.767 -9.863 960.406 140 132 129
203.767 -9.363 960.420 132 124 122
203.767 -8.863 960.480 132 124 121
204.267 -17.863 960.012 130 120 118
204.267 -17.363 960.047 133 123 121
204.267 -16.863 960.082 130 120 118
204.267 -16.363 960.120 127 118 116
204.267 -15.863 960.138 129 119 118
204.267 -15.363 960.172 145 135 133
204.267 -14.863 960.184 167 156 153
204.267 -14.363 960.213 168 159 154
204.267 -13.863 960.237 153 143 141
204.267 -13.363 960.244 144 134 132
204.267 -12.863 960.259 132 123 121
204.267 -12.363 960.298 126 119 116
204.267 -11.863 960.317 132 124 122
204.267 -11.363 960.338 139 131 129
204.267 -10.863 960.360 142 134 131
204.267 -10.363 960.395 142 134 131
204.267 -9.863 960.413 139 131 128
204.267 -9.363 960.425 131 123 121
204.267 -8.863 960.459 126 119 116
204.767 -17.863 960.012 134 124 122
204.767 -17.363 960.067 137 127 125
204.767 -16.863 960.094 142 132 130
204.767 -16.363 960.121 140 130 128
204.767 -15.863 960.133 149 139 138
204.767 -15.363 960.162 162 152 150
204.767 -14.863 960.173 171 162 157
204.767 -14.363 960.207 168 158 153
204.767 -13.863 960.223 154 145 140
204.767 -13.363 960.236 144 134 132
204.767 -12.863 960.242 131 122 121
204.767 -12.363 960.287 124 117 114
204.767 -11.863 960.314 140 132 130
204.767 -11.363 960.323 151 143 141
204.767 -10.863 960.348 161 153 150
204.767 -10.363 960.366 152 144 141
204.767 -9.863 960.387 145 137 134
204.767 -9.363 960.437 135 127 125
204.767 -8.863 960.456 129 121 118
205.267 -17.863 960.016 130 120 118
205.267 -17.363 960.059 130 120 118
205.267 -16.863 960.089 149 140 136
205.267 -16.363 960.114 152 143 139
205.267 -15.863 960.128 144 135 130
205.267 -15.363 960.143 163 154 149
205.267 -14.863 960.154 169 160 155
205.267 -14.363 960.187 154 145 140
205.267 -13.863 960.201 152 143 138
205.267 -13.363 960.230 134 124 122
205.267 -12.863 960.239 126 118 116
205.267 -12.363 960.278 130 122 120
205.267 -11.863 960.311 152 144 142
205.267 -11.363 960.331 150 142 139
205.267 -10.863 960.361 166 157 152
205.267 -10.363 960.378 167 157 153
205.267 -9.863 960.386 159 150 146
205.267 -9.363 960.436 145 138 133
205.267 -8.863 960.456 136 128 123
205.767 -17.863 960.026 134 125 120
205.767 -17.363 960.057 145 136 131
205.767 -16.863 960.084 153 144 139
205.767 -16.363 960.109 143 134 129
205.767 -15.863 960.121 143 134 127
205.767 -15.363 960.138 160 151 144
205.767 -14.863 960.150 168 159 154
205.767 -14.363 960.183 162 153 148
205.767 -13.863 960.211 151 142 137
205.767 -13.363 960.236 132 122 120
205.767 -12.863 960.243 128 119 116
205.767 -12.363 960.278 144 136 133
205.767 -11.863 960.296 145 137 134
205.767 -11.363 960.354 129 121 118
205.767 -10.863 960.367 143 135 130
205.767 -10.363 960.383 168 158 153
205.767 -9.863 960.387 169 160 155
205.767 -9.363 960.410 173 164 159
205.767 -8.863 960.455 172 163 157
206.267 -17.863 960.028 167 157 152
206.267 -17.363 960.045 171 162 155
206.267 -16.863 960.059 155 146 139
206.267 -16.363 960.083 143 134 127
206.267 -15.863 960.114 144 135 130
206.267 -15.363 960.139 155 146 141
206.267 -14.863 960.147 155 146 141
206.267 -14.363 960.180 155 146 141
206.267 -13.863 960.213 149 139 137
206.267 -13.363 960.239 142 132 130
206.267 -12.863 960.252 135 126 124
206.267 -12.363 960.279 148 140 137
206.267 -11.863 960.298 141 133 130
206.267 -11.363 960.358 131 124 118
206.267 -10.863 960.366 146 137 132
206.267 -10.363 960.355 167 157 152
206.267 -9.863 960.386 172 163 158
206.267 -9.363 960.411 181 172 165
206.267 -8.863 960.477 163 154 147
206.767 -17.863 960.041 174 166 158
206.767 -17.363 960.048 179 169 162
206.767 -16.863 960.077 170 161 153
206.767 -16.363 960.091 161 152 143
206.767 -15.863 960.124 156 147 141
206.767 -15.363 960.150 146 137 132
206.767 -14.863 960.166 149 140 135
206.767 -14.363 960.174 148 138 136
206.767 -13.863 960.222 140 130 128
206.767 -13.363 960.250 137 127 125
206.767 -12.863 960.258 136 127 125
206.767 -12.363 960.274 154 146 143
206.767 -11.863 960.297 158 150 145
206.767 -11.363 960.352 151 142 137
206.767 -10.863 960.352 159 150 145
206.767 -10.363 960.350 167 156 150
206.767 -9.863 960.404 150 140 133
206.767 -9.363 960.445 168 157 151
206.767 -8.863 960.490 155 144 137
207.267 -17.863 960.050 156 147 142
207.267 -17.363 960.053 164 155 148
207.267 -16.863 960.094 176 168 160
207.267 -16.363 960.114 173 164 156
207.267 -15.863 960.145 171 162 157
207.267 -15.363 960.162 153 144 139
207.267 -14.863 960.170 143 133 130
207.267 -14.363 960.176 137 127 125
207.267 -13.863 960.203 130 120 118
207.267 -13.363 960.244 126 117 116
207.267 -12.863 960.262 131 121 118
207.267 -12.363 960.279 154 145 140
207.267 -11.863 960.300 164 155 150
207.267 -11.363 960.333 150 141 136
207.267 -10.863 960.351 168 157 151
207.267 -10.363 960.358 181 170 164
207.267 -9.863 960.441 173 162 156
207.267 -9.363 960.485 180 168 159
207.267 -8.863 960.538 170 158 150
207.767 -17.863 960.083 147 138 133
207.767 -17.363 960.091 160 151 146
207.767 -16.863 960.129 181 172 167
207.767 -16.363 960.149 176 168 162
207.767 -15.863 960.164 159 149 147
207.767 -15.363 960.174 158 148 146
207.767 -14.863 960.177 146 136 134
207.767 -14.363 960.195 134 124 122
207.767 -13.863 960.217 130 120 119
207.767 -13.363 960.255 133 123 122
207.767 -12.863 960.273 136 126 125
207.767 -12.363 960.307 163 154 149
207.767 -11.863 960.323 159 150 145
207.767 -11.363 960.337 155 146 139
207.767 -10.863 960.378 168 156 150
207.767 -10.363 960.422 145 134 128
207.767 -9.863 960.491 151 140 134
207.767 -9.363 960.524 171 158 149
207.767 -8.863 960.581 189 176 167
208.267 -17.863 960.078 151 141 139
208.267 -17.363 960.092 157 147 145
208.267 -16.863 960.134 179 170 165
208.267 -16.363 960.167 169 160 155
208.267 -15.863 960.178 153 144 140
208.267 -15.363 960.183 144 134 132
208.267 -14.863 960.198 139 129 127
208.267 -14.363 960.218 136 126 124
208.267 -13.863 960.244 133 123 122
208.267 -13.363 960.263 137 127 126
208.267 -12.863 960.284 136 127 124
208.267 -12.363 960.322 146 137 132
208.267 -11.863 960.340 155 146 141
208.267 -11.363 960.341 167 157 150
208.267 -10.863 960.417 171 160 154
208.267 -10.363 960.462 140 129 123
208.267 -9.863 960.504 149 138 130
208.267 -9.363 960.582 183 168 159
208.267 -8.863 960.618 189 176 167
208.767 -17.863 960.117 143 133 131
208.767 -17.363 960.128 149 140 135
208.767 -16.863 960.145 171 162 156
208.767 -16.363 960.156 159 148 142
208.767 -15.863 960.168 136 127 122
208.767 -15.363 960.189 130 121 116
208.767 -14.863 960.226 131 122 117
208.767 -14.363 960.247 137 128 125
208.767 -13.863 960.268 144 134 132
208.767 -13.363 960.284 138 128 126
208.767 -12.863 960.321 139 130 126
208.767 -12.363 960.351 146 139 133
208.767 -11.863 960.366 148 140 133
208.767 -11.363 960.379 155 146 139
208.767 -10.863 960.448 163 152 146
208.767 -10.363 960.482 156 143 136
208.767 -9.863 960.530 173 160 152
208.767 -9.363 960.611 183 169 160
208.767 -8.863 960.656 166 153 144
209.267 -17.863 960.118 134 124 122
209.267 -17.363 960.128 130 121 116
209.267 -16.863 960.155 157 148 142
209.267 -16.363 960.189 142 132 125
209.267 -15.863 960.201 137 128 123
209.267 -15.363 960.211 132 123 118
209.267 -14.863 960.234 139 130 125
209.267 -14.363 960.249 150 140 136
209.267 -13.863 960.274 149 139 137
209.267 -13.363 960.311 137 127 125
209.267 -12.863 960.345 138 130 126
209.267 -12.363 960.373 131 123 116
209.267 -11.863 960.381 141 132 125
209.267 -11.363 960.399 154 145 138
209.267 -10.863 960.466 183 171 164
209.267 -10.363 960.529 194 181 173
209.267 -9.863 960.604 190 177 170
209.267 -9.363 960.667 202 189 180
209.267 -8.863 960.699 171 159 150
209.767 -17.863 960.121 137 127 125
209.767 -17.363 960.129 144 135 130
209.767 -16.863 960.145 158 149 144
209.767 -16.363 960.185 149 138 132
209.767 -15.863 960.203 149 140 135
209.767 -15.363 960.235 142 133 128
209.767 -14.863 960.261 154 145 140
209.767 -14.363 960.274 163 154 149
209.767 -13.863 960.295 153 144 139
209.767 -13.363 960.330 138 129 124
209.767 -12.863 960.360 141 132 126
209.767 -12.363 960.392 164 155 148
209.767 -11.863 960.425 163 154 147
209.767 -11.363 960.437 179 168 162
209.767 -10.863 960.559 198 188 179
209.767 -10.363 960.612 193 181 173
209.767 -9.863 960.669 179 166 157
209.767 -9.363 960.704 175 162 153
209.767 -8.863 960.773 179 167 157
210.267 -17.863 960.141 158 148 146
210.267 -17.363 960.140 158 149 144
210.267 -16.863 960.155 167 157 151
210.267 -16.363 960.188 167 155 149
210.267 -15.863 960.207 161 152 147
210.267 -15.363 960.249 140 131 126
210.267 -14.863 960.285 142 133 128
210.267 -14.363 960.303 179 169 164
210.267 -13.863 960.326 164 155 150
210.267 -13.363 960.349 150 141 136
210.267 -12.863 960.390 162 153 147
210.267 -12.363 960.446 175 164 158
210.267 -11.863 960.485 185 174 168
210.267 -11.363 960.541 191 181 172
210.267 -10.863 960.622 191 181 172
210.267 -10.363 960.668 181 168 160
210.267 -9.863 960.718 166 152 144
210.267 -9.363 960.775 176 163 154
210.267 -8.863 960.842 184 171 162
210.767 -17.863 960.174 146 136 134
210.767 -17.363 960.174 149 140 135
210.767 -16.863 960.177 152 143 138
210.767 -16.363 960.195 168 158 151
210.767 -15.863 960.233 158 147 143
210.767 -15.363 960.262 144 133 129
210.767 -14.863 960.301 153 142 138
210.767 -14.363 960.334 170 159 153
210.767 -13.863 960.361 173 162 156
210.767 -13.363 960.383 168 157 151
210.767 -12.863 960.444 158 147 141
210.767 -12.363 960.525 160 148 142
210.767 -11.863 960.549 175 166 156
210.767 -11.363 960.622 168 158 149
210.767 -10.863 960.669 160 150 141
210.767 -10.363 960.724 158 146 137
210.767 -9.863 960.817 164 152 143
210.767 -9.363 960.846 177 164 155
210.767 -8.863 960.937 175 163 155
211.267 -17.863 960.227 140 130 128
211.267 -17.363 960.222 147 138 133
211.267 -16.863 960.221 164 155 149
211.267 -16.363 960.228 170 160 154
211.267 -15.863 960.251 159 148 144
211.267 -15.363 960.289 146 135 131
211.267 -14.863 960.349 146 135 130
211.267 -14.363 960.408 154 143 137
211.267 -13.863 960.424 156 145 139
211.267 -13.363 960.441 164 154 146
211.267 -12.863 960.523 151 140 132
211.267 -12.363 960.580 161 148 140
211.267 -11.863 960.633 172 159 151
211.267 -11.363 960.679 168 154 146
211.267 -10.863 960.729 159 146 138
211.267 -10.363 960.849 158 147 138
211.267 -9.863 960.917 170 160 150
211.267 -9.363 960.959 185 172 164
211.267 -8.863 961.154 175 163 154
211.767 -17.863 960.284 145 135 133
211.767 -17.363 960.279 139 129 127
211.767 -16.863 960.281 148 139 136
211.767 -16.363 960.285 153 144 139
211.767 -15.863 960.304 140 130 128
211.767 -15.363 960.330 134 124 122
211.767 -14.863 960.400 140 131 128
211.767 -14.363 960.460 146 137 130
211.767 -13.863 960.488 156 145 139
211.767 -13.363 960.541 153 142 136
211.767 -12.863 960.588 149 139 130
211.767 -12.363 960.637 161 151 142
211.767 -11.863 960.710 168 158 149
211.767 -11.363 960.770 179 168 158
211.767 -10.863 960.854 174 164 154
211.767 -10.363 960.966 171 161 151
211.767 -9.863 961.100 186 176 166
211.767 -9.363 961.288 194 180 171
211.767 -8.863 961.472 193 179 168
212.267 -17.863 960.307 161 151 149
212.267 -17.363 960.293 146 136 134
212.267 -16.863 960.313 146 137 133
212.267 -16.363 960.331 140 131 126
212.267 -15.863 960.366 135 125 123
212.267 -15.363 960.410 137 127 125
212.267 -14.863 960.455 137 128 123
212.267 -14.363 960.527 154 144 138
212.267 -13.863 960.568 173 162 156
212.267 -13.363 960.619 172 162 153
212.267 -12.863 960.669 171 161 152
212.267 -12.363 960.740 179 169 159
212.267 -11.863 960.794 184 174 164
212.267 -11.363 960.848 191 181 171
212.267 -10.863 960.974 195 185 173
212.267 -10.363 961.200 192 183 171
212.267 -9.863 961.322 194 184 171
212.267 -9.363 961.596 192 179 167
212.267 -8.863 961.743 187 173 162
212.767 -17.863 960.369 153 143 141
212.767 -17.363 960.341 142 132 130
212.767 -16.863 960.374 140 130 127
212.767 -16.363 960.405 145 136 131
212.767 -15.863 960.423 138 128 125
212.767 -15.363 960.460 138 129 124
212.767 -14.863 960.517 133 124 118
212.767 -14.363 960.588 138 127 121
212.767 -13.863 960.644 177 168 158
212.767 -13.363 960.688 185 175 166
212.767 -12.863 960.750 187 177 166
212.767 -12.363 960.892 187 177 165
212.767 -11.863 960.954 192 181 170
212.767 -11.363 961.035 199 189 177
212.767 -10.863 961.264 203 193 179
212.767 -10.363 961.371 205 196 181
212.767 -9.863 961.640 203 193 178
212.767 -9.363 961.791 200 186 173
212.767 -8.863 962.004 188 174 162
213.267 -17.863 960.453 148 138 136
213.267 -17.363 960.463 154 144 142
213.267 -16.863 960.476 161 152 148
213.267 -16.363 960.484 173 164 159
213.267 -15.863 960.518 149 140 134
213.267 -15.363 960.611 142 131 126
213.267 -14.863 960.675 146 136 129
213.267 -14.363 960.716 167 156 147
213.267 -13.863 960.776 189 177 168
213.267 -13.363 960.818 202 190 181
213.267 -12.863 960.953 200 187 177
213.267 -12.363 961.027 190 179 164
213.267 -11.863 961.169 184 171 157
213.267 -11.363 961.353 199 187 173
213.267 -10.863 961.545 201 189 174
213.267 -10.363 961.695 199 187 172
213.267 -9.863 961.944 193 181 165
213.267 -9.363 962.223 193 179 166
213.267 -8.863 962.300 202 188 175
213.767 -17.863 960.520 137 127 125
213.767 -17.363 960.521 138 128 126
213.767 -16.863 960.519 138 129 126
213.767 -16.363 960.551 152 143 138
213.767 -15.863 960.627 155 144 138
213.767 -15.363 960.709 149 138 132
213.767 -14.863 960.817 167 156 147
213.767 -14.363 960.916 177 164 155
213.767 -13.863 960.955 180 168 158
213.767 -13.363 961.010 184 172 160
213.767 -12.863 961.222 196 184 172
213.767 -12.363 961.330 200 188 176
213.767 -11.863 961.404 192 180 166
213.767 -11.363 961.618 185 173 159
213.767 -10.863 961.761 189 177 163
213.767 -10.363 962.067 188 176 160
213.767 -9.863 962.360 186 174 158
213.767 -9.363 962.596 195 181 168
213.767 -8.863 962.822 204 190 177
214.267 -17.863 960.627 127 118 116
214.267 -17.363 960.626 123 113 111
214.267 -16.863 960.606 121 111 108
214.267 -16.363 960.668 138 129 124
214.267 -15.863 960.752 149 138 132
214.267 -15.363 960.910 148 138 129
214.267 -14.863 960.974 166 155 145
214.267 -14.363 961.104 184 172 163
214.267 -13.863 961.210 185 173 161
214.267 -13.363 961.339 167 154 142
214.267 -12.863 961.577 190 179 166
214.267 -12.363 961.763 202 190 178
214.267 -11.863 961.810 195 184 171
214.267 -11.363 962.018 184 171 159
214.267 -10.863 962.282 186 174 160
214.267 -10.363 962.622 187 175 161
214.267 -9.863 962.909 194 183 168
214.267 -9.363 963.039 204 191 175
214.267 -8.863 963.462 206 192 179
214.767 -17.863 960.710 125 116 113
214.767 -17.363 960.746 126 117 114
214.767 -16.863 960.793 129 119 116
214.767 -16.363 960.930 146 137 133
214.767 -15.863 961.021 143 134 126
214.767 -15.363 961.183 141 131 122
214.767 -14.863 961.292 169 158 149
214.767 -14.363 961.342 191 179 170
214.767 -13.863 961.462 191 179 167
214.767 -13.363 961.668 177 164 152
214.767 -12.863 961.866 184 170 158
214.767 -12.363 962.194 196 184 172
214.767 -11.863 962.359 197 185 173
214.767 -11.363 962.498 197 185 173
214.767 -10.863 962.766 199 187 174
214.767 -10.363 962.949 191 179 165
214.767 -9.863 963.298 205 193 179
214.767 -9.363 963.649 210 198 182
214.767 -8.863 963.712 201 188 173
215.267 -17.863 960.795 134 124 122
215.267 -17.363 960.876 140 130 128
215.267 -16.863 961.034 146 138 135
215.267 -16.363 961.214 141 134 129
215.267 -15.863 961.386 138 128 121
215.267 -15.363 961.479 149 139 130
215.267 -14.863 961.586 176 166 156
215.267 -14.363 961.654 192 180 168
215.267 -13.863 961.780 197 184 171
215.267 -13.363 962.076 195 181 168
215.267 -12.863 962.314 170 156 143
215.267 -12.363 962.530 167 154 142
215.267 -11.863 962.818 194 183 171
215.267 -11.363 963.107 188 176 162
215.267 -10.863 963.167 187 175 161
215.267 -10.363 963.385 191 179 165
215.267 -9.863 963.674 206 194 180
215.267 -9.363 963.989 213 201 187
215.267 -8.863 964.111 213 201 187
215.767 -17.363 961.048 143 134 129
215.767 -16.863 961.265 170 161 156
215.767 -16.363 961.471 158 149 143
215.767 -15.863 961.623 135 124 118
215.767 -15.363 961.815 144 134 125
215.767 -14.863 961.893 172 161 152
215.767 -14.363 961.936 196 184 173
215.767 -13.863 962.166 205 191 178
215.767 -13.363 962.427 204 190 177
215.767 -12.863 962.719 184 170 157
215.767 -12.363 963.022 192 180 168
215.767 -11.863 963.327 201 189 175
215.767 -11.363 963.611 194 183 168
215.767 -10.863 963.684 193 181 167
215.767 -10.363 963.824 203 191 175
215.767 -9.863 964.100 210 198 182
215.767 -9.363 964.260 216 204 188
215.767 -8.863 964.476 217 205 190
216.267 -16.863 961.587 184 174 167
216.267 -16.363 961.795 166 156 148
216.267 -15.863 961.938 138 127 121
216.267 -15.363 962.163 135 125 116
216.267 -14.863 962.331 171 158 150
216.267 -14.363 962.463 195 184 172
216.267 -13.863 962.546 206 192 179
216.267 -13.363 962.783 204 190 177
216.267 -12.863 963.042 204 191 176
216.267 -12.363 963.342 207 195 181
216.267 -11.863 963.643 206 194 180
216.767 -16.863 961.878 177 168 160
216.767 -16.363 962.134 183 172 163
216.767 -15.863 962.296 148 135 129
216.767 -15.363 962.470 151 138 130
216.767 -14.863 962.642 181 168 160
151.767 -4.863 960.600 220 208 192
151.767 -4.363 960.601 220 208 192
151.767 -3.863 960.601 216 204 188
152.267 -8.363 960.525 220 208 192
152.267 -7.863 960.557 220 208 192
152.267 -7.363 960.561 221 208 192
152.267 -6.863 960.563 217 204 188
152.267 -6.363 960.567 217 204 188
152.267 -5.863 960.573 218 205 189
152.267 -5.363 960.599 219 206 190
152.267 -4.863 960.607 218 206 190
152.267 -4.363 960.620 220 208 192
152.267 -3.863 960.626 215 203 187
152.267 -3.363 960.628 216 204 188
152.267 -2.863 960.591 220 208 192
152.267 0.137 960.492 223 210 193
152.267 0.637 960.487 223 210 193
152.267 1.137 960.498 220 205 189
152.767 -8.363 960.503 218 206 188
152.767 -7.863 960.546 216 203 186
152.767 -6.863 960.563 215 201 184
152.767 -6.363 960.576 213 197 181
152.767 -5.863 960.578 216 203 187
152.767 -5.363 960.586 218 204 188
152.767 -4.863 960.609 219 207 191
152.767 -4.363 960.646 218 206 190
152.767 -3.863 960.657 216 204 188
152.767 -3.363 960.658 215 203 187
152.767 -2.863 960.635 220 208 192
152.767 -2.363 960.604 219 207 191
152.767 -1.863 960.560 219 207 191
152.767 -1.363 960.538 220 207 191
152.767 -0.863 960.527 219 206 190
152.767 -0.363 960.516 222 209 193
152.767 0.137 960.499 222 209 192
152.767 0.637 960.501 222 209 192
152.767 1.137 960.515 221 207 190
153.267 -6.863 960.563 207 192 174
153.267 -6.363 960.570 201 184 170
153.267 -5.863 960.572 213 197 182
153.267 -5.363 960.582 217 201 186
153.267 -4.863 960.597 218 205 189
153.267 -4.363 960.642 217 205 189
153.267 -3.863 960.678 215 203 187
153.267 -3.363 960.678 217 205 189
153.267 -2.863 960.654 219 207 191
153.267 -2.363 960.619 220 208 192
153.267 -1.863 960.581 220 208 192
153.267 -1.363 960.543 221 208 192
153.267 -0.863 960.531 221 208 192
153.267 -0.363 960.527 221 208 192
153.267 0.137 960.517 221 208 191
153.267 0.637 960.510 221 208 191
153.267 1.137 960.519 223 209 192
153.767 -8.363 960.494 216 203 186
153.767 -7.863 960.520 210 197 180
153.767 -7.363 960.547 200 185 166
153.767 -6.863 960.567 197 180 162
153.767 -6.363 960.565 196 179 163
153.767 -5.863 960.560 204 186 171
153.767 -5.363 960.578 212 196 181
153.767 -4.863 960.596 215 202 186
153.767 -4.363 960.638 217 204 188
153.767 -3.863 960.669 215 203 187
153.767 -3.363 960.672 219 207 191
153.767 -2.863 960.657 219 207 191
153.767 -2.363 960.625 219 207 191
153.767 -1.863 960.590 218 206 190
153.767 -1.363 960.547 218 205 189
153.767 -0.863 960.533 219 206 190
153.767 -0.363 960.525 220 207 191
153.767 0.137 960.511 221 208 191
153.767 0.637 960.519 219 206 189
153.767 1.137 960.535 223 209 192
154.267 -8.363 960.506 214 201 185
154.267 -7.863 960.517 214 198 182
154.267 -7.363 960.542 203 187 171
154.267 -6.863 960.560 194 179 162
154.267 -6.363 960.541 198 181 164
154.267 -5.863 960.553 197 180 162
154.267 -5.363 960.564 206 189 172
154.267 -4.863 960.601 213 197 181
154.267 -4.363 960.627 216 203 186
154.267 -3.863 960.657 217 204 188
154.267 -3.363 960.664 217 205 189
154.267 -2.863 960.669 219 203 187
154.267 -2.363 960.655 221 205 189
154.267 -1.863 960.630 222 206 190
154.267 -1.363 960.586 221 205 189
154.267 -0.863 960.570 220 204 188
154.267 -0.363 960.560 222 206 190
154.267 0.137 960.548 221 209 192
154.267 0.637 960.547 219 208 190
154.267 1.137 960.547 222 209 192
154.767 -8.363 960.488 217 204 188
154.767 -7.863 960.501 219 204 188
154.767 -7.363 960.518 216 200 184
154.767 -6.863 960.541 201 185 170
154.767 -6.363 960.542 197 180 163
154.767 -5.863 960.546 200 184 165
154.767 -5.363 960.556 203 186 168
154.767 -4.863 960.585 210 194 178
154.767 -4.363 960.609 215 202 185
154.767 -3.863 960.640 216 203 186
154.767 -3.363 960.659 216 203 186
154.767 -2.863 960.673 216 200 184
154.767 -2.363 960.674 219 203 187
154.767 -1.863 960.667 222 206 190
154.767 -1.363 960.652 222 206 190
154.767 -0.863 960.633 223 207 191
154.767 -0.363 960.598 223 207 191
154.767 0.137 960.570 221 208 191
154.767 0.637 960.563 220 207 189
154.767 1.137 960.582 220 206 189
155.267 -8.363 960.446 217 204 188
155.267 -7.863 960.492 219 206 189
155.267 -7.363 960.500 216 202 185
155.267 -6.863 960.502 204 188 172
155.267 -6.363 960.497 198 181 165
155.267 -5.863 960.520 200 184 167
155.267 -5.363 960.533 205 188 171
155.267 -4.863 960.548 208 192 176
155.267 -4.363 960.591 214 201 184
155.267 -3.863 960.617 213 200 183
155.267 -3.363 960.656 214 201 184
155.267 -2.863 960.691 217 201 185
155.267 -2.363 960.694 220 204 188
155.267 -1.863 960.682 223 207 191
155.267 -1.363 960.672 223 207 191
155.267 -0.863 960.672 221 205 189
155.267 -0.363 960.656 221 205 189
155.267 0.137 960.636 223 207 188
155.267 0.637 960.647 222 206 186
155.267 1.137 960.659 220 203 185
155.767 -8.363 960.414 219 206 190
155.767 -7.863 960.474 219 206 189
155.767 -7.363 960.496 218 205 188
155.767 -6.863 960.511 203 190 173
155.767 -6.363 960.502 198 183 166
155.767 -5.863 960.502 206 190 174
155.767 -5.363 960.507 213 197 181
155.767 -4.863 960.539 215 199 183
155.767 -4.363 960.591 218 202 186
155.767 -3.863 960.630 217 201 185
155.767 -3.363 960.677 218 202 186
155.767 -2.863 960.706 218 201 183
155.767 -2.363 960.716 220 203 185
155.767 -1.863 960.722 223 206 188
155.767 -1.363 960.721 224 207 189
155.767 -0.863 960.731 221 204 186
155.767 -0.363 960.729 221 204 186
155.767 0.137 960.721 223 206 186
155.767 0.637 960.720 224 207 187
155.767 1.137 960.724 222 205 187
156.267 -8.363 960.417 220 208 192
156.267 -7.863 960.472 221 208 191
156.267 -7.363 960.487 219 206 189
156.267 -6.863 960.488 211 198 181
156.267 -6.363 960.488 204 188 172
156.267 -5.863 960.488 211 195 179
156.267 -5.363 960.493 219 203 187
156.267 -4.863 960.521 221 205 189
156.267 -4.363 960.581 220 204 186
156.267 -3.863 960.625 220 205 186
156.267 -3.363 960.654 217 202 183
156.267 -2.863 960.700 218 201 183
156.267 -2.363 960.728 220 203 185
156.267 -1.863 960.743 223 206 188
156.267 -1.363 960.754 223 206 188
156.267 -0.863 960.762 222 205 187
156.267 -0.363 960.773 223 206 188
156.267 0.137 960.772 224 207 189
156.267 0.637 960.774 225 208 190
156.267 1.137 960.793 223 206 189
156.767 -8.363 960.435 219 207 191
156.767 -7.863 960.458 220 209 191
156.767 -7.363 960.469 218 205 188
156.767 -6.863 960.466 214 201 184
156.767 -6.363 960.467 208 192 177
156.767 -5.863 960.472 212 196 181
156.767 -5.363 960.493 219 203 187
156.767 -4.863 960.544 221 205 189
156.767 -4.363 960.597 220 205 186
156.767 -3.863 960.646 221 206 187
156.767 -3.363 960.681 217 202 183
156.767 -2.863 960.714 219 202 184
156.767 -2.363 960.743 220 203 185
156.767 -1.863 960.775 222 205 187
156.767 -1.363 960.787 223 206 188
156.767 -0.863 960.805 223 206 188
156.767 -0.363 960.808 225 208 190
156.767 0.137 960.800 226 210 192
156.767 0.637 960.821 223 208 189
156.767 1.137 960.835 220 204 188
157.267 -8.363 960.436 219 207 191
157.267 -7.863 960.421 220 208 191
157.267 -7.363 960.417 218 205 188
157.267 -6.863 960.420 216 202 185
157.267 -6.363 960.431 214 200 184
157.267 -5.863 960.441 215 201 185
157.267 -5.363 960.468 220 204 188
157.267 -4.863 960.530 221 205 189
157.267 -4.363 960.602 222 206 188
157.267 -3.863 960.670 220 203 185
157.267 -3.363 960.686 220 204 185
157.267 -2.863 960.714 222 204 185
157.267 -2.363 960.763 220 203 183
157.267 -1.863 960.786 223 205 186
157.267 -1.363 960.811 225 208 188
157.267 -0.863 960.815 226 208 189
157.267 -0.363 960.818 227 209 190
157.267 0.137 960.825 226 209 190
157.267 0.637 960.854 225 209 193
157.267 1.137 960.899 218 206 191
157.767 -8.363 960.442 219 206 190
157.767 -7.863 960.421 220 207 191
157.767 -7.363 960.406 220 207 190
157.767 -6.863 960.415 220 206 190
157.767 -6.363 960.415 218 205 188
157.767 -5.863 960.455 218 205 188
157.767 -5.363 960.479 220 204 188
157.767 -4.863 960.529 220 204 188
157.767 -4.363 960.601 221 206 187
157.767 -3.863 960.676 221 204 186
157.767 -3.363 960.703 222 205 187
157.767 -2.863 960.736 223 205 185
157.767 -2.363 960.764 223 205 185
157.767 -1.863 960.782 226 208 188
157.767 -1.363 960.800 228 210 190
157.767 -0.863 960.804 231 212 192
157.767 -0.363 960.817 227 209 189
157.767 0.137 960.843 225 208 188
157.767 0.637 960.897 223 208 191
157.767 1.137 960.955 228 217 206
158.267 -8.363 960.472 218 205 189
158.267 -7.863 960.430 218 205 189
158.267 -7.363 960.415 218 205 188
158.267 -6.863 960.415 220 206 189
158.267 -6.363 960.421 220 206 190
158.267 -5.863 960.453 219 206 189
158.267 -5.363 960.471 220 204 188
158.267 -4.863 960.519 218 202 186
158.267 -4.363 960.591 215 200 181
158.267 -3.863 960.669 217 200 182
158.267 -3.363 960.701 219 202 184
158.267 -2.863 960.740 223 205 185
158.267 -2.363 960.760 225 207 187
158.267 -1.863 960.775 230 211 191
158.267 -1.363 960.793 231 212 192
158.267 -0.863 960.795 231 212 192
158.267 -0.363 960.818 226 208 188
158.267 0.137 960.865 220 205 190
158.267 0.637 960.937 218 208 195
158.267 1.137 961.006 228 220 214
158.767 -8.363 960.477 220 207 191
158.767 -7.863 960.457 218 205 189
158.767 -7.363 960.456 218 205 188
158.767 -6.863 960.463 219 205 188
158.767 -6.363 960.461 218 205 188
158.767 -5.863 960.468 218 205 188
158.767 -5.363 960.494 221 205 189
158.767 -4.863 960.523 220 204 188
158.767 -4.363 960.586 215 200 182
158.767 -3.863 960.642 216 199 181
158.767 -3.363 960.682 221 204 186
158.767 -2.863 960.718 223 205 185
158.767 -2.363 960.746 226 208 188
158.767 -1.863 960.769 231 212 192
158.767 -1.363 960.776 232 213 193
158.767 -0.863 960.799 228 210 190
158.767 -0.363 960.838 225 207 187
158.767 0.137 960.894 218 205 191
158.767 0.637 960.985 215 206 197
158.767 1.137 961.056 232 224 219
159.267 -8.363 960.485 220 207 191
159.267 -7.863 960.463 218 205 189
159.267 -7.363 960.459 217 204 187
159.267 -6.863 960.483 218 204 188
159.267 -6.363 960.487 219 205 189
159.267 -5.863 960.491 219 206 189
159.267 -5.363 960.502 221 205 189
159.267 -4.863 960.531 221 205 189
159.267 -4.363 960.591 218 203 185
159.267 -3.863 960.642 219 202 184
159.267 -3.363 960.680 221 204 186
159.267 -2.863 960.710 224 206 186
159.267 -2.363 960.724 224 206 186
159.267 -1.863 960.729 230 211 191
159.267 -1.363 960.754 232 213 193
159.267 -0.863 960.797 228 210 190
159.267 -0.363 960.839 224 206 186
159.267 0.137 960.907 227 213 200
159.267 0.637 960.977 235 225 214
159.267 1.137 961.038 238 231 226
159.767 -8.363 960.474 220 207 191
159.767 -7.863 960.483 218 205 189
159.767 -7.363 960.469 218 205 188
159.767 -6.863 960.479 219 205 188
159.767 -6.363 960.484 219 206 189
159.767 -5.863 960.497 220 207 190
159.767 -5.363 960.524 222 206 190
159.767 -4.863 960.542 221 205 189
159.767 -4.363 960.582 220 205 186
159.767 -3.863 960.633 219 202 184
159.767 -3.363 960.671 220 203 185
159.767 -2.863 960.691 224 206 186
159.767 -2.363 960.714 224 206 186
159.767 -1.863 960.735 227 209 189
