102.267 -80.363 990.278 138 129 130
102.267 -79.863 990.315 140 132 130
102.267 -79.363 990.442 136 128 126
102.267 -78.863 990.639 135 126 127
102.267 -78.363 990.713 134 125 127
102.267 -77.863 990.748 122 117 118
102.267 -77.363 990.675 122 117 120
102.267 -76.863 990.549 118 111 116
102.267 -76.363 990.419 110 105 109
102.767 -85.863 989.725 107 102 106
102.767 -85.363 989.614 120 116 119
102.767 -84.863 989.457 122 117 118
102.767 -84.363 989.281 128 121 123
102.767 -83.863 989.266 131 125 127
102.767 -83.363 989.266 132 123 126
102.767 -82.863 989.308 132 123 124
102.767 -82.363 989.485 138 129 130
102.767 -81.863 989.625 141 132 133
102.767 -81.363 989.667 140 131 132
102.767 -80.863 989.691 150 141 142
102.767 -80.363 989.773 157 148 149
102.767 -79.863 989.997 153 145 143
102.767 -79.363 990.200 144 136 134
102.767 -78.863 990.289 138 129 129
102.767 -78.363 990.384 152 143 143
102.767 -77.863 990.408 148 142 144
102.767 -77.363 990.367 127 121 124
102.767 -76.863 990.309 118 111 116
102.767 -76.363 990.267 110 105 109
103.267 -85.863 989.385 106 101 105
103.267 -85.363 989.189 116 110 114
103.267 -84.863 989.022 123 118 119
103.267 -84.363 988.891 129 120 121
103.267 -83.863 988.897 138 128 129
103.267 -83.363 988.897 132 122 123
103.267 -82.863 988.882 130 121 122
103.267 -82.363 988.835 130 121 122
103.267 -81.863 988.937 131 122 123
103.267 -81.363 989.245 130 121 122
103.267 -80.863 989.420 149 140 141
103.267 -80.363 989.569 152 143 144
103.267 -79.863 989.691 148 139 140
103.267 -79.363 989.827 139 131 129
103.267 -78.863 989.984 135 127 125
103.267 -78.363 990.169 161 153 151
103.267 -77.863 990.160 171 162 163
103.267 -77.363 990.122 134 125 128
103.267 -76.863 990.100 119 111 114
103.267 -76.363 990.060 112 107 111
103.767 -85.863 989.115 107 102 108
103.767 -85.363 988.874 115 109 113
103.767 -84.863 988.704 121 116 118
103.767 -84.363 988.524 127 119 121
103.767 -83.863 988.454 142 133 134
103.767 -83.363 988.443 138 129 130
103.767 -82.863 988.502 129 120 121
103.767 -82.363 988.661 131 122 123
103.767 -81.863 988.798 132 123 124
103.767 -81.363 989.083 128 119 120
103.767 -80.863 989.230 125 117 117
103.767 -80.363 989.308 131 122 123
103.767 -79.863 989.383 153 144 145
103.767 -79.363 989.535 152 144 142
103.767 -78.863 989.697 134 126 124
103.767 -78.363 989.843 138 130 128
103.767 -77.863 989.902 169 160 159
103.767 -77.363 989.967 138 129 130
103.767 -76.863 989.933 120 112 114
103.767 -76.363 989.767 112 108 109
104.267 -85.863 988.773 107 102 108
104.267 -85.363 988.642 115 109 113
104.267 -84.863 988.374 121 116 118
104.267 -84.363 988.271 123 116 118
104.267 -83.863 988.133 132 123 124
104.267 -83.363 988.131 140 131 132
104.267 -82.863 988.239 134 125 126
104.267 -82.363 988.315 130 121 122
104.267 -81.863 988.326 132 123 124
104.267 -81.363 988.404 127 119 119
104.267 -80.863 988.759 124 116 116
104.267 -80.363 989.100 133 124 125
104.267 -79.863 989.209 145 136 137
104.267 -79.363 989.302 143 135 133
104.267 -78.863 989.408 132 124 122
104.267 -78.363 989.578 137 129 126
104.267 -77.863 989.730 161 153 151
104.267 -77.363 989.744 143 134 135
104.267 -76.863 989.649 122 115 116
104.267 -76.363 989.475 113 109 110
104.767 -85.863 988.564 108 106 111
104.767 -85.363 988.248 117 111 117
104.767 -80.863 988.002 124 116 116
104.767 -80.363 988.340 127 119 119
104.767 -79.863 988.666 132 123 124
104.767 -79.363 988.981 136 128 126
104.767 -78.863 989.165 136 128 126
104.767 -78.363 989.346 141 133 130
104.767 -77.863 989.414 167 158 156
104.767 -77.363 989.457 155 147 145
104.767 -76.863 989.376 128 121 121
104.767 -76.363 989.188 116 111 112
105.267 -85.863 988.273 101 98 105
105.267 -79.863 988.189 131 122 123
105.267 -79.363 988.493 134 125 126
105.267 -78.863 988.792 150 142 140
105.267 -78.363 989.068 154 146 143
105.267 -77.863 989.230 154 146 143
105.267 -77.363 989.218 172 164 161
105.267 -76.863 989.056 147 140 138
105.267 -76.363 988.880 124 120 119
105.767 -85.863 988.002 98 95 103
105.767 -79.363 988.081 128 119 120
105.767 -78.863 988.305 141 133 130
105.767 -78.363 988.572 153 146 140
105.767 -77.863 988.869 156 148 145
105.767 -77.363 988.841 171 163 160
105.767 -76.863 988.752 154 147 144
105.767 -76.363 988.662 128 124 123
106.267 -78.363 988.209 153 145 142
106.267 -77.863 988.314 151 143 140
106.267 -77.363 988.423 152 144 141
106.267 -76.863 988.510 157 150 147
106.267 -76.363 988.526 135 129 129
106.767 -77.863 987.976 140 132 129
106.767 -77.363 988.196 143 135 132
106.767 -76.863 988.266 153 146 143
106.767 -76.363 988.322 142 136 136
107.267 -76.363 987.946 154 147 147
79.267 -69.363 998.074 168 154 145
79.267 -68.863 997.972 157 142 134
79.267 -68.363 997.927 163 148 138
79.267 -67.863 998.013 173 158 149
79.267 -67.363 998.015 192 175 165
79.767 -70.363 998.047 120 110 109
79.767 -69.863 997.770 136 127 122
79.767 -69.363 997.567 147 137 131
79.767 -68.863 997.388 134 122 116
79.767 -68.363 997.185 134 121 113
79.767 -67.863 997.261 156 141 134
79.767 -67.363 997.099 180 167 157
79.767 -66.863 997.312 201 187 176
80.267 -71.363 998.000 106 100 103
80.267 -70.863 997.909 111 105 106
80.267 -70.363 997.605 113 105 103
80.267 -69.863 997.425 124 117 113
80.267 -69.363 997.156 147 138 136
80.267 -68.863 996.876 131 121 117
80.267 -68.363 996.762 128 118 111
80.267 -67.863 996.713 143 130 123
80.267 -67.363 996.680 168 154 146
80.267 -66.863 996.672 176 162 151
80.767 -72.363 997.941 119 115 116
80.767 -71.863 997.739 113 109 109
80.767 -71.363 997.575 109 105 105
80.767 -70.863 997.271 106 102 103
80.767 -70.363 996.954 107 102 103
80.767 -69.863 996.696 119 112 112
80.767 -69.363 996.497 133 124 125
80.767 -68.863 996.201 126 118 116
80.767 -68.363 996.196 130 120 118
80.767 -67.863 996.112 145 134 130
80.767 -67.363 996.094 152 141 135
80.767 -66.863 996.097 153 140 131
81.267 -73.863 998.053 132 126 128
81.267 -73.363 997.746 124 119 118
81.267 -72.863 997.568 122 117 116
81.267 -72.363 997.310 120 116 116
81.267 -71.863 997.095 119 113 112
81.267 -71.363 996.832 117 111 111
81.267 -70.863 996.508 115 109 109
81.267 -70.363 996.339 107 101 103
81.267 -69.863 996.269 110 104 104
81.267 -69.363 996.098 122 113 114
81.267 -68.863 995.842 126 119 116
81.267 -68.363 995.648 130 120 116
81.267 -67.863 995.575 153 142 138
81.267 -67.363 995.483 168 156 150
81.267 -66.863 995.457 164 150 142
81.767 -74.363 997.823 120 115 116
81.767 -73.863 997.610 135 129 131
81.767 -73.363 997.244 127 121 121
81.767 -72.863 996.968 121 116 116
81.767 -72.363 996.725 123 118 117
81.767 -71.863 996.424 126 120 120
81.767 -71.363 996.195 124 119 118
81.767 -70.863 995.917 121 116 116
81.767 -70.363 995.625 120 115 114
81.767 -69.863 995.480 120 115 114
81.767 -69.363 995.414 121 113 111
81.767 -68.863 995.307 130 121 119
81.767 -68.363 995.068 140 130 126
81.767 -67.863 994.930 148 137 131
81.767 -67.363 994.908 164 153 147
81.767 -66.863 994.911 160 147 139
82.267 -75.363 997.881 116 111 112
82.267 -74.863 997.654 115 110 111
82.267 -74.363 997.281 119 116 116
82.267 -73.863 996.911 138 134 135
82.267 -73.363 996.625 136 130 130
82.267 -72.863 996.290 127 121 121
82.267 -72.363 995.976 119 112 112
82.267 -71.863 995.651 125 119 119
82.267 -71.363 995.510 128 122 122
82.267 -70.863 995.311 142 136 136
82.267 -70.363 994.989 145 139 139
82.267 -69.863 994.804 142 136 136
82.267 -69.363 994.603 136 128 126
82.267 -68.863 994.279 141 132 129
82.267 -68.363 994.217 143 134 129
82.267 -67.863 994.222 168 157 151
82.267 -67.363 994.207 157 146 140
82.267 -66.863 994.239 143 131 125
82.767 -75.863 997.731 121 117 120
82.767 -75.363 997.379 120 117 117
82.767 -74.863 997.018 120 117 117
82.767 -74.363 996.678 116 111 112
82.767 -73.863 996.262 130 126 127
82.767 -73.363 995.951 144 139 136
82.767 -72.863 995.475 135 129 127
82.767 -72.363 995.122 124 119 116
82.767 -71.863 994.941 122 117 114
82.767 -71.363 994.851 125 120 117
82.767 -70.863 994.617 129 123 120
82.767 -70.363 994.328 143 137 136
82.767 -69.863 994.072 152 147 144
82.767 -69.363 993.754 143 135 133
82.767 -68.863 993.646 151 143 139
82.767 -68.363 993.497 159 150 143
82.767 -67.863 993.729 170 159 153
82.767 -67.363 993.714 154 144 137
82.767 -66.863 993.796 149 139 132
83.267 -75.863 997.192 124 119 123
83.267 -75.363 996.769 122 118 121
83.267 -74.863 996.388 119 116 117
83.267 -74.363 995.986 116 111 112
83.267 -73.863 995.547 140 135 136
83.267 -73.363 995.262 157 149 147
83.267 -72.863 994.892 148 140 138
83.267 -72.363 994.533 138 130 128
83.267 -71.863 994.331 138 130 128
83.267 -71.363 994.207 131 123 121
83.267 -70.863 993.821 131 123 121
83.267 -70.363 993.499 135 129 127
83.267 -69.863 993.353 136 131 128
83.267 -69.363 993.133 139 131 128
83.267 -68.863 993.050 153 145 141
83.267 -68.363 993.035 171 162 155
83.267 -67.863 993.208 179 168 161
83.267 -67.363 993.218 166 155 146
83.267 -66.863 993.249 150 140 134
83.767 -75.863 996.618 136 134 139
83.767 -75.363 996.184 124 122 125
83.767 -74.863 995.728 125 123 125
83.767 -74.363 995.272 138 136 135
83.767 -73.863 994.937 146 143 142
83.767 -73.363 994.575 150 143 141
83.767 -72.863 993.970 151 143 141
83.767 -72.363 993.536 162 154 152
83.767 -71.863 993.401 167 158 155
83.767 -71.363 993.299 144 136 133
83.767 -70.863 993.027 132 127 123
83.767 -70.363 992.758 135 127 125
83.767 -69.863 992.644 135 126 127
83.767 -69.363 992.371 135 127 125
83.767 -68.863 992.258 139 130 127
83.767 -68.363 992.349 162 153 146
83.767 -67.863 992.529 166 156 149
83.767 -67.363 992.632 168 158 149
83.767 -66.863 992.657 150 139 133
84.267 -75.863 996.003 119 118 122
84.267 -75.363 995.630 122 120 123
84.267 -74.863 995.049 119 118 119
84.267 -74.363 994.479 119 118 118
84.267 -73.863 993.955 123 120 121
84.267 -73.363 993.463 147 139 137
84.267 -72.863 993.038 166 157 155
84.267 -72.363 992.822 164 156 154
84.267 -71.863 992.715 154 146 144
84.267 -71.363 992.587 149 141 138
84.267 -70.863 992.379 134 129 125
84.267 -70.363 992.188 138 130 129
84.267 -69.863 992.065 141 132 133
84.267 -69.363 991.793 133 125 123
84.267 -68.863 991.672 131 121 118
84.267 -68.363 991.657 136 127 122
84.267 -67.863 991.721 140 131 124
84.267 -67.363 991.962 145 134 128
84.267 -66.863 992.086 157 147 139
84.767 -75.863 995.387 110 108 113
84.767 -75.363 994.875 111 109 114
84.767 -74.863 994.257 106 104 108
84.767 -74.363 993.727 99 97 99
84.767 -73.863 993.247 101 99 102
84.767 -73.363 992.760 117 110 110
84.767 -72.863 992.495 137 131 131
84.767 -72.363 992.308 158 153 150
84.767 -71.863 992.183 138 133 130
84.767 -71.363 992.058 140 135 132
84.767 -70.863 991.795 128 120 117
84.767 -70.363 991.560 134 125 124
84.767 -69.863 991.483 134 125 126
84.767 -69.363 991.372 138 130 128
84.767 -68.863 991.292 135 125 123
84.767 -68.363 991.272 136 127 122
84.767 -67.863 991.263 146 137 130
84.767 -67.363 991.368 151 140 135
84.767 -66.863 991.509 153 142 135
85.267 -75.863 994.744 103 101 107
85.267 -75.363 994.062 103 101 107
85.267 -74.863 993.334 99 97 103
85.267 -74.363 992.783 92 91 94
85.267 -73.863 992.514 94 92 97
85.267 -73.363 992.248 104 99 103
85.267 -72.863 992.085 117 111 113
85.267 -72.363 991.826 124 119 119
85.267 -71.863 991.606 129 124 123
85.267 -71.363 991.378 128 123 120
85.267 -70.863 991.219 123 116 113
85.267 -70.363 991.084 126 118 118
85.267 -69.863 990.988 130 121 122
85.267 -69.363 990.906 132 124 122
85.267 -68.863 990.869 137 127 126
85.267 -68.363 990.834 147 137 134
85.267 -67.863 990.792 149 140 135
85.267 -67.363 990.858 147 136 132
85.267 -66.863 990.929 161 150 143
85.767 -75.863 993.939 92 92 97
85.767 -75.363 993.211 91 90 95
85.767 -74.863 992.671 90 88 94
85.767 -74.363 992.272 87 86 93
85.767 -73.863 991.961 90 87 94
85.767 -73.363 991.720 94 92 97
85.767 -72.863 991.510 102 97 102
85.767 -72.363 991.189 111 106 108
85.767 -71.863 990.901 119 112 112
85.767 -71.363 990.794 124 119 118
85.767 -70.863 990.748 125 118 116
85.767 -70.363 990.651 120 111 112
85.767 -69.863 990.514 120 112 110
85.767 -69.363 990.454 126 119 116
85.767 -68.863 990.444 135 125 124
85.767 -68.363 990.394 138 128 126
85.767 -67.863 990.343 142 132 130
85.767 -67.363 990.273 141 130 126
85.767 -66.863 990.386 167 156 149
86.267 -75.863 993.375 91 90 95
86.267 -75.363 992.729 88 87 94
86.267 -74.863 992.253 88 87 94
86.267 -74.363 991.838 92 91 97
86.267 -73.863 991.530 92 92 98
86.267 -73.363 991.228 93 92 96
86.267 -72.863 990.914 94 92 96
86.267 -72.363 990.690 103 99 100
86.267 -71.863 990.542 116 109 111
86.267 -71.363 990.485 124 119 118
86.267 -70.863 990.381 127 119 117
86.267 -70.363 990.229 121 112 112
86.267 -69.863 990.132 119 111 109
86.267 -69.363 990.076 125 118 116
86.267 -68.863 990.060 130 120 119
86.267 -68.363 990.033 127 118 116
86.267 -67.863 990.040 128 119 116
86.267 -67.363 989.954 131 120 118
86.267 -66.863 990.037 163 152 145
86.767 -75.863 993.194 87 86 93
86.767 -75.363 992.474 86 85 93
86.767 -74.863 991.935 88 87 95
86.767 -74.363 991.492 91 90 97
86.767 -73.863 991.109 92 91 98
86.767 -73.363 990.755 92 90 96
86.767 -72.863 990.533 93 92 96
86.767 -72.363 990.366 98 96 99
86.767 -71.863 990.172 113 108 110
86.767 -71.363 990.065 122 117 116
86.767 -70.863 989.894 124 117 114
86.767 -70.363 989.811 126 119 116
86.767 -69.863 989.775 120 112 110
86.767 -69.363 989.681 126 119 116
86.767 -68.863 989.642 129 119 118
86.767 -68.363 989.561 127 118 116
86.767 -67.863 989.534 128 119 118
86.767 -67.363 989.532 136 125 124
86.767 -66.863 989.527 146 135 130
87.267 -75.863 993.038 86 85 92
87.267 -75.363 992.284 85 84 90
87.267 -74.863 991.712 85 84 93
87.267 -74.363 991.279 88 87 95
87.267 -73.863 990.800 90 88 96
87.267 -73.363 990.439 91 90 97
87.267 -72.863 990.246 92 92 97
87.267 -72.363 990.041 98 96 102
87.267 -71.863 989.798 112 107 110
87.267 -71.363 989.662 120 115 114
87.267 -70.863 989.612 127 119 118
87.267 -70.363 989.599 125 118 116
87.267 -69.863 989.541 127 119 117
87.267 -69.363 989.394 128 120 118
87.267 -68.863 989.312 136 128 126
87.267 -68.363 989.195 134 126 124
87.267 -67.863 989.157 132 124 122
87.267 -67.363 989.153 131 122 120
87.267 -66.863 989.082 144 133 129
87.767 -75.863 992.861 85 84 90
87.767 -75.363 992.114 83 82 90
87.767 -74.863 991.543 83 82 90
87.767 -74.363 991.084 84 83 92
87.767 -73.863 990.598 86 85 94
87.767 -73.363 990.195 91 90 97
87.767 -72.863 989.982 93 92 100
87.767 -72.363 989.762 99 97 103
87.767 -71.863 989.476 109 104 108
87.767 -71.363 989.334 118 111 113
87.767 -70.863 989.262 127 121 121
87.767 -70.363 989.228 128 120 118
87.767 -69.863 989.135 128 120 118
87.767 -69.363 989.061 128 120 118
87.767 -68.863 988.983 130 122 120
87.767 -68.363 988.886 133 125 123
87.767 -67.863 988.857 136 128 126
87.767 -67.363 988.841 136 126 124
87.767 -66.863 988.815 138 127 123
88.267 -75.863 992.802 84 83 92
88.267 -75.363 992.089 83 82 90
88.267 -74.863 991.530 82 81 89
88.267 -74.363 991.031 83 82 93
88.267 -73.863 990.515 85 83 94
88.267 -73.363 990.034 88 87 95
88.267 -72.863 989.700 92 91 97
88.267 -72.363 989.451 95 93 98
88.267 -71.863 989.157 104 99 105
88.267 -71.363 988.935 111 106 110
88.267 -70.863 988.796 121 116 117
88.267 -70.363 988.682 127 121 121
88.267 -69.863 988.581 130 121 122
88.267 -69.363 988.547 127 119 119
88.267 -68.863 988.511 127 119 117
88.267 -68.363 988.476 128 120 118
88.267 -67.863 988.365 133 123 122
88.267 -67.363 988.311 132 122 120
88.267 -66.863 988.352 129 119 114
88.767 -75.863 992.781 81 81 88
88.767 -75.363 992.108 81 81 88
88.767 -74.863 991.522 81 80 89
88.767 -74.363 990.997 83 81 93
88.767 -73.863 990.524 85 83 94
88.767 -73.363 989.942 85 84 94
88.767 -72.863 989.385 87 86 94
88.767 -72.363 989.109 92 88 95
88.767 -71.863 988.817 97 95 100
88.767 -71.363 988.487 107 103 107
88.767 -70.863 988.322 116 111 116
88.767 -70.363 988.150 124 119 120
88.767 -69.863 988.089 126 120 120
88.767 -69.363 988.054 127 119 120
88.767 -68.863 988.074 127 119 118
88.767 -68.363 988.013 127 118 116
89.267 -75.863 992.801 81 80 87
89.267 -75.363 992.137 81 78 88
89.267 -74.863 991.513 81 78 89
89.267 -74.363 990.965 82 81 92
89.267 -73.863 990.510 84 82 94
89.267 -73.363 989.810 84 82 94
89.267 -72.863 989.158 82 81 89
89.267 -72.363 988.872 84 83 90
89.267 -71.863 988.557 90 86 94
89.267 -71.363 988.253 95 93 99
89.267 -70.863 988.072 105 103 108
89.767 -75.863 992.994 82 81 89
89.767 -75.363 992.175 78 76 87
89.767 -74.863 991.503 81 78 89
89.767 -74.363 990.936 82 81 92
89.767 -73.863 990.429 84 82 95
89.767 -73.363 989.773 83 81 93
89.767 -72.863 989.159 83 81 92
89.767 -72.363 988.805 83 82 90
89.767 -71.863 988.393 87 84 92
89.767 -71.363 988.072 88 85 93
90.267 -75.863 993.234 90 86 94
90.267 -75.363 992.191 81 77 86
90.267 -74.863 991.464 81 80 87
90.267 -74.363 990.855 81 81 88
90.267 -73.863 990.268 83 82 90
90.267 -73.363 989.727 84 82 94
90.267 -72.863 989.159 85 83 94
90.267 -72.363 988.712 85 84 93
90.267 -71.863 988.237 86 83 93
90.767 -75.863 993.339 98 95 103
90.767 -75.363 992.166 86 83 93
90.767 -74.863 991.371 82 81 89
90.767 -74.363 990.731 83 82 90
90.767 -73.863 990.156 81 81 88
90.767 -73.363 989.665 81 78 89
90.767 -72.863 989.122 82 81 92
90.767 -72.363 988.638 83 82 92
90.767 -71.863 988.114 87 84 93
91.267 -75.863 993.365 101 98 105
91.267 -75.363 992.187 91 87 96
91.267 -74.863 991.259 84 83 92
91.267 -74.363 990.572 84 83 92
91.267 -73.863 990.068 81 81 88
91.267 -73.363 989.494 81 78 89
91.267 -72.863 989.004 82 81 90
91.267 -72.363 988.532 85 84 93
91.267 -71.863 988.003 93 91 97
91.767 -75.863 993.331 96 93 100
91.767 -75.363 992.219 95 92 102
91.767 -74.863 991.186 88 87 95
91.767 -74.363 990.429 83 82 90
91.767 -73.863 989.877 84 83 92
91.767 -73.363 989.288 82 81 92
91.767 -72.863 988.873 87 86 94
91.767 -72.363 988.368 88 87 95
92.267 -75.863 993.195 92 88 95
92.267 -75.363 992.118 94 92 100
92.267 -74.863 991.015 88 87 95
92.267 -74.363 990.294 85 84 93
92.267 -73.863 989.733 84 83 92
92.267 -73.363 989.210 84 83 92
92.267 -72.863 988.766 88 87 95
92.267 -72.363 988.232 87 86 93
92.767 -75.863 992.987 96 93 100
92.767 -75.363 992.083 92 88 97
92.767 -74.863 990.967 88 87 95
92.767 -74.363 990.177 85 84 93
92.767 -73.863 989.685 84 83 92
92.767 -73.363 989.231 84 83 92
92.767 -72.863 988.698 85 84 92
92.767 -72.363 988.176 88 87 94
93.267 -75.863 992.822 106 103 111
93.267 -75.363 992.067 93 91 99
93.267 -74.863 990.985 90 87 95
93.267 -74.363 990.142 84 83 94
93.267 -73.863 989.661 84 83 94
93.267 -73.363 989.242 86 85 94
93.267 -72.863 988.735 90 86 94
93.267 -72.363 988.219 94 92 98
93.767 -75.863 992.675 98 95 104
93.767 -75.363 992.018 90 86 95
93.767 -74.863 991.017 86 84 94
93.767 -74.363 990.172 84 82 94
93.767 -73.863 989.700 85 83 94
93.767 -73.363 989.269 90 88 96
93.767 -72.863 988.846 95 92 100
93.767 -72.363 988.351 93 91 97
94.267 -75.863 992.586 88 85 93
94.267 -75.363 991.986 87 84 94
94.267 -74.863 991.155 85 83 92
94.267 -74.363 990.285 84 83 92
94.267 -73.863 989.690 87 86 94
94.267 -73.363 989.302 92 92 99
94.267 -72.863 988.939 99 96 104
94.267 -72.363 988.420 92 90 96
94.767 -75.863 992.522 87 84 92
94.767 -75.363 991.975 86 83 90
94.767 -74.863 991.274 85 83 92
94.767 -74.363 990.359 85 84 93
94.767 -73.863 989.669 88 87 95
94.767 -73.363 989.259 93 92 100
94.767 -72.863 988.915 98 95 103
94.767 -72.363 988.423 92 90 96
95.267 -75.863 992.478 96 93 100
95.267 -75.363 991.972 91 87 94
95.267 -74.863 991.351 91 88 95
95.267 -74.363 990.420 87 86 94
95.267 -73.863 989.679 86 85 94
95.267 -73.363 989.301 90 88 96
95.267 -72.863 988.949 91 87 95
95.267 -72.363 988.491 87 84 92
95.767 -75.863 992.459 108 106 111
95.767 -75.363 991.960 98 95 103
95.767 -74.863 991.371 102 100 107
95.767 -74.363 990.572 93 92 98
95.767 -73.863 989.806 86 85 92
95.767 -73.363 989.363 86 85 94
95.767 -72.863 988.921 87 84 93
95.767 -72.363 988.482 87 84 92
96.267 -75.863 992.449 111 109 114
96.267 -75.363 991.936 108 105 112
96.267 -74.863 991.350 106 104 110
96.267 -74.363 990.628 93 92 98
96.267 -73.863 989.928 85 84 90
96.267 -73.363 989.456 86 84 92
96.267 -72.863 988.958 87 84 92
96.267 -72.363 988.497 91 87 94
96.267 -71.863 987.938 95 92 99
96.767 -75.863 992.297 109 104 108
96.767 -75.363 991.817 111 109 114
96.767 -74.863 991.232 108 106 111
96.767 -74.363 990.576 96 94 99
96.767 -73.863 989.979 87 85 93
96.767 -73.363 989.511 92 87 94
96.767 -72.863 988.967 92 87 94
96.767 -72.363 988.498 96 92 97
96.767 -71.863 987.947 102 97 103
97.267 -75.863 992.036 102 97 102
97.267 -75.363 991.525 102 98 104
97.267 -74.863 991.052 103 101 106
97.267 -74.363 990.520 101 99 104
97.267 -73.863 990.016 92 90 96
97.267 -73.363 989.547 99 94 100
97.267 -72.863 988.981 103 98 104
97.267 -72.363 988.509 104 99 105
97.267 -71.863 988.010 100 95 102
97.767 -75.863 991.780 101 96 100
97.767 -75.363 991.337 100 95 102
97.767 -74.863 990.980 105 101 107
97.767 -74.363 990.505 106 104 109
97.767 -73.863 990.025 100 97 104
97.767 -73.363 989.547 102 97 103
97.767 -72.863 988.964 104 99 105
97.767 -72.363 988.501 105 100 106
97.767 -71.863 988.040 101 96 103
98.267 -75.863 991.616 102 97 102
98.267 -75.363 991.262 102 97 103
98.267 -74.863 990.942 112 107 113
98.267 -74.363 990.476 117 113 118
98.267 -73.863 990.012 107 104 111
98.267 -73.363 989.567 107 102 108
98.267 -72.863 989.002 107 102 108
98.267 -72.363 988.515 103 98 104
98.267 -71.863 988.091 99 94 100
98.767 -75.863 991.442 106 100 104
98.767 -75.363 991.061 110 104 110
98.767 -74.863 990.779 119 113 119
98.767 -74.363 990.312 108 103 109
98.767 -73.863 989.920 109 104 111
98.767 -73.363 989.557 118 112 118
98.767 -72.863 989.015 119 113 119
98.767 -72.363 988.532 102 97 103
98.767 -71.863 988.065 97 92 98
99.267 -75.863 991.215 110 104 108
99.267 -75.363 990.938 110 103 110
99.267 -74.863 990.561 108 103 109
99.267 -74.363 990.128 105 100 106
99.267 -73.863 989.865 117 111 118
99.267 -73.363 989.541 123 119 124
99.267 -72.863 989.026 123 119 124
99.267 -72.363 988.628 106 101 107
99.267 -71.863 988.111 103 98 104
99.767 -75.863 991.003 108 103 107
99.767 -75.363 990.741 108 103 109
99.767 -74.863 990.433 103 98 104
99.767 -74.363 990.038 107 102 108
99.767 -73.863 989.729 116 110 117
99.767 -73.363 989.449 125 120 126
99.767 -72.863 989.032 122 118 123
99.767 -72.363 988.689 106 101 107
99.767 -71.863 988.140 104 99 105
100.267 -75.863 990.824 107 102 106
100.267 -75.363 990.615 112 107 113
100.267 -74.863 990.361 111 106 112
100.267 -74.363 989.943 98 93 99
100.267 -73.863 989.611 105 100 107
100.267 -73.363 989.369 119 115 120
100.267 -72.863 989.033 113 108 114
100.267 -72.363 988.690 109 104 110
100.267 -71.863 988.126 113 108 114
100.767 -75.863 990.708 111 106 110
100.767 -75.363 990.530 119 115 120
100.767 -74.863 990.184 112 107 113
100.767 -74.363 989.760 105 100 106
100.767 -73.863 989.440 108 103 110
100.767 -73.363 989.240 118 112 118
100.767 -72.863 988.988 110 105 111
100.767 -72.363 988.523 118 112 118
100.767 -71.863 988.054 118 112 118
101.267 -75.863 990.532 108 103 107
101.267 -75.363 990.346 109 104 110
101.267 -74.863 990.089 112 107 113
101.267 -74.363 989.685 110 105 111
101.267 -73.863 989.345 108 103 110
101.267 -73.363 989.056 117 111 117
101.267 -72.863 988.773 116 110 116
101.267 -72.363 988.421 120 116 121
101.267 -71.863 988.111 118 112 118
101.767 -75.863 990.354 107 102 106
101.767 -75.363 990.206 104 99 105
101.767 -74.863 989.966 106 101 107
101.767 -74.363 989.594 107 102 108
101.767 -73.863 989.229 109 104 111
101.767 -73.363 988.901 112 107 113
101.767 -72.863 988.631 119 113 119
101.767 -72.363 988.353 119 115 120
101.767 -71.863 988.034 116 110 116
102.267 -75.863 990.274 106 101 105
102.267 -75.363 990.070 103 98 104
102.267 -74.863 989.721 109 104 110
102.267 -74.363 989.347 106 101 107
102.267 -73.863 989.078 106 101 108
102.267 -73.363 988.817 111 106 112
102.267 -72.863 988.482 118 112 118
102.267 -72.363 988.158 117 111 117
102.767 -75.863 990.075 104 99 104
102.767 -75.363 989.825 105 100 106
102.767 -74.863 989.538 106 101 107
102.767 -74.363 989.211 105 101 107
102.767 -73.863 988.925 108 103 109
102.767 -73.363 988.680 109 104 111
102.767 -72.863 988.405 116 110 116
102.767 -72.363 988.056 117 111 117
103.267 -75.863 989.835 104 99 105
103.267 -75.363 989.568 103 98 104
103.267 -74.863 989.377 105 101 106
103.267 -74.363 989.124 104 102 107
103.267 -73.863 988.853 108 106 109
103.267 -73.363 988.528 109 104 111
103.267 -72.863 988.133 111 106 113
103.767 -75.863 989.614 104 99 103
103.767 -75.363 989.437 102 97 103
103.767 -74.863 989.207 108 104 110
103.767 -74.363 988.977 106 104 109
103.767 -73.863 988.694 108 106 111
103.767 -73.363 988.405 106 101 108
103.767 -72.863 988.042 105 100 107
104.267 -75.863 989.266 106 101 105
104.267 -75.363 989.088 104 99 105
104.267 -74.863 988.925 104 100 107
104.267 -74.363 988.780 107 105 111
104.267 -73.863 988.579 110 108 113
104.267 -73.363 988.228 104 101 108
104.767 -75.863 989.023 111 106 110
104.767 -75.363 988.871 108 103 109
104.767 -74.863 988.762 108 104 111
104.767 -74.363 988.631 109 106 113
104.767 -73.863 988.394 106 104 109
104.767 -73.363 988.050 105 102 109
105.267 -75.863 988.821 116 110 114
105.267 -75.363 988.750 110 105 111
105.267 -74.863 988.649 109 105 112
105.267 -74.363 988.545 107 104 111
105.267 -73.863 988.291 103 100 107
105.267 -73.363 987.960 108 105 114
105.767 -75.863 988.558 119 115 116
105.767 -75.363 988.489 112 107 113
105.767 -74.863 988.382 109 105 112
105.767 -74.363 988.234 104 101 108
105.767 -73.863 988.012 103 100 107
106.267 -75.863 988.446 123 118 117
106.267 -75.363 988.284 112 108 110
106.267 -74.863 988.172 111 106 111
106.267 -74.363 988.039 105 100 106
106.767 -75.863 988.286 126 120 120
106.767 -75.363 988.095 117 110 112
106.767 -74.863 987.970 115 109 113
107.267 -75.863 987.932 135 129 129
79.767 -66.363 997.425 186 172 161
79.767 -65.863 997.940 191 177 164
80.267 -66.363 996.726 170 156 145
80.267 -65.863 997.256 190 176 163
80.267 -65.363 997.805 208 194 181
80.767 -66.363 996.320 164 150 139
80.767 -65.863 996.540 191 175 162
80.767 -65.363 997.083 211 195 182
80.767 -64.863 997.713 215 202 188
81.267 -66.363 995.597 173 159 148
81.267 -65.863 995.859 200 184 171
81.267 -65.363 996.381 214 198 185
81.267 -64.863 996.923 216 202 189
81.267 -64.363 997.710 215 203 189
81.767 -66.363 995.053 172 158 147
81.767 -65.863 995.216 201 185 172
81.767 -65.363 995.567 214 198 185
81.767 -64.863 996.147 216 203 187
81.767 -64.363 996.900 213 199 185
81.767 -63.863 997.678 212 196 183
82.267 -66.363 994.424 147 133 125
82.267 -65.863 994.620 177 162 149
82.267 -65.363 995.002 204 188 173
82.267 -64.863 995.270 211 196 181
82.267 -64.363 995.865 213 200 184
82.267 -63.863 996.762 215 199 184
82.267 -63.363 997.602 203 190 174
82.767 -66.363 993.743 148 135 126
82.767 -65.863 993.911 166 151 138
82.767 -65.363 994.066 193 177 162
82.767 -64.863 994.520 208 192 177
82.767 -64.363 995.152 214 200 184
82.767 -63.863 995.842 218 202 187
82.767 -63.363 996.632 207 194 178
82.767 -62.863 997.425 206 193 177
82.767 -62.363 997.863 218 205 189
83.267 -66.363 993.287 163 151 142
83.267 -65.863 993.392 179 166 153
83.267 -65.363 993.433 192 176 161
83.267 -64.863 993.752 195 179 163
83.267 -64.363 994.277 212 196 181
83.267 -63.863 995.009 220 204 189
83.267 -63.363 995.763 221 208 192
83.267 -62.863 996.357 216 203 187
83.267 -62.363 996.884 213 200 184
83.267 -61.863 997.727 224 212 196
83.767 -66.363 992.662 136 123 116
83.767 -65.863 992.920 172 158 149
83.767 -65.363 993.076 184 170 158
83.767 -64.863 993.191 171 156 143
83.767 -64.363 993.427 206 190 175
83.767 -63.863 993.985 217 204 188
83.767 -63.363 994.727 221 208 192
83.767 -62.863 995.547 218 205 189
83.767 -62.363 996.174 217 204 188
83.767 -61.863 996.765 224 211 195
83.767 -61.363 997.450 231 217 201
84.267 -66.363 992.125 159 147 138
84.267 -65.863 992.262 168 155 146
84.267 -65.363 992.532 184 169 158
84.267 -64.863 992.629 177 163 150
84.267 -64.363 992.881 195 179 164
84.267 -63.863 993.246 202 189 173
84.267 -63.363 993.732 212 199 183
84.267 -62.863 994.241 219 206 190
84.267 -62.363 995.139 223 210 194
84.267 -61.863 995.887 223 210 194
84.267 -61.363 996.574 217 204 188
84.267 -60.863 997.147 214 200 185
84.267 -60.363 997.809 212 198 185
84.767 -66.363 991.582 169 156 148
84.767 -65.863 991.683 184 171 162
84.767 -65.363 991.984 200 186 175
84.767 -64.863 992.183 189 175 162
84.767 -64.363 992.387 199 184 170
84.767 -63.863 992.500 212 199 183
84.767 -63.363 993.142 210 197 181
84.767 -62.863 993.413 225 212 196
84.767 -62.363 993.799 219 206 190
84.767 -61.863 994.683 222 209 193
84.767 -61.363 995.523 217 204 188
84.767 -60.863 996.222 215 201 186
84.767 -60.363 996.568 219 205 192
84.767 -59.863 997.428 214 201 187
85.267 -66.363 990.967 180 168 159
85.267 -65.863 991.093 167 153 144
85.267 -65.363 991.279 188 174 163
85.267 -64.863 991.611 188 173 160
85.267 -64.363 991.828 197 181 167
85.267 -63.863 991.995 220 207 191
85.267 -63.363 992.384 223 210 194
85.267 -62.863 992.691 206 193 177
85.267 -62.363 993.038 215 202 186
85.267 -61.863 993.667 221 208 192
85.267 -61.363 994.567 217 204 188
85.267 -60.863 995.253 219 205 190
85.267 -60.363 995.848 224 210 197
85.267 -59.863 996.456 218 204 191
85.267 -59.363 997.328 213 201 187
85.767 -66.363 990.462 187 174 166
85.767 -65.863 990.553 188 175 166
85.767 -65.363 990.790 171 157 146
85.767 -64.863 991.079 164 149 136
85.767 -64.363 991.377 189 173 158
85.767 -63.863 991.572 212 199 183
85.767 -63.363 991.736 213 200 184
85.767 -62.863 991.999 206 193 177
85.767 -62.363 992.517 216 203 187
85.767 -61.863 993.006 224 211 195
85.767 -61.363 993.556 222 209 193
85.767 -60.863 994.143 217 203 189
85.767 -60.363 995.042 194 180 168
85.767 -59.863 995.705 218 204 191
85.767 -59.363 996.445 203 189 176
85.767 -58.863 997.491 188 176 164
86.267 -66.363 990.095 176 163 155
86.267 -65.863 990.125 179 166 156
86.267 -65.363 990.347 194 180 170
86.267 -64.863 990.604 181 167 153
86.267 -64.363 990.762 201 185 171
86.267 -63.863 991.007 220 207 191
86.267 -63.363 991.156 222 209 193
86.267 -62.863 991.479 228 215 199
86.267 -62.363 991.923 231 217 201
86.267 -61.863 992.478 232 218 202
86.267 -61.363 992.859 228 215 199
86.267 -60.863 993.477 219 205 191
86.267 -60.363 994.362 201 187 174
86.267 -59.863 995.084 192 179 165
86.267 -59.363 995.827 189 176 160
86.267 -58.863 996.572 180 167 153
86.267 -58.363 997.478 188 174 163
86.767 -66.363 989.611 147 135 127
86.767 -65.863 989.661 158 145 136
86.767 -65.363 989.761 156 142 132
86.767 -64.863 990.020 187 172 159
86.767 -64.363 990.233 203 187 172
86.767 -63.863 990.571 223 210 194
86.767 -63.363 990.841 233 219 204
86.767 -62.863 991.103 232 218 202
86.767 -62.363 991.424 226 213 197
86.767 -61.863 991.865 224 211 195
86.767 -61.363 992.207 218 205 189
86.767 -60.863 992.710 210 197 182
86.767 -60.363 993.482 209 195 183
86.767 -59.863 994.346 195 181 168
86.767 -59.363 994.967 193 180 165
86.767 -58.863 995.722 180 167 153
86.767 -58.363 996.526 194 180 170
86.767 -57.863 997.302 199 185 174
87.267 -66.363 989.132 143 132 126
87.267 -65.863 989.229 153 140 132
87.267 -65.363 989.450 177 164 155
87.267 -64.863 989.615 197 184 171
87.267 -64.363 989.841 203 187 172
87.267 -63.863 990.158 222 209 193
87.267 -63.363 990.431 219 206 190
87.267 -62.863 990.679 197 184 168
87.267 -62.363 991.002 195 183 166
87.267 -61.863 991.364 217 204 188
87.267 -61.363 991.523 212 199 183
87.267 -60.863 992.083 206 192 177
87.267 -60.363 992.812 211 197 184
87.267 -59.863 993.490 198 184 171
87.267 -59.363 994.207 188 174 161
87.267 -58.863 994.820 189 175 164
87.267 -58.363 995.664 203 191 179
87.267 -57.863 996.497 207 195 183
87.267 -57.363 997.278 206 194 183
87.767 -66.363 988.793 150 139 133
87.767 -65.863 988.878 164 151 143
87.767 -65.363 989.074 184 170 161
87.767 -64.863 989.207 199 185 173
87.767 -64.363 989.379 187 171 157
87.767 -63.863 989.677 211 198 182
87.767 -63.363 989.933 211 198 182
87.767 -62.863 990.077 197 184 168
87.767 -62.363 990.382 185 172 156
87.767 -61.863 990.855 206 193 177
87.767 -61.363 990.953 213 200 184
87.767 -60.863 991.277 214 200 185
87.767 -60.363 992.050 211 197 184
87.767 -59.863 992.832 211 197 184
87.767 -59.363 993.549 204 190 177
87.767 -58.863 994.195 203 190 178
87.767 -58.363 994.760 203 191 179
87.767 -57.863 995.603 215 203 191
87.767 -57.363 996.437 214 202 190
88.267 -66.363 988.403 138 127 121
88.267 -65.863 988.483 166 152 144
88.267 -65.363 988.549 172 159 150
88.267 -64.863 988.750 201 187 176
88.267 -64.363 988.821 223 208 193
88.267 -63.863 989.115 222 209 193
88.267 -63.363 989.279 212 199 183
88.267 -62.863 989.437 213 200 184
88.267 -62.363 989.784 189 176 160
88.267 -61.863 990.184 185 172 156
88.267 -61.363 990.438 200 187 171
88.267 -60.863 990.713 206 192 176
88.267 -60.363 991.239 206 192 179
88.267 -59.863 992.023 206 192 179
88.267 -59.363 992.724 206 192 179
88.267 -58.863 993.439 205 192 179
88.267 -58.363 994.109 213 201 189
88.267 -57.863 994.798 217 205 193
88.267 -57.363 995.716 222 208 197
88.767 -65.863 988.002 159 146 138
88.767 -65.363 988.064 166 152 143
88.767 -64.863 988.317 195 181 170
88.767 -64.363 988.411 224 208 194
88.767 -63.863 988.550 218 205 190
88.767 -63.363 988.724 217 204 188
88.767 -62.863 988.952 206 193 178
88.767 -62.363 989.341 183 169 153
88.767 -61.863 989.535 177 164 148
88.767 -61.363 989.962 194 181 166
88.767 -60.863 990.172 191 177 162
88.767 -60.363 990.591 209 196 180
88.767 -59.863 991.071 212 199 183
88.767 -59.363 991.802 214 200 186
88.767 -58.863 992.519 211 198 185
88.767 -58.363 993.320 211 199 185
88.767 -57.863 994.144 214 202 189
88.767 -57.363 994.993 223 209 196
89.267 -64.363 987.987 224 209 194
89.267 -63.863 988.215 205 191 178
89.267 -63.363 988.421 207 193 180
89.267 -62.863 988.668 197 184 171
89.267 -62.363 988.901 168 154 141
89.267 -61.863 989.074 176 162 149
89.267 -61.363 989.464 196 183 170
89.267 -60.863 989.711 200 185 171
89.267 -60.363 990.043 212 198 182
89.267 -59.863 990.350 218 205 189
89.267 -59.363 990.939 217 204 188
89.267 -58.863 991.640 218 205 192
89.267 -58.363 992.396 218 206 192
89.267 -57.863 993.235 196 184 171
89.267 -57.363 994.002 212 199 183
89.767 -63.363 987.948 202 188 175
89.767 -62.863 988.250 195 181 168
89.767 -62.363 988.390 174 160 147
89.767 -61.863 988.621 188 174 161
89.767 -61.363 988.936 184 169 156
89.767 -60.863 989.301 196 181 167
89.767 -60.363 989.640 205 192 176
89.767 -59.863 989.931 222 209 193
89.767 -59.363 990.279 227 214 198
89.767 -58.863 990.801 222 210 194
89.767 -58.363 991.391 217 205 191
89.767 -57.863 992.263 212 200 186
89.767 -57.363 992.969 210 197 181
90.267 -62.363 987.972 176 162 151
90.267 -61.863 988.206 176 164 152
90.267 -61.363 988.499 180 168 156
90.267 -60.863 988.784 199 186 172
90.267 -60.363 989.188 213 197 181
90.267 -59.863 989.460 226 210 194
90.267 -59.363 989.733 223 207 191
90.267 -58.863 990.129 208 192 176
90.267 -58.363 990.620 214 198 183
90.267 -57.863 991.318 218 202 188
90.267 -57.363 992.060 216 202 191
90.767 -61.363 988.142 189 177 165
90.767 -60.863 988.396 197 184 170
90.767 -60.363 988.698 195 179 163
90.767 -59.863 989.035 207 191 175
90.767 -59.363 989.281 202 186 171
90.767 -58.863 989.610 181 166 151
90.767 -58.363 990.086 203 187 172
90.767 -57.863 990.615 218 202 187
90.767 -57.363 991.296 218 204 191
91.267 -60.863 988.005 202 189 176
91.267 -60.363 988.218 184 169 155
91.267 -59.863 988.569 171 156 143
91.267 -59.363 988.853 172 158 144
91.267 -58.863 989.216 181 167 154
91.267 -58.363 989.594 176 162 150
91.267 -57.863 990.100 203 188 177
91.267 -57.363 990.678 214 200 187
91.767 -59.863 988.065 176 162 151
91.767 -59.363 988.410 171 157 147
91.767 -58.863 988.811 168 153 144
91.767 -58.363 989.101 168 154 145
91.767 -57.863 989.573 175 161 152
91.767 -57.363 990.102 197 184 172
92.267 -59.363 987.976 177 164 156
92.267 -58.863 988.345 155 142 134
92.267 -58.363 988.661 159 146 138
92.267 -57.863 988.967 150 137 129
92.267 -57.363 989.493 155 141 132
92.767 -58.363 988.260 154 141 135
92.767 -57.863 988.518 155 142 136
92.767 -57.363 988.898 146 131 124
93.267 -57.863 988.223 151 140 136
93.267 -57.363 988.507 153 138 133
93.767 -57.363 988.140 161 146 141
83.267 -52.863 997.839 85 83 93
83.767 -52.863 997.824 85 84 94
83.767 -52.363 997.222 84 82 94
84.267 -52.863 997.749 86 85 94
84.267 -52.363 997.103 84 82 93
84.767 -52.863 997.818 87 86 94
84.767 -52.363 997.134 86 84 94
84.767 -51.863 996.571 85 83 94
85.267 -52.863 997.854 92 90 96
85.267 -52.363 997.170 93 92 100
85.267 -51.863 996.447 92 91 98
85.267 -51.363 995.628 91 88 97
85.767 -52.863 997.759 98 96 102
85.767 -52.363 997.066 98 95 103
85.767 -51.863 996.371 94 92 98
85.767 -51.363 995.536 93 92 100
85.767 -50.863 994.803 88 88 96
86.267 -52.863 997.556 101 99 104
86.267 -52.363 996.831 95 92 99
86.267 -51.863 996.143 95 92 99
86.267 -51.363 995.295 95 93 99
86.267 -50.863 994.530 91 91 99
86.267 -50.363 993.929 86 84 95
86.767 -52.863 997.324 108 104 109
86.767 -52.363 996.563 100 98 103
86.767 -51.863 995.878 98 95 103
86.767 -51.363 995.049 95 92 99
86.767 -50.863 994.262 90 90 98
86.767 -50.363 993.587 88 86 96
87.267 -56.863 998.045 201 190 181
87.267 -53.363 997.747 127 123 124
87.267 -52.863 996.860 119 113 118
87.267 -52.363 996.199 104 101 108
87.267 -51.863 995.680 99 96 103
87.267 -51.363 994.863 96 93 102
87.267 -50.863 994.071 92 91 98
87.267 -50.363 993.456 90 88 96
87.267 -49.863 992.880 86 85 94
87.767 -56.863 997.088 203 191 182
87.767 -56.363 997.875 181 170 163
87.767 -53.863 997.805 124 120 119
87.767 -53.363 997.132 127 123 124
87.767 -52.863 996.410 121 117 121
87.767 -52.363 995.906 106 104 109
87.767 -51.863 995.469 103 100 107
87.767 -51.363 994.753 99 96 103
87.767 -50.863 993.976 93 92 100
87.767 -50.363 993.432 92 91 98
87.767 -49.863 992.804 86 85 94
87.767 -49.363 992.368 82 81 92
88.267 -56.863 996.380 211 199 188
88.267 -56.363 997.105 184 174 165
88.267 -55.863 997.580 166 156 150
88.267 -55.363 997.773 141 133 129
88.267 -54.863 997.739 128 121 119
88.267 -54.363 997.567 127 122 121
88.267 -53.863 997.182 125 121 120
88.267 -53.363 996.724 122 119 119
88.267 -52.863 996.133 121 117 119
88.267 -52.363 995.708 110 107 112
88.267 -51.863 995.317 105 102 109
88.267 -51.363 994.678 101 98 105
88.267 -50.863 993.933 93 92 100
88.267 -50.363 993.349 90 88 96
88.267 -49.863 992.752 85 84 93
88.267 -49.363 992.328 81 80 90
88.767 -56.863 995.734 222 209 198
88.767 -56.363 996.311 194 184 174
88.767 -55.863 996.818 172 163 156
88.767 -55.363 997.067 149 140 135
88.767 -54.863 997.020 136 128 125
88.767 -54.363 996.941 128 123 120
88.767 -53.863 996.791 126 122 121
88.767 -53.363 996.370 122 119 117
88.767 -52.863 995.952 122 118 119
88.767 -52.363 995.605 113 111 116
88.767 -51.863 995.080 102 100 105
88.767 -51.363 994.517 96 93 100
88.767 -50.863 993.802 91 90 97
88.767 -50.363 993.132 86 85 94
88.767 -49.863 992.665 84 83 92
88.767 -49.363 992.313 82 81 92
88.767 -48.863 991.892 81 80 90
89.267 -56.863 994.965 215 202 189
89.267 -56.363 995.619 210 198 188
89.267 -55.863 996.108 184 173 166
89.267 -55.363 996.469 161 152 147
89.267 -54.863 996.527 144 136 133
89.267 -54.363 996.452 133 128 125
89.267 -53.863 996.250 129 125 122
89.267 -53.363 995.968 124 120 119
89.267 -52.863 995.731 124 120 122
89.267 -52.363 995.458 117 113 117
89.267 -51.863 994.920 104 102 107
89.267 -51.363 994.374 94 92 97
89.267 -50.863 993.654 90 88 96
89.267 -50.363 992.953 87 86 94
89.267 -49.863 992.575 86 85 94
89.267 -49.363 992.224 82 81 92
89.267 -48.863 991.770 83 81 93
89.267 -48.363 991.248 95 93 104
89.767 -56.863 993.963 210 196 183
89.767 -56.363 994.858 208 195 186
89.767 -55.863 995.478 196 186 176
89.767 -55.363 995.873 170 161 155
89.767 -54.863 995.955 151 143 138
89.767 -54.363 995.898 134 129 126
89.767 -53.863 995.760 124 120 117
89.767 -53.363 995.682 119 116 114
89.767 -52.863 995.517 124 120 121
89.767 -52.363 995.252 117 115 117
89.767 -51.863 994.831 113 111 116
89.767 -51.363 994.269 102 100 106
89.767 -50.863 993.589 92 92 99
89.767 -50.363 992.931 91 90 97
89.767 -49.863 992.500 86 85 94
89.767 -49.363 992.058 83 81 93
89.767 -48.863 991.569 84 82 94
89.767 -48.363 991.083 93 92 103
90.267 -56.863 992.950 217 203 190
90.267 -56.363 993.968 210 198 186
90.267 -55.863 994.786 204 194 182
90.267 -55.363 995.147 181 171 163
90.267 -54.863 995.342 163 152 147
90.267 -54.363 995.402 137 132 128
90.267 -53.863 995.428 121 117 113
90.267 -53.363 995.398 119 112 112
90.267 -52.863 995.247 119 115 117
90.267 -52.363 994.997 119 116 119
90.267 -51.863 994.573 115 112 116
90.267 -51.363 994.032 107 105 109
90.267 -50.863 993.495 96 93 100
90.267 -50.363 992.847 91 90 97
90.267 -49.863 992.347 87 86 94
90.267 -49.363 991.950 85 84 93
90.267 -48.863 991.501 85 84 94
90.267 -48.363 991.051 92 92 102
90.267 -47.863 990.715 100 98 105
90.767 -56.863 992.069 213 199 186
90.767 -56.363 992.991 207 195 182
90.767 -55.863 993.969 204 194 184
90.767 -55.363 994.478 191 181 172
90.767 -54.863 994.760 171 161 156
90.767 -54.363 994.909 147 139 136
90.767 -53.863 994.986 126 121 118
90.767 -53.363 994.990 117 110 110
90.767 -52.863 994.880 111 107 109
90.767 -52.363 994.631 118 116 118
90.767 -51.863 994.146 113 111 114
90.767 -51.363 993.735 110 108 111
90.767 -50.863 993.290 104 101 108
90.767 -50.363 992.647 98 95 103
90.767 -49.863 992.161 94 93 100
90.767 -49.363 991.791 90 88 96
90.767 -48.863 991.444 87 86 94
90.767 -48.363 991.049 92 92 100
90.767 -47.863 990.628 101 98 105
90.767 -47.363 990.278 98 95 103
91.267 -56.863 991.373 216 202 189
91.267 -56.363 992.132 212 200 186
91.267 -55.863 992.993 201 191 181
91.267 -55.363 993.832 193 184 176
91.267 -54.863 994.221 179 168 164
91.267 -54.363 994.418 158 150 145
91.267 -53.863 994.531 137 130 127
91.267 -53.363 994.553 122 117 116
91.267 -52.863 994.443 116 109 112
91.267 -52.363 994.170 115 110 114
91.267 -51.863 993.817 116 113 116
91.267 -51.363 993.495 117 115 117
91.267 -50.863 993.035 109 107 112
91.267 -50.363 992.519 107 104 110
91.267 -49.863 992.059 99 96 103
91.267 -49.363 991.660 91 90 96
91.267 -48.863 991.381 88 87 94
91.267 -48.363 991.018 96 95 103
91.267 -47.863 990.540 107 104 111
91.267 -47.363 990.092 100 97 104
91.767 -56.863 990.741 211 197 184
91.767 -56.363 991.409 209 197 185
91.767 -55.863 992.096 200 190 180
91.767 -55.363 992.835 198 188 179
91.767 -54.863 993.376 181 171 166
91.767 -54.363 993.836 159 152 146
91.767 -53.863 993.987 142 134 131
91.767 -53.363 994.033 129 120 120
91.767 -52.863 993.967 122 118 118
91.767 -52.363 993.801 117 111 116
91.767 -51.863 993.584 118 112 116
91.767 -51.363 993.210 116 113 116
91.767 -50.863 992.799 111 107 113
91.767 -50.363 992.442 111 109 114
91.767 -49.863 992.009 96 94 99
91.767 -49.363 991.620 92 90 94
91.767 -48.863 991.314 93 92 98
91.767 -48.363 990.946 102 101 107
91.767 -47.863 990.500 109 106 113
91.767 -47.363 989.991 99 96 103
92.267 -56.863 990.148 190 176 166
92.267 -56.363 990.729 204 192 180
92.267 -55.863 991.398 209 199 187
92.267 -55.363 991.933 202 192 182
92.267 -54.863 992.463 190 181 172
92.267 -54.363 993.077 168 160 152
92.267 -53.863 993.333 143 135 132
92.267 -53.363 993.389 130 122 120
92.267 -52.863 993.396 125 119 120
92.267 -52.363 993.386 122 119 119
92.267 -51.863 993.198 120 117 117
92.267 -51.363 992.822 118 113 114
92.267 -50.863 992.532 115 109 113
92.267 -50.363 992.203 107 102 106
92.267 -49.863 991.868 94 92 97
92.267 -49.363 991.536 92 91 95
92.267 -48.863 991.119 93 92 96
92.267 -48.363 990.708 99 98 104
92.267 -47.863 990.370 106 103 110
92.267 -47.363 989.943 99 96 103
92.767 -56.863 989.455 159 144 136
92.767 -56.363 989.903 199 187 175
92.767 -55.863 990.695 205 195 183
92.767 -55.363 991.302 205 195 183
92.767 -54.863 991.750 195 186 175
92.767 -54.363 992.309 179 169 162
92.767 -53.863 992.711 156 148 145
92.767 -53.363 992.805 132 124 122
92.767 -52.863 992.869 132 126 127
92.767 -52.363 992.820 127 122 124
92.767 -51.863 992.675 121 118 118
92.767 -51.363 992.426 119 115 116
92.767 -50.863 992.207 119 115 118
92.767 -50.363 991.929 117 111 116
92.767 -49.863 991.690 106 104 107
92.767 -49.363 991.378 101 99 104
92.767 -48.863 990.910 95 93 98
92.767 -48.363 990.506 96 94 99
92.767 -47.863 990.148 104 101 108
92.767 -47.363 989.775 101 98 105
93.267 -56.863 988.869 160 146 138
93.267 -56.363 989.281 198 185 175
93.267 -55.863 989.848 208 197 185
93.267 -55.363 990.556 203 193 183
93.267 -54.863 991.107 197 187 177
93.267 -54.363 991.572 185 175 168
93.267 -53.863 991.902 168 157 152
93.267 -53.363 992.126 145 136 134
93.267 -52.863 992.400 125 118 116
93.267 -52.363 992.367 123 117 117
93.267 -51.863 992.279 121 118 118
93.267 -51.363 992.139 122 119 119
93.267 -50.863 991.925 124 119 121
93.267 -50.363 991.710 123 119 121
93.267 -49.863 991.464 117 111 116
93.267 -49.363 991.106 110 108 111
93.267 -48.863 990.678 99 97 100
93.267 -48.363 990.385 95 93 97
93.267 -47.863 990.018 98 96 102
93.267 -47.363 989.508 102 100 106
93.767 -56.863 988.431 176 163 155
93.767 -56.363 988.745 198 185 176
93.767 -55.863 989.105 209 197 185
93.767 -55.363 989.740 202 192 182
93.767 -54.863 990.409 195 185 175
93.767 -54.363 990.938 188 177 171
93.767 -53.863 991.251 176 166 159
93.767 -53.363 991.564 153 144 139
93.767 -52.863 991.808 130 121 119
93.767 -52.363 991.909 122 117 116
93.767 -51.863 991.890 120 115 116
93.767 -51.363 991.787 121 118 118
93.767 -50.863 991.620 121 118 118
93.767 -50.363 991.424 123 119 120
93.767 -49.863 991.143 125 121 122
93.767 -49.363 990.832 124 119 123
93.767 -48.863 990.496 105 103 106
93.767 -48.363 990.230 96 94 97
93.767 -47.863 989.904 101 99 104
93.767 -47.363 989.314 105 103 108
94.267 -56.363 988.278 184 170 161
94.267 -55.863 988.590 202 190 178
94.267 -55.363 989.073 204 194 182
94.267 -54.863 989.725 195 185 175
94.267 -54.363 990.409 191 179 171
94.267 -53.863 990.835 184 173 167
94.267 -53.363 991.068 166 154 149
94.267 -52.863 991.211 136 127 124
94.267 -52.363 991.365 123 118 116
94.267 -51.863 991.425 127 121 121
94.267 -51.363 991.354 125 121 122
94.267 -50.863 991.241 124 119 121
94.267 -50.363 991.079 126 122 123
94.267 -49.863 990.823 132 128 129
94.267 -49.363 990.535 132 127 131
94.267 -48.863 990.247 119 117 119
94.267 -48.363 989.972 103 101 104
94.267 -47.863 989.602 109 107 112
94.267 -47.363 989.084 117 115 119
94.767 -55.863 988.144 198 186 174
94.767 -55.363 988.520 205 193 181
94.767 -54.863 989.059 198 185 176
94.767 -54.363 989.712 198 185 176
94.767 -53.863 990.242 196 185 177
94.767 -53.363 990.554 184 172 166
94.767 -52.863 990.740 150 142 138
94.767 -52.363 990.884 125 118 116
94.767 -51.863 990.912 122 117 116
94.767 -51.363 990.866 125 119 119
94.767 -50.863 990.800 127 121 122
94.767 -50.363 990.626 126 120 121
94.767 -49.863 990.390 126 122 123
94.767 -49.363 990.177 134 130 131
94.767 -48.863 989.907 124 119 122
94.767 -48.363 989.586 113 110 114
94.767 -47.863 989.155 121 119 124
94.767 -47.363 988.733 118 116 120
95.267 -55.363 988.022 197 185 173
95.267 -54.863 988.490 204 192 180
95.267 -54.363 989.014 204 192 182
95.267 -53.863 989.578 204 191 182
95.267 -53.363 990.053 190 180 171
95.267 -52.863 990.255 167 156 150
95.267 -52.363 990.340 136 128 125
95.267 -51.863 990.353 125 119 116
95.267 -51.363 990.343 121 117 114
95.267 -50.863 990.271 129 123 123
95.267 -50.363 990.095 140 134 134
95.267 -49.863 989.879 136 130 131
95.267 -49.363 989.738 127 122 124
95.267 -48.863 989.504 124 120 121
95.267 -48.363 989.151 124 119 121
95.267 -47.863 988.760 124 122 125
95.267 -47.363 988.332 110 108 112
95.767 -54.863 987.962 205 192 181
95.767 -54.363 988.403 208 194 183
95.767 -53.863 988.802 206 193 184
95.767 -53.363 989.300 196 184 175
95.767 -52.863 989.645 175 166 159
95.767 -52.363 989.814 144 136 133
95.767 -51.863 989.856 135 127 124
95.767 -51.363 989.865 126 121 118
95.767 -50.863 989.767 130 122 123
95.767 -50.363 989.569 142 136 136
95.767 -49.863 989.386 144 138 138
95.767 -49.363 989.268 126 120 122
95.767 -48.863 989.045 130 126 127
