241.443 -19.379 981.970 227 216 198
241.443 -18.879 982.070 227 216 198
241.943 -20.879 981.777 227 214 198
241.943 -20.379 982.024 227 214 198
241.943 -19.879 982.155 226 214 198
241.943 -19.379 982.311 227 215 199
241.943 -18.879 982.365 225 213 197
242.443 -21.379 981.794 230 216 200
242.443 -20.879 982.091 226 213 199
242.443 -20.379 982.359 226 214 199
242.443 -19.879 982.469 225 213 200
242.443 -19.379 982.566 220 209 198
242.443 -18.879 982.604 214 204 194
242.943 -21.379 982.060 230 215 202
242.943 -20.879 982.344 225 211 199
242.943 -20.379 982.564 221 211 199
242.943 -19.879 982.669 218 208 198
242.943 -19.379 982.700 206 197 188
242.943 -18.879 982.711 203 197 191
243.443 -21.379 982.267 228 214 201
243.443 -20.879 982.478 224 212 202
243.443 -20.379 982.663 226 218 210
243.443 -19.879 982.721 233 226 218
243.443 -19.379 982.735 243 238 232
243.443 -18.879 982.733 247 244 239
243.943 -20.879 982.531 227 216 207
243.943 -20.379 982.672 252 247 243
243.943 -19.879 982.716 251 248 243
243.943 -19.379 982.731 249 247 244
243.943 -18.879 982.731 249 249 246
244.443 -20.879 982.558 222 211 204
244.443 -20.379 982.649 249 244 239
244.443 -19.879 982.700 252 249 246
244.443 -19.379 982.722 248 248 247
244.443 -18.879 982.732 248 249 250
244.943 -20.879 982.554 216 207 196
244.943 -20.379 982.636 239 234 227
244.943 -19.879 982.692 250 247 244
244.943 -19.379 982.720 248 248 248
244.943 -18.879 982.755 246 247 249
245.443 -20.879 982.522 215 206 195
245.443 -20.379 982.630 221 218 210
245.443 -19.879 982.703 247 246 242
245.443 -19.379 982.754 246 246 246
245.443 -18.879 982.828 246 247 249
245.943 -20.879 982.478 216 207 195
245.943 -20.379 982.616 207 202 193
245.943 -19.879 982.738 249 246 242
245.943 -19.379 982.810 248 248 248
245.943 -18.879 982.904 244 244 246
246.443 -20.879 982.452 214 202 191
246.443 -20.379 982.598 199 191 181
246.443 -19.879 982.741 241 235 230
246.443 -19.379 982.844 249 246 244
246.443 -18.879 982.945 247 246 245
246.943 -20.879 982.427 210 197 185
246.943 -20.379 982.584 190 179 167
246.943 -19.879 982.699 223 214 206
246.943 -19.379 982.899 244 238 234
246.943 -18.879 983.034 232 227 224
247.443 -20.879 982.400 200 186 174
247.443 -20.379 982.592 193 181 166
247.443 -19.879 982.778 192 183 173
247.443 -19.379 983.032 190 184 177
247.443 -18.879 983.211 179 171 167
247.943 -20.879 982.435 198 184 171
247.943 -20.379 982.710 194 183 171
247.943 -19.879 982.995 184 175 166
247.943 -19.379 983.221 176 169 161
247.943 -18.879 983.398 177 172 167
248.443 -20.879 982.625 207 196 183
248.443 -20.379 982.917 207 196 187
248.443 -19.879 983.250 204 196 189
248.443 -19.379 983.416 195 190 185
248.443 -18.879 983.519 214 212 208
248.943 -20.879 982.863 212 203 193
248.943 -20.379 983.175 225 216 209
248.943 -19.879 983.482 240 234 229
248.943 -19.379 983.557 241 239 236
248.943 -18.879 983.593 244 244 243
249.443 -20.879 983.015 216 208 198
249.443 -20.379 983.400 235 230 222
249.443 -19.879 983.597 247 244 240
249.443 -19.379 983.643 245 245 243
249.443 -18.879 983.694 245 247 247
249.943 -20.879 983.117 207 198 189
249.943 -20.379 983.492 226 220 216
249.943 -19.879 983.634 248 245 241
249.943 -19.379 983.728 246 246 246
249.943 -18.879 983.842 245 247 249
250.443 -20.879 983.162 203 192 184
250.443 -20.379 983.534 205 200 194
250.443 -19.879 983.687 246 244 239
250.443 -19.379 983.868 246 245 243
250.443 -18.879 984.006 246 247 248
250.943 -20.379 983.568 192 184 178
250.943 -19.879 983.836 243 238 234
250.943 -19.379 984.051 245 245 243
250.943 -18.879 984.136 244 248 247
251.443 -20.379 983.646 197 189 183
251.443 -19.879 984.047 215 213 209
240.943 -16.879 981.993 226 213 196
240.943 -16.379 981.953 226 213 196
240.943 -15.879 981.913 224 211 194
240.943 -15.379 981.749 224 211 194
240.943 -14.879 981.539 224 211 194
241.443 -18.379 982.231 225 214 196
241.443 -17.879 982.296 224 213 194
241.443 -17.379 982.298 224 212 196
241.443 -16.879 982.280 224 211 197
241.443 -16.379 982.261 223 210 198
241.443 -15.879 982.207 222 209 196
241.443 -15.379 982.040 221 209 195
241.443 -14.879 981.795 223 210 195
241.443 -14.379 981.566 223 209 193
241.943 -18.379 982.481 223 211 196
241.943 -17.879 982.531 220 209 195
241.943 -17.379 982.542 211 201 189
241.943 -16.879 982.536 210 200 190
241.943 -16.379 982.511 208 198 188
241.943 -15.879 982.437 210 200 190
241.943 -15.379 982.305 211 201 191
241.943 -14.879 982.032 205 195 183
241.943 -14.379 981.776 202 190 176
241.943 -13.879 981.563 197 184 167
242.443 -18.379 982.632 206 197 187
242.443 -17.879 982.641 202 192 183
242.443 -17.379 982.652 197 190 181
242.443 -16.879 982.672 204 197 190
242.443 -16.379 982.634 219 212 207
242.443 -15.879 982.567 230 221 216
242.443 -15.379 982.455 238 232 224
242.443 -14.879 982.229 224 217 209
242.443 -14.379 981.954 188 179 170
242.443 -13.879 981.655 163 151 140
242.943 -18.379 982.687 216 209 204
242.943 -17.879 982.678 237 231 227
242.943 -17.379 982.688 244 239 236
242.943 -16.879 982.710 246 244 240
242.943 -16.379 982.663 251 247 246
242.943 -15.879 982.612 252 249 248
242.943 -15.379 982.528 253 249 246
242.943 -14.879 982.372 246 244 240
242.943 -14.379 982.083 195 189 183
242.943 -13.879 981.768 152 142 135
243.443 -18.379 982.716 249 246 244
243.443 -17.879 982.708 250 249 247
243.443 -17.379 982.722 248 248 246
243.443 -16.879 982.736 247 247 246
243.443 -16.379 982.686 249 249 250
243.443 -15.879 982.634 248 248 250
243.443 -15.379 982.579 251 251 251
243.443 -14.879 982.457 251 251 249
243.443 -14.379 982.191 207 203 201
243.443 -13.879 981.926 148 141 138
243.943 -18.379 982.727 249 251 250
243.943 -17.879 982.731 248 250 249
243.943 -17.379 982.752 248 250 249
243.943 -16.879 982.768 248 249 249
243.943 -16.379 982.724 249 250 252
243.943 -15.879 982.668 248 249 251
243.943 -15.379 982.620 248 249 251
243.943 -14.879 982.514 248 250 249
243.943 -14.379 982.321 231 228 229
243.943 -13.879 982.051 157 151 150
243.943 -13.379 981.719 148 139 135
244.443 -18.379 982.740 246 249 248
244.443 -17.879 982.765 246 249 248
244.443 -17.379 982.807 247 248 249
244.443 -16.879 982.805 245 247 248
244.443 -16.379 982.769 247 248 250
244.443 -15.879 982.702 249 249 251
244.443 -15.379 982.646 249 250 251
244.443 -14.879 982.564 249 249 249
244.443 -14.379 982.427 249 248 249
244.443 -13.879 982.130 170 168 165
244.443 -13.379 981.806 143 135 131
244.943 -18.379 982.800 246 248 248
244.943 -17.879 982.845 244 246 245
244.943 -17.379 982.897 245 246 248
244.943 -16.879 982.880 245 246 248
244.943 -16.379 982.834 247 248 250
244.943 -15.879 982.750 249 249 249
244.943 -15.379 982.694 249 249 249
244.943 -14.879 982.614 249 249 249
244.943 -14.379 982.508 249 247 248
244.943 -13.879 982.236 194 190 190
244.943 -13.379 981.925 131 126 124
245.443 -18.379 982.897 246 247 249
245.443 -17.879 982.950 245 247 246
245.443 -17.379 982.987 244 246 245
245.443 -16.879 982.982 245 247 246
245.443 -16.379 982.927 246 248 247
245.443 -15.879 982.821 247 247 246
245.443 -15.379 982.764 247 247 245
245.443 -14.879 982.672 248 248 246
245.443 -14.379 982.547 251 248 249
245.443 -13.879 982.278 213 207 208
245.443 -13.379 982.021 133 125 124
245.943 -18.379 982.962 245 247 246
245.943 -17.879 983.019 244 246 244
245.943 -17.379 983.073 245 247 244
245.943 -16.879 983.061 246 247 244
245.943 -16.379 983.017 246 247 244
245.943 -15.879 982.907 245 244 241
245.943 -15.379 982.820 244 243 238
245.943 -14.879 982.726 231 230 225
245.943 -14.379 982.543 205 200 197
245.943 -13.879 982.240 172 164 161
245.943 -13.379 982.051 167 157 152
246.443 -18.379 983.039 245 244 242
246.443 -17.879 983.110 240 239 236
246.443 -17.379 983.178 234 234 229
246.443 -16.879 983.149 224 223 218
246.443 -16.379 983.094 209 207 202
246.443 -15.879 983.011 191 187 182
246.443 -15.379 982.897 168 161 156
246.443 -14.879 982.768 155 148 143
246.443 -14.379 982.543 158 149 143
246.443 -13.879 982.236 163 154 146
246.943 -18.379 983.174 212 208 205
246.943 -17.879 983.256 190 186 181
246.943 -17.379 983.300 172 169 162
246.943 -16.879 983.302 162 159 152
246.943 -16.379 983.233 162 157 151
246.943 -15.879 983.146 160 153 147
246.943 -15.379 983.002 147 138 131
246.943 -14.879 982.800 145 134 128
246.943 -14.379 982.559 149 136 130
246.943 -13.879 982.283 156 143 135
247.443 -18.379 983.326 171 167 161
247.443 -17.879 983.396 171 164 158
247.443 -17.379 983.430 176 171 166
247.443 -16.879 983.447 195 189 185
247.443 -16.379 983.413 192 184 178
247.443 -15.879 983.315 172 162 157
247.443 -15.379 983.132 151 140 134
247.443 -14.879 982.895 141 128 122
247.443 -14.379 982.645 142 128 124
247.443 -13.879 982.388 150 137 131
247.443 -13.379 982.247 168 152 147
247.943 -18.379 983.467 198 193 189
247.943 -17.879 983.513 217 212 209
247.943 -17.379 983.558 236 231 230
247.943 -16.879 983.564 245 241 240
247.943 -16.379 983.538 241 237 234
247.943 -15.879 983.446 189 184 180
247.943 -15.379 983.275 155 147 144
247.943 -14.879 983.068 140 129 125
247.943 -14.379 982.842 138 127 125
247.943 -13.879 982.603 145 134 130
247.943 -13.379 982.445 158 144 141
248.443 -18.379 983.567 240 238 235
248.443 -17.879 983.643 247 245 242
248.443 -17.379 983.695 247 245 245
248.443 -16.879 983.713 249 246 246
248.443 -16.379 983.666 249 246 244
248.443 -15.879 983.546 219 214 211
248.443 -15.379 983.416 167 157 155
248.443 -14.879 983.257 141 129 127
248.443 -14.379 983.068 134 123 121
248.443 -13.879 982.894 140 129 126
248.443 -13.379 982.715 147 136 132
248.943 -18.379 983.671 247 247 247
248.943 -17.879 983.767 248 248 248
248.943 -17.379 983.818 247 248 248
248.943 -16.879 983.851 249 249 249
248.943 -16.379 983.820 247 247 245
248.943 -15.879 983.682 239 235 234
248.943 -15.379 983.560 181 172 173
248.943 -14.879 983.440 143 131 131
248.943 -14.379 983.286 131 120 120
248.943 -13.879 983.192 133 124 122
249.443 -18.379 983.792 246 247 249
249.443 -17.879 983.866 248 249 251
249.443 -17.379 983.922 248 249 251
249.443 -16.879 983.960 248 250 249
249.443 -16.379 983.949 247 248 248
249.443 -15.879 983.833 246 244 245
249.443 -15.379 983.674 193 188 189
249.443 -14.879 983.573 154 144 148
249.443 -14.379 983.476 126 119 120
249.443 -13.879 983.428 128 122 122
249.943 -18.379 983.917 245 248 250
249.943 -17.879 983.972 245 249 250
249.943 -17.379 984.026 248 249 251
249.943 -16.879 984.058 248 249 251
249.943 -16.379 984.053 248 249 251
249.943 -15.879 983.987 245 246 248
249.943 -15.379 983.837 217 216 218
249.943 -14.879 983.750 164 159 163
249.943 -14.379 983.703 128 123 128
250.443 -18.379 984.052 245 247 249
250.443 -17.879 984.074 245 247 249
250.443 -17.379 984.107 249 249 251
250.443 -16.879 984.146 248 249 251
250.443 -16.379 984.163 248 249 252
250.443 -15.879 984.137 247 248 251
250.443 -15.379 984.053 240 240 244
250.443 -14.879 984.026 174 173 177
250.443 -14.379 984.092 140 135 142
251.443 -19.379 984.285 244 245 245
251.443 -18.879 984.340 244 249 253
251.943 -19.879 984.302 184 181 177
251.943 -19.379 984.641 238 239 240
251.943 -18.879 984.721 234 239 244
252.443 -19.879 984.658 179 172 170
252.443 -19.379 984.940 161 161 163
252.443 -18.879 985.043 157 160 167
252.943 -19.379 985.300 146 147 151
252.943 -18.879 985.345 140 148 156
253.443 -19.379 985.745 157 168 176
253.443 -18.879 985.748 168 184 196
250.943 -18.379 984.237 243 246 247
250.943 -17.879 984.256 243 244 245
250.943 -17.379 984.284 241 246 249
250.943 -16.879 984.309 244 248 251
250.943 -16.379 984.341 245 250 253
250.943 -15.879 984.366 244 246 251
250.943 -15.379 984.334 239 243 247
250.943 -14.879 984.456 199 200 205
251.443 -18.379 984.513 245 250 253
251.443 -17.879 984.578 231 234 240
251.443 -17.379 984.612 215 220 224
251.443 -16.879 984.618 231 235 239
251.443 -16.379 984.637 239 244 250
251.443 -15.879 984.741 237 244 249
251.443 -15.379 984.821 224 231 237
251.443 -14.879 984.976 187 193 200
251.943 -18.379 984.818 213 220 228
251.943 -17.879 984.886 184 187 199
251.943 -17.379 984.914 158 162 172
251.943 -16.879 984.926 183 189 199
251.943 -16.379 984.958 195 203 213
251.943 -15.879 985.171 189 199 209
251.943 -15.379 985.358 171 184 194
252.443 -18.379 985.080 146 153 163
252.443 -17.879 985.203 143 150 162
252.443 -17.379 985.249 146 154 168
252.443 -16.879 985.306 152 163 176
252.443 -15.879 985.628 168 185 200
252.943 -18.379 985.378 141 154 163
252.943 -17.879 985.611 152 166 176
252.943 -17.379 985.706 168 185 201
252.943 -16.879 985.768 187 207 224
