253.443 -26.879 980.877 205 196 187
255.443 -27.379 981.053 219 216 209
255.443 -26.879 981.285 230 222 207
255.943 -27.379 981.139 216 216 209
255.943 -26.879 981.611 225 219 207
256.443 -27.379 981.292 213 213 208
256.443 -26.879 981.840 220 217 209
256.943 -27.379 981.492 211 213 208
256.943 -26.879 982.002 218 218 214
257.443 -27.379 981.622 209 212 213
257.443 -26.879 982.131 214 218 217
257.943 -27.379 981.677 209 213 214
257.943 -26.879 982.229 214 221 221
258.443 -26.879 982.251 208 218 220
258.943 -26.879 982.177 205 215 218
259.443 -26.879 981.971 202 208 210
259.943 -26.879 981.759 196 199 198
260.443 -26.879 981.564 190 191 190
252.443 -24.379 981.325 218 208 199
252.443 -23.879 981.515 220 207 198
252.443 -23.379 981.686 220 207 198
252.443 -22.879 981.977 220 208 196
252.443 -22.379 982.294 218 206 193
252.443 -21.879 982.717 216 203 191
252.443 -21.379 983.319 214 201 191
252.443 -20.879 983.826 208 195 186
252.943 -26.379 980.957 208 200 189
252.943 -25.379 981.166 221 211 201
252.943 -24.879 981.392 220 210 200
252.943 -24.379 981.595 218 208 199
252.943 -23.879 981.815 220 207 199
252.943 -23.379 982.024 220 207 199
252.943 -22.879 982.489 219 207 197
252.943 -22.379 982.795 213 203 193
252.943 -21.879 983.303 209 199 189
252.943 -21.379 983.916 205 194 190
253.443 -25.879 981.198 206 196 184
253.443 -25.379 981.344 220 210 198
253.443 -24.879 981.606 222 210 199
253.443 -24.379 981.883 221 208 200
253.443 -23.879 982.218 219 204 197
253.443 -23.379 982.663 219 206 198
253.443 -22.879 983.284 211 201 191
253.443 -22.379 983.660 203 195 185
253.943 -25.879 981.350 215 205 190
253.943 -25.379 981.610 226 214 199
253.943 -24.879 981.948 223 211 199
253.943 -24.379 982.429 219 207 198
253.943 -23.879 982.957 213 201 193
253.943 -23.379 983.765 205 196 187
254.443 -25.879 981.491 226 213 197
254.443 -25.379 981.984 227 215 200
254.443 -24.879 982.526 218 208 196
254.443 -24.379 983.228 208 201 191
254.443 -23.879 983.997 199 196 192
254.943 -26.379 981.256 231 221 206
254.943 -25.879 981.811 223 214 200
254.943 -25.379 982.579 220 211 202
254.943 -24.879 983.613 207 203 198
255.443 -26.379 981.816 226 218 206
255.443 -25.879 982.511 221 214 206
255.443 -25.379 983.624 210 208 205
255.943 -26.379 982.510 222 218 209
255.943 -25.879 983.380 212 212 209
256.443 -26.379 982.859 215 216 213
256.443 -25.879 983.907 193 200 206
256.943 -26.379 982.937 215 218 221
257.443 -26.379 982.997 221 231 234
257.943 -26.379 983.052 217 228 232
258.443 -26.379 982.972 210 223 228
258.443 -25.879 984.034 205 226 236
258.943 -26.379 982.798 206 219 224
258.943 -25.879 983.577 206 224 234
259.443 -26.379 982.589 205 214 217
259.443 -25.879 983.233 207 222 230
259.943 -26.379 982.298 205 211 211
259.943 -25.879 982.930 208 219 225
259.943 -25.379 984.024 203 224 237
260.443 -26.379 981.944 200 203 202
260.443 -25.879 982.529 208 213 214
260.443 -25.379 983.406 203 218 227
260.943 -26.379 981.659 197 198 195
260.943 -25.879 982.159 205 208 205
260.943 -25.379 982.754 205 213 218
260.943 -24.879 983.884 193 217 232
261.443 -26.379 981.518 193 194 189
261.443 -25.879 981.954 201 203 199
261.443 -25.379 982.397 199 205 207
261.443 -24.879 983.095 191 208 218
261.443 -24.379 984.054 187 218 235
261.943 -26.379 981.431 198 199 193
261.943 -25.879 981.790 196 197 192
261.943 -25.379 982.161 180 184 183
261.943 -24.879 982.689 174 184 191
261.943 -24.379 983.359 193 211 224
261.943 -23.879 984.027 180 212 233
261.943 -18.879 984.094 160 156 154
262.443 -26.379 981.274 203 202 194
262.443 -25.879 981.530 192 194 188
262.443 -25.379 981.817 154 156 155
262.443 -24.879 982.337 127 131 137
262.443 -24.379 982.864 138 149 158
262.443 -23.879 983.131 171 191 206
262.443 -23.379 983.613 160 185 202
262.443 -20.879 984.002 149 148 155
262.443 -20.379 983.798 151 149 150
262.443 -19.879 983.380 162 155 153
262.443 -19.379 983.070 164 155 148
262.443 -18.879 982.747 177 167 156
262.943 -25.879 981.297 197 200 194
262.943 -25.379 981.531 153 155 154
262.943 -24.879 981.854 115 117 121
262.943 -24.379 982.381 110 118 127
262.943 -23.879 982.534 124 137 146
262.943 -23.379 982.633 134 148 161
262.943 -22.879 983.209 135 150 166
262.943 -22.379 983.454 137 152 165
262.943 -21.879 983.204 146 151 160
262.943 -21.379 983.061 151 147 148
262.943 -20.879 982.797 162 154 151
262.943 -20.379 982.546 168 159 154
262.943 -19.879 982.285 173 162 153
262.943 -19.379 982.180 180 167 155
263.443 -25.379 981.314 188 189 189
263.443 -24.879 981.509 138 140 144
263.443 -24.379 981.974 124 127 137
263.443 -23.879 982.167 122 130 138
263.443 -23.379 982.198 119 127 136
263.443 -22.879 982.311 125 132 145
263.443 -22.379 982.437 141 144 155
263.443 -21.879 982.363 140 140 144
263.443 -21.379 982.275 162 156 152
263.443 -20.879 982.172 171 161 154
263.443 -20.379 981.928 175 163 156
263.943 -24.879 981.356 161 160 159
263.943 -24.379 981.623 126 127 129
263.943 -23.879 981.890 127 130 136
263.943 -23.379 981.948 113 117 123
263.943 -22.879 981.901 122 124 130
263.943 -22.379 981.890 136 136 139
263.943 -21.879 981.937 150 145 144
263.943 -21.379 981.920 168 161 154
264.443 -24.879 981.242 193 188 185
264.443 -24.379 981.358 136 134 134
264.443 -23.879 981.579 133 132 137
264.443 -23.379 981.636 119 119 123
264.443 -22.879 981.588 120 119 124
264.943 -24.379 981.189 159 154 149
264.943 -23.879 981.305 135 129 132
264.943 -23.379 981.360 120 115 118
249.443 -12.879 983.335 155 149 146
249.443 -12.379 983.170 168 161 156
249.443 -11.879 983.050 181 174 167
249.443 -11.379 983.035 193 185 177
249.943 -14.379 983.703 128 123 128
249.943 -13.879 983.705 128 123 126
249.943 -13.379 983.776 137 133 135
249.943 -12.879 983.869 147 145 148
249.943 -12.379 983.883 156 155 156
249.943 -11.879 983.943 168 168 168
249.943 -11.379 984.059 173 172 173
249.943 -10.879 984.040 184 183 179
249.943 -10.379 983.951 181 180 179
250.443 -14.879 984.026 174 173 177
250.443 -14.379 984.092 140 135 142
250.443 -13.879 984.146 127 123 130
259.443 -10.379 984.155 191 186 178
259.943 -11.379 983.892 196 186 180
259.943 -10.879 983.537 201 189 177
259.943 -10.379 983.163 203 191 179
260.443 -12.879 984.145 197 189 182
260.443 -12.379 983.745 201 192 181
260.443 -11.879 983.194 204 192 180
260.443 -11.379 982.810 207 194 181
260.443 -10.879 982.541 212 198 183
260.443 -10.379 982.333 216 201 187
260.943 -15.379 984.130 190 185 182
260.943 -14.879 984.078 196 191 187
260.943 -14.379 983.926 198 193 187
260.943 -13.879 983.684 200 194 187
260.943 -13.379 983.464 203 196 187
260.943 -12.879 983.169 206 197 188
260.943 -12.379 982.723 214 200 187
260.943 -11.879 982.332 213 199 186
261.443 -17.879 984.130 171 172 178
261.443 -17.379 983.591 175 173 173
261.443 -16.879 983.568 184 181 178
261.443 -16.379 983.246 194 188 182
261.443 -15.879 983.324 200 192 184
261.443 -15.379 983.313 203 194 184
261.443 -14.879 983.260 207 197 187
261.443 -14.379 983.066 209 199 190
261.943 -18.379 983.598 179 170 167
261.943 -17.879 983.058 186 177 172
261.943 -17.379 982.673 193 186 176
261.943 -16.879 982.700 201 192 182
261.943 -16.379 982.582 205 195 184
262.443 -18.379 982.549 189 179 167
262.443 -17.879 982.384 194 184 173
249.443 -9.379 982.596 199 189 179
249.443 -8.879 982.343 199 187 177
249.443 -8.379 982.016 208 193 183
249.443 -7.879 981.759 209 194 185
249.443 -7.379 981.579 207 193 183
249.443 -6.879 981.454 204 190 180
249.443 -6.379 981.390 201 188 176
249.943 -9.879 983.917 176 176 175
249.943 -9.379 983.648 169 169 167
249.943 -8.879 983.078 166 161 159
249.943 -8.379 982.600 171 163 161
249.943 -7.879 982.248 172 166 159
249.943 -7.379 981.895 175 168 162
249.943 -6.879 981.625 168 159 152
249.943 -6.379 981.513 159 148 142
249.943 -5.879 981.404 155 145 136
250.443 -8.879 983.967 143 150 158
250.443 -8.379 983.377 136 139 147
250.443 -7.879 982.806 155 153 154
250.443 -7.379 982.323 152 148 147
250.443 -6.879 981.965 144 139 137
250.443 -6.379 981.714 146 138 135
250.443 -5.879 981.493 146 136 134
250.443 -5.379 981.312 148 137 134
250.443 -4.879 981.209 152 139 133
250.943 -7.879 983.423 131 141 151
250.943 -7.379 982.796 143 147 156
250.943 -6.879 982.316 142 141 147
250.943 -6.379 981.870 140 135 139
250.943 -5.879 981.558 139 133 133
250.943 -5.379 981.352 145 137 136
250.943 -4.879 981.234 148 138 135
251.443 -7.879 984.024 128 142 155
251.443 -7.379 983.225 134 141 152
251.443 -6.879 982.570 136 135 144
251.443 -6.379 981.970 136 134 139
251.443 -5.879 981.613 138 135 136
251.443 -5.379 981.380 144 138 138
251.443 -4.879 981.244 147 138 136
251.443 -4.379 981.175 149 138 133
251.943 -7.379 983.603 126 135 147
251.943 -6.879 982.833 127 129 138
251.943 -6.379 982.138 133 131 136
251.943 -5.879 981.712 138 136 138
251.943 -5.379 981.431 142 138 139
251.943 -4.879 981.264 145 137 137
251.943 -4.379 981.177 147 138 133
252.443 -7.379 983.903 124 135 147
252.443 -6.879 983.042 120 123 134
252.443 -6.379 982.303 128 128 134
252.443 -5.879 981.805 135 135 138
252.443 -5.379 981.527 141 136 139
252.443 -4.879 981.316 142 135 137
252.443 -4.379 981.173 143 135 132
252.943 -7.379 984.071 128 142 156
252.943 -6.879 983.174 115 119 131
252.943 -6.379 982.430 125 125 133
252.943 -5.879 981.872 133 133 138
252.943 -5.379 981.613 138 136 141
252.943 -4.879 981.377 138 134 137
252.943 -4.379 981.172 139 133 134
252.943 -3.879 981.098 146 136 133
253.443 -6.879 983.288 121 128 141
253.443 -6.379 982.507 120 123 133
253.443 -5.879 981.916 131 132 137
253.443 -5.379 981.637 139 138 143
253.443 -4.879 981.456 141 137 142
253.443 -4.379 981.226 135 131 132
253.443 -3.879 981.115 146 138 137
253.943 -6.879 983.412 130 139 151
253.943 -6.379 982.557 118 121 130
253.943 -5.879 981.998 128 131 138
253.943 -5.379 981.698 141 140 146
253.943 -4.879 981.561 148 144 149
253.943 -4.379 981.302 136 132 133
254.443 -6.879 983.596 137 148 156
254.443 -6.379 982.678 118 123 131
254.443 -5.879 982.159 130 133 140
254.443 -5.379 981.812 137 136 142
254.443 -4.879 981.642 145 143 145
254.443 -4.379 981.383 140 138 138
254.943 -6.879 983.888 144 156 167
254.943 -6.379 982.875 126 129 138
254.943 -5.879 982.337 131 131 139
254.943 -5.379 981.971 132 131 137
254.943 -4.879 981.715 136 135 137
254.943 -4.379 981.454 137 133 136
255.443 -6.879 984.096 155 168 180
255.443 -6.379 983.003 135 135 147
255.443 -5.879 982.434 133 131 141
255.443 -5.379 982.117 128 129 134
255.443 -4.879 981.805 134 134 136
255.443 -4.379 981.478 139 135 139
255.943 -6.879 984.121 160 171 187
255.943 -6.379 983.070 134 137 149
255.943 -5.879 982.503 126 127 136
255.943 -5.379 982.186 132 133 137
255.943 -4.879 981.831 143 142 142
255.943 -4.379 981.478 145 139 141
256.443 -6.879 983.849 147 159 173
256.443 -6.379 983.022 117 122 133
256.443 -5.879 982.521 128 132 140
256.443 -5.379 982.145 142 143 147
256.443 -4.879 981.767 155 152 152
256.443 -4.379 981.452 168 161 158
256.443 -3.879 981.265 184 172 166
256.943 -7.379 984.162 140 160 177
256.943 -6.879 983.315 125 137 149
256.943 -6.379 982.763 116 124 133
256.943 -5.879 982.352 127 134 141
256.943 -5.379 981.940 142 144 149
256.943 -4.879 981.661 171 169 168
256.943 -4.379 981.470 205 199 190
256.943 -3.879 981.291 215 204 195
257.443 -7.379 983.459 123 136 151
257.443 -6.879 982.890 132 141 152
257.443 -6.379 982.486 120 127 133
257.443 -5.879 982.130 125 129 133
257.443 -5.379 981.765 143 146 151
257.443 -4.879 981.577 166 162 164
257.443 -4.379 981.475 208 196 188
257.443 -3.879 981.327 215 202 188
257.943 -7.879 983.565 135 142 154
257.943 -7.379 983.031 124 132 142
257.943 -6.879 982.657 136 144 155
257.943 -6.379 982.338 128 136 144
257.943 -5.879 982.008 120 126 132
257.943 -5.379 981.715 138 141 146
257.943 -4.879 981.560 148 144 146
257.943 -4.379 981.431 190 177 171
258.443 -8.879 984.184 176 173 178
258.443 -8.379 983.550 177 174 176
258.443 -7.879 983.191 169 166 168
258.443 -7.379 982.863 131 132 137
258.443 -6.879 982.504 134 140 150
258.443 -6.379 982.242 136 145 155
258.443 -5.879 981.997 120 126 134
258.443 -5.379 981.718 137 137 142
258.443 -4.879 981.553 141 134 134
258.943 -9.379 983.985 189 181 178
258.943 -8.879 983.326 192 181 176
258.943 -8.379 982.996 197 187 178
258.943 -7.879 982.823 198 187 182
258.943 -7.379 982.625 168 164 162
258.943 -6.879 982.360 139 141 146
258.943 -6.379 982.198 139 146 156
258.943 -5.879 981.983 123 126 135
258.943 -5.379 981.707 135 135 137
259.443 -9.879 983.708 198 187 179
259.443 -9.379 983.077 201 189 179
259.443 -8.879 982.709 208 195 182
259.443 -8.379 982.589 212 198 184
259.443 -7.879 982.472 211 199 189
259.443 -7.379 982.361 199 190 185
259.443 -6.879 982.249 152 150 151
259.443 -6.379 982.156 139 138 145
259.443 -5.879 981.940 133 133 138
259.443 -5.379 981.699 133 131 134
259.943 -9.879 982.846 211 196 185
259.943 -9.379 982.523 216 199 186
259.943 -8.879 982.419 219 203 189
259.943 -8.379 982.357 217 204 188
259.943 -7.879 982.270 214 202 191
259.943 -7.379 982.195 211 200 194
259.943 -6.879 982.149 179 170 167
259.943 -6.379 982.091 145 139 140
260.443 -9.879 982.235 218 202 188
260.443 -9.379 982.178 220 203 190
260.443 -8.879 982.127 220 206 190
251.943 -19.379 984.641 238 239 240
251.943 -18.879 984.721 234 239 244
252.443 -20.379 984.273 198 188 181
252.443 -19.879 984.658 179 172 170
252.443 -19.379 984.940 161 161 163
252.443 -18.879 985.043 157 160 167
252.943 -20.879 984.414 198 187 182
252.943 -20.379 984.715 192 184 178
252.943 -19.879 985.114 173 168 166
252.943 -19.379 985.300 146 147 151
252.943 -18.879 985.345 140 148 156
253.443 -21.879 984.243 198 192 186
253.443 -21.379 984.689 194 189 187
253.443 -20.879 985.065 187 184 185
253.443 -20.379 985.291 180 179 182
253.443 -19.879 985.599 167 170 175
253.443 -19.379 985.745 157 168 176
253.443 -18.879 985.748 168 184 196
253.943 -22.879 984.314 200 193 185
253.943 -22.379 984.674 194 191 185
253.943 -21.879 985.393 181 181 178
253.943 -21.379 985.559 179 180 184
253.943 -20.879 985.661 179 184 189
253.943 -20.379 985.840 185 194 204
253.943 -19.879 985.980 198 212 222
253.943 -19.379 986.052 209 226 242
253.943 -18.879 986.092 203 228 244
254.443 -23.379 984.714 189 190 187
254.443 -22.879 985.109 183 185 188
254.443 -22.379 985.560 179 186 192
254.443 -21.879 986.060 180 191 201
254.443 -21.379 986.137 188 204 214
254.443 -20.879 986.098 203 222 234
254.443 -20.379 986.214 213 234 247
254.443 -19.879 986.282 208 235 248
254.443 -19.379 986.327 197 230 244
254.443 -18.879 986.357 186 223 240
254.943 -24.379 984.254 198 198 196
254.943 -23.879 984.973 184 192 196
254.943 -23.379 985.390 180 193 200
254.943 -22.879 985.607 184 201 211
254.943 -22.379 986.071 197 218 233
254.943 -21.879 986.223 201 227 243
254.943 -21.379 986.237 200 231 246
254.943 -20.879 986.311 195 227 245
254.943 -20.379 986.422 191 226 247
254.943 -19.879 986.474 179 219 239
254.943 -19.379 986.542 172 216 238
254.943 -18.879 986.561 167 214 238
255.443 -24.879 984.679 195 199 202
255.443 -24.379 985.140 183 192 198
255.443 -23.879 985.567 184 203 215
255.443 -23.379 985.845 200 225 239
255.443 -22.879 986.043 202 232 249
255.443 -22.379 986.255 192 226 247
255.443 -21.879 986.375 186 225 247
255.443 -21.379 986.395 181 221 243
255.443 -20.879 986.450 175 219 242
255.443 -20.379 986.526 169 215 240
255.443 -19.879 986.575 164 214 238
255.443 -19.379 986.668 160 213 239
255.443 -18.879 986.733 157 213 240
255.943 -25.379 984.596 193 200 206
255.943 -24.879 985.146 189 207 218
255.943 -24.379 985.558 191 214 228
255.943 -23.879 985.849 193 223 242
255.943 -23.379 986.052 191 225 244
255.943 -22.879 986.228 181 220 241
255.943 -22.379 986.422 169 213 237
255.943 -21.879 986.535 168 215 239
255.943 -21.379 986.559 167 214 237
255.943 -20.879 986.576 168 216 240
255.943 -20.379 986.633 166 215 240
255.943 -19.879 986.733 160 214 240
255.943 -19.379 986.776 157 213 238
255.943 -18.879 986.838 156 213 240
256.443 -25.379 984.939 193 211 222
256.443 -24.879 985.457 192 221 238
256.443 -24.379 985.809 184 222 243
256.443 -23.879 986.011 176 216 239
256.443 -23.379 986.195 170 214 237
256.443 -22.879 986.396 166 214 239
256.443 -22.379 986.533 154 206 233
256.443 -21.879 986.583 158 211 238
256.443 -21.379 986.618 161 212 240
256.443 -20.879 986.663 164 215 242
256.443 -20.379 986.765 164 215 243
256.443 -19.879 986.862 160 214 241
256.443 -19.379 986.890 158 214 240
256.443 -18.879 986.893 156 212 239
256.943 -25.879 984.193 195 206 216
256.943 -25.379 985.156 197 219 237
256.943 -24.879 985.624 179 215 236
256.943 -24.379 985.969 169 215 239
256.943 -23.879 986.121 166 215 240
256.943 -23.379 986.296 160 214 242
256.943 -22.879 986.481 157 214 243
256.943 -22.379 986.586 150 209 239
256.943 -21.879 986.622 151 209 241
256.943 -21.379 986.673 157 212 244
256.943 -20.879 986.730 160 213 244
256.943 -20.379 986.850 162 216 247
256.943 -19.879 986.907 159 214 244
256.943 -19.379 986.929 158 214 244
256.943 -18.879 986.932 157 213 242
257.443 -25.879 984.437 206 225 236
257.443 -25.379 985.138 186 217 236
257.443 -24.879 985.684 170 214 237
257.443 -24.379 986.033 163 216 241
257.443 -23.879 986.212 161 215 243
257.443 -23.379 986.390 161 215 243
257.443 -22.879 986.505 158 214 244
257.443 -22.379 986.620 153 212 243
257.443 -21.879 986.675 150 207 237
257.443 -21.379 986.724 156 211 241
257.443 -20.879 986.760 157 212 242
257.443 -20.379 986.848 163 217 245
257.443 -19.879 986.914 166 217 246
257.443 -19.379 986.928 168 217 247
257.443 -18.879 986.912 168 219 247
257.943 -25.879 984.355 207 228 238
257.943 -25.379 984.991 189 221 239
257.943 -24.879 985.722 170 214 236
257.943 -24.379 986.049 164 215 239
257.943 -23.879 986.277 162 216 244
257.943 -23.379 986.447 161 215 243
257.943 -22.879 986.522 158 214 244
257.943 -22.379 986.656 156 213 243
257.943 -21.879 986.712 153 210 240
257.943 -21.379 986.756 156 211 242
257.943 -20.879 986.765 159 214 244
257.943 -20.379 986.836 163 217 245
257.943 -19.879 986.902 171 222 251
257.943 -19.379 986.890 169 220 250
257.943 -18.879 986.859 164 218 246
258.443 -25.379 984.880 193 224 241
258.443 -24.879 985.600 174 216 239
258.443 -24.379 985.985 164 215 239
258.443 -23.879 986.297 162 216 244
258.443 -23.379 986.464 162 215 246
258.443 -22.879 986.524 158 213 243
258.443 -22.379 986.657 157 213 244
258.443 -21.879 986.718 158 214 245
258.443 -21.379 986.744 158 213 244
258.443 -20.879 986.711 158 213 244
258.443 -20.379 986.746 159 213 243
258.443 -19.879 986.767 160 214 244
258.443 -19.379 986.727 158 213 244
258.443 -18.879 986.712 156 212 242
258.943 -25.379 984.600 197 224 240
258.943 -24.879 985.399 180 219 241
258.943 -24.379 985.901 168 214 239
258.943 -23.879 986.274 161 214 243
258.943 -23.379 986.461 160 213 244
258.943 -22.879 986.525 158 211 242
258.943 -22.379 986.601 158 211 242
258.943 -21.879 986.652 156 211 242
258.943 -21.379 986.649 154 209 240
258.943 -20.879 986.609 155 211 241
258.943 -20.379 986.598 154 211 241
258.943 -19.879 986.564 155 212 242
258.943 -19.379 986.516 153 210 240
258.943 -18.879 986.503 154 211 241
259.443 -25.379 984.336 202 227 241
259.443 -24.879 985.286 185 222 242
259.443 -24.379 985.689 167 211 237
259.443 -23.879 986.124 161 212 242
259.443 -23.379 986.412 157 210 241
259.443 -22.879 986.501 156 208 239
259.443 -22.379 986.554 156 209 240
259.443 -21.879 986.573 156 209 241
259.443 -21.379 986.539 151 206 237
259.443 -20.879 986.524 150 207 239
259.443 -20.379 986.506 151 210 240
259.443 -19.879 986.385 153 212 242
259.443 -19.379 986.329 151 210 240
259.443 -18.879 986.258 154 210 240
259.943 -24.879 985.124 190 224 245
259.943 -24.379 985.464 168 212 238
259.943 -23.879 985.952 157 208 239
259.943 -23.379 986.296 155 208 239
259.943 -22.879 986.447 160 211 241
259.943 -22.379 986.511 162 213 244
259.943 -21.879 986.514 159 212 243
259.943 -21.379 986.479 152 207 238
259.943 -20.879 986.395 148 205 237
259.943 -20.379 986.309 150 209 241
259.943 -19.879 986.180 152 211 241
259.943 -19.379 986.127 152 211 240
259.943 -18.879 986.031 155 210 238
260.443 -24.879 984.687 194 224 243
260.443 -24.379 985.296 169 214 239
260.443 -23.879 985.831 153 209 239
260.443 -23.379 986.137 153 209 239
260.443 -22.879 986.312 160 211 241
260.443 -22.379 986.382 166 215 245
260.443 -21.879 986.385 163 215 246
260.443 -21.379 986.334 154 209 240
260.443 -20.879 986.220 146 205 238
260.443 -20.379 986.102 150 211 242
260.443 -19.879 986.038 153 210 240
260.443 -19.379 985.987 155 207 235
260.443 -18.879 985.918 159 204 230
260.943 -24.379 984.829 176 215 239
260.943 -23.879 985.461 155 212 237
260.943 -23.379 985.893 155 211 238
260.943 -22.879 986.130 162 212 241
260.943 -22.379 986.201 168 214 242
260.943 -21.879 986.207 168 215 243
260.943 -21.379 986.122 162 211 241
260.943 -20.879 986.047 154 205 236
260.943 -20.379 985.953 151 199 229
260.943 -19.879 985.907 156 200 228
260.943 -19.379 985.779 153 190 214
260.943 -18.879 985.688 153 183 204
261.443 -23.879 984.856 168 212 236
261.443 -23.379 985.391 161 208 234
261.443 -22.879 985.854 164 211 235
261.443 -22.379 985.965 167 212 237
261.443 -21.879 985.999 171 210 236
261.443 -21.379 985.814 167 201 227
261.443 -20.879 985.707 153 184 209
261.443 -20.379 985.631 149 176 199
261.443 -19.879 985.579 151 172 193
261.443 -19.379 985.421 157 171 186
261.443 -18.879 985.191 155 164 175
261.943 -23.379 984.660 167 202 226
261.943 -22.879 985.226 159 200 222
261.943 -22.379 985.379 153 189 211
261.943 -21.879 985.487 149 179 198
261.943 -21.379 985.332 151 169 189
261.943 -20.879 985.100 150 162 178
261.943 -20.379 984.981 157 164 177
261.943 -19.879 984.740 159 162 171
261.943 -19.379 984.478 152 150 155
262.443 -22.879 984.313 149 177 196
262.443 -22.379 984.508 146 171 188
262.443 -21.879 984.428 143 160 173
262.443 -21.379 984.355 146 150 160
250.443 -13.379 984.283 134 132 138
250.443 -12.879 984.455 144 145 151
250.443 -12.379 984.604 155 157 164
250.443 -11.879 984.746 158 161 170
250.443 -11.379 984.894 161 168 175
250.443 -10.879 985.001 168 176 184
250.443 -10.379 985.029 173 184 193
250.943 -15.879 984.366 244 246 251
250.943 -15.379 984.334 239 243 247
250.943 -14.879 984.456 199 200 205
250.943 -14.379 984.579 161 161 170
250.943 -13.879 984.692 133 136 145
250.943 -13.379 984.918 132 139 149
250.943 -12.879 985.180 143 154 164
250.943 -12.379 985.383 154 168 181
250.943 -11.879 985.502 162 179 191
250.943 -11.379 985.591 174 192 206
250.943 -10.879 985.680 184 205 220
250.943 -10.379 985.668 199 223 241
251.443 -16.379 984.637 239 244 250
251.443 -15.879 984.741 237 244 249
251.443 -15.379 984.821 224 231 237
251.443 -14.879 984.976 187 193 200
251.443 -14.379 985.053 168 175 183
251.443 -13.879 985.266 155 164 175
251.443 -13.379 985.601 159 173 185
251.443 -12.879 985.797 174 193 206
251.443 -12.379 985.949 186 209 223
251.443 -11.879 986.063 199 223 239
251.443 -11.379 986.129 201 228 245
251.443 -10.879 986.167 190 223 242
251.443 -10.379 986.110 186 220 241
251.943 -18.379 984.818 213 220 228
251.943 -17.879 984.886 184 187 199
251.943 -17.379 984.914 158 162 172
251.943 -16.879 984.926 183 189 199
251.943 -16.379 984.958 195 203 213
251.943 -15.879 985.171 189 199 209
251.943 -15.379 985.358 171 184 194
251.943 -14.879 985.439 163 175 187
251.943 -14.379 985.538 176 192 205
251.943 -13.879 985.790 194 213 227
251.943 -13.379 986.079 204 227 241
251.943 -12.879 986.164 203 233 246
251.943 -12.379 986.236 199 231 248
251.943 -11.879 986.346 195 228 248
251.943 -11.379 986.403 184 219 241
251.943 -10.879 986.435 171 216 237
251.943 -10.379 986.409 168 211 236
252.443 -18.379 985.080 146 153 163
252.443 -17.879 985.203 143 150 162
252.443 -17.379 985.249 146 154 168
252.443 -16.879 985.306 152 163 176
252.443 -16.379 985.372 159 173 188
252.443 -15.879 985.628 168 185 200
252.443 -15.379 985.769 184 204 219
252.443 -14.879 985.865 195 219 235
252.443 -14.379 985.973 200 228 244
252.443 -13.879 986.164 197 227 245
252.443 -13.379 986.324 191 225 244
252.443 -12.879 986.412 184 222 242
252.443 -12.379 986.461 177 216 239
252.443 -11.879 986.514 174 214 238
252.443 -11.379 986.555 171 213 239
252.443 -10.879 986.572 166 212 238
252.443 -10.379 986.549 164 211 240
252.943 -18.379 985.378 141 154 163
252.943 -17.879 985.611 152 166 176
252.943 -17.379 985.706 168 185 201
252.943 -16.879 985.768 187 207 224
252.943 -16.379 985.825 197 220 238
252.943 -15.879 986.024 199 226 246
252.943 -15.379 986.162 196 227 248
252.943 -14.879 986.239 188 223 244
252.943 -14.379 986.287 184 221 244
252.943 -13.879 986.398 179 220 242
252.943 -13.379 986.504 171 213 237
252.943 -12.879 986.583 168 212 235
252.943 -12.379 986.622 168 211 237
252.943 -11.879 986.659 169 213 240
252.943 -11.379 986.687 171 212 242
252.943 -10.879 986.681 168 211 239
252.943 -10.379 986.644 166 210 240
253.443 -18.379 985.805 190 212 226
253.443 -17.879 985.948 199 224 239
253.443 -17.379 986.054 203 232 247
253.443 -16.879 986.086 204 234 251
253.443 -16.379 986.164 196 230 248
253.443 -15.879 986.305 183 219 241
253.443 -15.379 986.431 174 214 238
253.443 -14.879 986.461 168 212 236
253.443 -14.379 986.489 164 211 236
253.443 -13.879 986.567 167 212 238
253.443 -13.379 986.646 166 212 238
253.443 -12.879 986.685 168 214 240
253.443 -12.379 986.717 168 212 239
253.443 -11.879 986.754 174 215 243
253.443 -11.379 986.781 177 216 245
253.443 -10.879 986.785 171 213 239
253.443 -10.379 986.766 168 210 240
253.943 -18.379 986.158 204 235 253
253.943 -17.879 986.226 199 233 250
253.943 -17.379 986.322 185 221 240
253.943 -16.879 986.347 184 222 241
253.943 -16.379 986.434 177 218 240
253.943 -15.879 986.539 170 213 237
253.943 -15.379 986.579 166 211 237
253.943 -14.879 986.586 161 209 237
253.943 -14.379 986.609 162 212 241
253.943 -13.879 986.673 160 211 240
253.943 -13.379 986.737 162 213 240
253.943 -12.879 986.767 162 212 239
253.943 -12.379 986.801 168 213 240
253.943 -11.879 986.821 179 219 246
253.943 -11.379 986.849 188 228 253
253.943 -10.879 986.867 179 221 244
253.943 -10.379 986.863 170 214 240
254.443 -18.379 986.388 180 220 240
254.443 -17.879 986.456 175 216 237
254.443 -17.379 986.544 169 213 237
254.443 -16.879 986.599 168 213 238
254.443 -16.379 986.638 170 216 242
254.443 -15.879 986.703 167 213 240
254.443 -15.379 986.720 163 211 239
254.443 -14.879 986.750 161 210 240
254.443 -14.379 986.803 161 210 241
254.443 -13.879 986.843 161 212 243
254.443 -13.379 986.884 159 212 243
254.443 -12.879 986.895 158 214 240
254.443 -12.379 986.915 166 213 239
254.443 -11.879 986.915 176 217 242
254.443 -11.379 986.929 193 232 253
254.443 -10.879 986.934 190 232 251
254.443 -10.379 986.913 179 222 245
254.943 -18.379 986.574 163 213 240
254.943 -17.879 986.599 162 213 240
254.943 -17.379 986.670 164 212 240
254.943 -16.879 986.747 166 212 240
254.943 -16.379 986.777 167 216 243
254.943 -15.879 986.802 166 215 242
254.943 -15.379 986.841 163 213 240
254.943 -14.879 986.883 161 210 240
254.943 -14.379 986.943 162 210 238
254.943 -13.879 986.981 162 212 241
254.943 -13.379 986.990 159 213 241
254.943 -12.879 986.975 159 214 241
254.943 -12.379 986.982 166 216 244
254.943 -11.879 986.984 173 218 247
254.943 -11.379 986.975 183 225 250
254.943 -10.879 986.951 181 223 247
254.943 -10.379 986.913 172 218 243
255.443 -18.379 986.737 157 213 243
255.443 -17.879 986.752 158 214 244
255.443 -17.379 986.786 160 213 244
255.443 -16.879 986.836 161 213 244
255.443 -16.379 986.897 163 214 244
255.443 -15.879 986.919 166 216 245
255.443 -15.379 986.970 164 213 243
255.443 -14.879 986.971 162 212 239
255.443 -14.379 986.978 161 209 236
255.443 -13.879 986.993 162 213 240
255.443 -13.379 986.986 159 213 241
255.443 -12.879 986.972 163 218 248
255.443 -12.379 986.963 163 217 247
255.443 -11.879 986.954 167 215 245
255.443 -11.379 986.930 162 208 238
255.443 -10.879 986.880 164 210 240
255.443 -10.379 986.809 162 212 242
255.943 -18.379 986.848 156 213 241
255.943 -17.879 986.861 157 213 242
255.943 -17.379 986.874 159 214 244
255.943 -16.879 986.941 159 213 244
255.943 -16.379 987.016 161 214 245
255.943 -15.879 987.028 167 217 246
255.943 -15.379 987.027 167 217 246
255.943 -14.879 986.999 168 217 244
255.943 -14.379 986.979 170 221 246
255.943 -13.879 986.968 168 220 247
255.943 -13.379 986.953 163 218 246
255.943 -12.879 986.933 159 215 245
255.943 -12.379 986.885 158 214 245
255.943 -11.879 986.800 157 211 242
255.943 -11.379 986.766 153 204 235
255.943 -10.879 986.713 158 207 239
255.943 -10.379 986.628 161 211 244
256.443 -18.379 986.902 157 212 240
256.443 -17.879 986.923 158 212 242
256.443 -17.379 986.950 159 213 242
256.443 -16.879 987.002 162 215 244
256.443 -16.379 987.042 167 218 247
256.443 -15.879 987.038 171 222 251
256.443 -15.379 987.030 172 223 252
256.443 -14.879 987.002 170 221 248
256.443 -14.379 986.961 167 217 244
256.443 -13.879 986.918 161 215 242
256.443 -13.379 986.900 157 212 242
256.443 -12.879 986.856 155 212 242
256.443 -12.379 986.753 155 212 242
256.443 -11.879 986.642 154 209 240
256.443 -11.379 986.608 151 206 237
256.443 -10.879 986.566 152 204 236
256.443 -10.379 986.461 159 210 242
256.943 -18.379 986.946 159 214 243
256.943 -17.879 986.970 160 213 243
256.943 -17.379 986.993 166 216 244
256.943 -16.879 987.000 169 220 248
256.943 -16.379 986.990 168 219 246
256.943 -15.879 986.978 166 216 243
256.943 -15.379 986.976 163 214 241
256.943 -14.879 986.956 161 212 241
256.943 -14.379 986.893 158 212 240
256.943 -13.879 986.766 156 211 241
256.943 -13.379 986.736 155 212 242
256.943 -12.879 986.700 154 211 242
256.943 -12.379 986.621 155 211 242
256.943 -11.879 986.578 154 209 240
256.943 -11.379 986.512 153 208 239
256.943 -10.879 986.391 151 203 236
256.943 -10.379 986.255 157 209 240
257.443 -18.379 986.910 167 220 246
257.443 -17.879 986.930 163 219 245
257.443 -17.379 986.956 162 216 246
257.443 -16.879 986.945 160 213 244
257.443 -16.379 986.876 158 211 243
257.443 -15.879 986.837 158 211 242
257.443 -15.379 986.809 156 210 241
257.443 -14.879 986.725 156 210 243
257.443 -14.379 986.660 157 210 241
257.443 -13.879 986.553 157 208 239
257.443 -13.379 986.542 158 209 240
257.443 -12.879 986.530 155 211 241
257.443 -12.379 986.470 153 212 242
257.443 -11.879 986.398 154 209 240
257.443 -11.379 986.293 156 206 238
257.443 -10.879 986.123 155 202 237
257.443 -10.379 986.004 159 202 233
257.943 -18.379 986.824 158 214 242
257.943 -17.879 986.824 155 212 240
257.943 -17.379 986.842 154 210 239
257.943 -16.879 986.803 154 210 240
257.943 -16.379 986.716 154 210 240
257.943 -15.879 986.635 155 211 241
257.943 -15.379 986.588 154 210 241
257.943 -14.879 986.474 154 210 241
257.943 -14.379 986.418 154 209 240
257.943 -13.879 986.413 154 207 239
257.943 -13.379 986.401 158 209 240
257.943 -12.879 986.330 156 209 239
257.943 -12.379 986.210 157 211 237
257.943 -11.879 986.105 159 207 235
257.943 -11.379 986.013 161 202 232
257.943 -10.879 985.894 158 192 220
257.943 -10.379 985.749 151 181 207
258.443 -18.379 986.683 154 211 240
258.443 -17.879 986.687 152 210 240
258.443 -17.379 986.666 150 210 239
258.443 -16.879 986.559 152 211 240
258.443 -16.379 986.512 152 211 240
258.443 -15.879 986.445 152 210 240
258.443 -15.379 986.363 154 211 241
258.443 -14.879 986.263 153 210 240
258.443 -14.379 986.202 156 210 241
258.443 -13.879 986.190 159 208 240
258.443 -13.379 986.168 163 207 236
258.443 -12.879 986.060 162 204 230
258.443 -12.379 985.885 160 200 223
258.443 -11.879 985.781 156 189 211
258.443 -11.379 985.638 157 181 205
258.443 -10.879 985.491 159 176 194
258.443 -10.379 985.331 163 176 191
258.943 -18.379 986.493 152 209 239
258.943 -17.879 986.423 151 209 239
258.943 -17.379 986.354 148 211 242
258.943 -16.879 986.254 152 212 243
258.943 -16.379 986.235 153 211 241
258.943 -15.879 986.212 154 210 239
258.943 -15.379 986.130 156 209 240
258.943 -14.879 986.039 157 209 240
258.943 -14.379 985.977 163 204 233
258.943 -13.879 985.920 162 195 223
258.943 -13.379 985.841 160 187 212
258.943 -12.879 985.742 161 184 205
258.943 -12.379 985.520 161 179 195
258.943 -11.879 985.297 168 177 193
258.943 -11.379 985.074 169 175 187
258.943 -10.879 984.935 171 177 182
258.943 -10.379 984.796 176 179 181
259.443 -18.379 986.251 154 208 239
259.443 -17.879 986.126 156 208 239
259.443 -17.379 986.063 156 209 240
259.443 -16.879 986.030 157 210 239
259.443 -16.379 985.993 161 210 237
259.443 -15.879 985.908 162 204 230
259.443 -15.379 985.848 159 195 219
259.443 -14.879 985.768 157 192 214
259.443 -14.379 985.700 158 184 201
259.443 -13.879 985.625 164 180 196
259.443 -13.379 985.471 169 177 191
259.443 -12.879 985.275 173 177 188
259.443 -12.379 985.034 177 179 186
259.443 -11.879 984.805 184 179 185
259.443 -11.379 984.634 187 179 182
259.443 -10.879 984.465 186 184 176
259.943 -18.379 985.988 159 209 238
259.943 -17.879 985.904 161 207 235
259.943 -17.379 985.860 162 204 229
259.943 -16.879 985.775 166 202 227
259.943 -16.379 985.711 163 195 216
259.943 -15.879 985.506 163 187 206
259.943 -15.379 985.392 163 181 195
259.943 -14.879 985.240 166 179 191
259.943 -14.379 985.156 167 177 183
259.943 -13.879 985.072 173 177 181
259.943 -13.379 984.940 180 175 179
259.943 -12.879 984.767 185 181 181
259.943 -12.379 984.535 190 186 183
259.943 -11.879 984.219 194 187 181
260.443 -18.379 985.763 157 197 220
260.443 -17.879 985.636 151 186 208
260.443 -17.379 985.458 153 179 198
260.443 -16.879 985.268 159 180 198
260.443 -16.379 985.122 167 180 195
260.443 -15.879 984.917 170 177 188
260.443 -15.379 984.808 175 179 185
260.443 -14.879 984.691 180 179 183
260.443 -14.379 984.562 183 183 180
260.443 -13.879 984.385 186 185 181
260.443 -13.379 984.273 191 186 182
260.943 -18.379 985.464 152 173 192
260.943 -17.879 985.133 159 175 190
260.943 -17.379 984.727 167 176 186
260.943 -16.879 984.549 168 173 182
260.943 -16.379 984.232 177 179 183
260.943 -15.879 984.220 184 181 181
261.443 -18.379 984.763 163 168 175
250.443 -9.879 985.009 179 191 200
250.443 -9.379 984.642 163 174 184
250.943 -9.879 985.647 199 225 244
250.943 -9.379 985.367 186 212 232
250.943 -8.879 984.836 146 167 183
250.943 -8.379 984.212 140 150 165
251.443 -9.879 986.083 180 217 239
251.443 -9.379 985.898 179 216 237
251.443 -8.879 985.530 163 193 211
251.443 -8.379 984.946 146 164 181
251.943 -9.879 986.368 167 212 236
251.943 -9.379 986.245 168 213 236
251.943 -8.879 985.969 170 207 227
251.943 -8.379 985.406 155 184 200
251.943 -7.879 984.501 130 147 161
252.443 -9.879 986.521 161 210 239
252.443 -9.379 986.439 163 211 237
252.443 -8.879 986.224 173 214 236
252.443 -8.379 985.763 163 192 213
252.443 -7.879 984.919 145 164 179
252.943 -9.879 986.605 161 207 240
252.943 -9.379 986.561 164 211 239
252.943 -8.879 986.427 171 213 238
252.943 -8.379 986.116 170 202 223
252.943 -7.879 985.239 157 179 194
253.443 -9.879 986.717 161 209 239
253.443 -9.379 986.669 160 210 239
253.443 -8.879 986.561 168 212 236
253.443 -8.379 986.346 177 211 234
253.443 -7.879 985.453 166 190 207
253.443 -7.379 984.228 141 158 173
253.943 -9.879 986.806 166 213 241
253.943 -9.379 986.727 167 215 242
253.943 -8.879 986.620 172 219 242
253.943 -8.379 986.443 179 218 241
253.943 -7.879 985.577 168 195 212
253.943 -7.379 984.393 152 169 183
254.443 -9.879 986.842 172 220 244
254.443 -9.379 986.747 170 218 245
254.443 -8.879 986.634 170 217 243
254.443 -8.379 986.448 172 217 241
254.443 -7.879 985.854 173 204 223
254.443 -7.379 984.782 161 181 195
254.943 -9.879 986.826 164 214 242
254.943 -9.379 986.708 161 213 242
254.943 -8.879 986.588 159 211 239
254.943 -8.379 986.402 162 212 239
254.943 -7.879 986.132 172 213 234
254.943 -7.379 985.262 161 188 205
255.443 -9.879 986.700 158 211 242
255.443 -9.379 986.600 155 210 241
255.443 -8.879 986.486 156 211 241
255.443 -8.379 986.303 156 211 239
255.443 -7.879 986.042 166 213 235
255.443 -7.379 985.341 164 195 213
255.943 -9.879 986.526 157 210 242
255.943 -9.379 986.428 156 211 242
255.943 -8.879 986.283 155 210 240
255.943 -8.379 986.140 155 209 239
255.943 -7.879 985.861 167 212 237
255.943 -7.379 985.205 164 194 215
256.443 -9.879 986.337 158 210 242
256.443 -9.379 986.216 158 209 239
256.443 -8.879 986.063 159 209 238
256.443 -8.379 985.895 160 209 237
256.443 -7.879 985.578 168 206 230
256.443 -7.379 984.842 164 189 208
256.943 -9.879 986.147 161 210 240
256.943 -9.379 986.031 162 209 238
256.943 -8.879 985.852 159 204 233
256.943 -8.379 985.559 156 202 227
256.943 -7.879 985.027 157 189 213
257.443 -9.879 985.889 161 198 226
257.443 -9.379 985.737 158 191 216
257.443 -8.879 985.506 152 183 205
257.443 -8.379 985.031 146 175 194
257.443 -7.879 984.248 142 160 179
257.943 -9.879 985.523 151 174 197
257.943 -9.379 985.294 155 173 193
257.943 -8.879 984.949 155 169 185
257.943 -8.379 984.250 148 161 174
258.443 -9.879 985.133 163 170 183
258.443 -9.379 984.777 173 174 183
258.943 -9.879 984.561 177 173 173
