179.943 30.621 982.281 211 204 188
179.943 31.121 982.359 213 206 190
180.443 29.621 982.212 206 199 182
180.443 30.121 982.258 206 199 182
180.443 30.621 982.324 207 199 183
180.443 31.121 982.388 211 203 188
180.943 29.121 982.274 208 201 183
180.943 29.621 982.301 208 199 182
180.943 30.121 982.345 206 197 180
180.943 30.621 982.380 203 196 178
180.943 31.121 982.431 206 197 182
181.443 27.621 982.108 214 205 191
181.443 28.121 982.190 215 207 195
181.443 28.621 982.299 206 201 188
181.443 29.121 982.350 197 193 177
181.443 29.621 982.420 192 186 170
181.443 30.121 982.476 189 181 163
181.443 30.621 982.457 189 183 167
181.443 31.121 982.461 200 191 176
181.943 26.621 982.098 211 203 192
181.943 27.121 982.161 213 205 197
181.943 27.621 982.236 210 205 199
181.943 28.121 982.330 210 209 205
181.943 28.621 982.451 196 201 197
181.943 29.121 982.520 176 180 176
181.943 29.621 982.602 168 170 163
181.943 30.121 982.590 166 164 160
181.943 30.621 982.523 166 162 154
181.943 31.121 982.479 177 170 160
182.443 26.621 982.193 212 204 196
182.443 27.121 982.344 209 206 204
182.443 27.621 982.453 202 205 210
182.443 28.121 982.526 193 204 212
182.443 28.621 982.658 175 193 205
182.443 29.121 982.739 156 176 189
182.443 29.621 982.749 156 173 185
182.443 30.121 982.683 150 163 173
182.443 30.621 982.589 132 140 141
182.443 31.121 982.519 135 134 133
182.443 31.621 982.474 181 177 168
182.943 26.621 982.248 214 209 202
182.943 27.121 982.475 207 209 211
182.943 27.621 982.613 195 212 221
182.943 28.121 982.719 175 200 217
182.943 28.621 982.805 161 197 219
182.943 29.121 982.845 163 202 227
182.943 29.621 982.833 168 205 228
182.943 30.121 982.763 167 197 219
182.943 30.621 982.633 128 145 158
182.943 31.121 982.565 112 119 125
182.943 31.621 982.489 158 158 154
183.443 26.621 982.307 215 210 205
183.443 27.121 982.483 205 211 212
183.443 27.621 982.658 189 211 223
183.443 28.121 982.799 176 212 228
183.443 28.621 982.870 164 212 236
183.443 29.121 982.908 161 213 240
183.443 29.621 982.911 167 215 241
183.443 30.121 982.847 164 209 235
183.443 30.621 982.674 130 153 173
183.443 31.121 982.599 106 118 130
183.443 31.621 982.523 145 146 146
183.443 32.121 982.508 208 205 195
183.943 26.621 982.380 216 208 200
183.943 27.121 982.510 208 209 212
183.943 27.621 982.695 191 212 225
183.943 28.121 982.842 175 212 233
183.943 28.621 982.922 167 215 241
183.943 29.121 982.982 166 216 241
183.943 29.621 982.986 168 216 241
183.943 30.121 982.940 169 214 238
183.943 30.621 982.755 134 164 185
183.943 31.121 982.639 104 119 133
183.943 31.621 982.573 136 137 140
183.943 32.121 982.542 200 196 187
184.443 26.621 982.425 216 207 199
184.443 27.121 982.565 208 210 210
184.443 27.621 982.712 194 213 224
184.443 28.121 982.868 175 213 232
184.443 28.621 982.972 166 214 238
184.443 29.121 983.027 164 215 239
184.443 29.621 983.033 168 216 239
184.443 30.121 983.002 168 214 239
184.443 30.621 982.836 144 175 197
184.443 31.121 982.689 103 119 132
184.443 31.621 982.619 129 129 134
184.443 32.121 982.570 189 185 178
184.943 26.621 982.423 217 207 198
184.943 27.121 982.603 210 209 207
184.943 27.621 982.733 195 212 222
184.943 28.121 982.911 179 214 231
184.943 28.621 983.020 167 215 238
184.943 29.121 983.059 162 214 237
184.943 29.621 983.055 168 216 238
184.943 30.121 983.011 169 215 240
184.943 30.621 982.900 153 184 208
184.943 31.121 982.748 103 120 136
184.943 31.621 982.643 125 126 131
184.943 32.121 982.591 185 181 174
185.443 26.621 982.402 216 206 196
185.443 27.121 982.608 211 208 206
185.443 27.621 982.750 197 212 217
185.443 28.121 982.937 184 214 230
185.443 28.621 983.055 168 214 237
185.443 29.121 983.090 166 215 238
185.443 29.621 983.081 168 216 238
185.443 30.121 983.035 170 217 243
185.443 30.621 982.961 161 194 219
185.443 31.121 982.785 106 123 141
185.443 31.621 982.647 119 120 126
185.443 32.121 982.596 183 179 172
185.943 26.621 982.365 215 203 193
185.943 27.121 982.579 211 206 201
185.943 27.621 982.706 203 211 215
185.943 28.121 982.890 185 213 227
185.943 28.621 983.056 175 216 238
185.943 29.121 983.115 170 218 240
185.943 29.621 983.114 172 218 241
185.943 30.121 983.077 172 217 243
185.943 30.621 983.010 168 201 227
185.943 31.121 982.789 111 130 149
185.943 31.621 982.648 115 119 126
185.943 32.121 982.606 179 175 171
186.443 26.621 982.300 214 202 189
186.443 27.121 982.510 211 203 198
186.443 27.621 982.645 201 206 209
186.443 28.121 982.822 188 212 226
186.443 28.621 983.033 176 216 237
186.443 29.121 983.118 173 217 240
186.443 29.621 983.131 174 218 241
186.443 30.121 983.102 174 218 243
186.443 30.621 983.031 173 208 236
186.443 31.121 982.783 119 136 157
186.443 31.621 982.656 112 116 123
186.443 32.121 982.624 170 168 162
186.943 26.621 982.235 210 200 189
186.943 27.121 982.434 209 203 197
186.943 27.621 982.614 199 202 205
186.943 28.121 982.806 189 210 223
186.943 28.621 983.025 175 212 235
186.943 29.121 983.108 171 215 239
186.943 29.621 983.129 171 216 240
186.943 30.121 983.094 175 217 241
186.943 30.621 982.997 176 212 237
186.943 31.121 982.776 125 148 171
186.943 31.621 982.679 104 111 124
186.943 32.121 982.637 160 158 157
187.443 27.121 982.399 210 202 194
187.443 27.621 982.614 204 205 206
187.443 28.121 982.841 192 210 224
187.443 28.621 983.027 176 211 234
187.443 29.121 983.099 168 214 238
187.443 29.621 983.118 169 215 238
187.443 30.121 983.050 173 215 241
187.443 30.621 982.956 176 212 238
187.443 31.121 982.772 134 160 182
187.443 31.621 982.696 103 113 128
187.443 32.121 982.635 154 154 156
187.943 27.121 982.410 209 200 191
187.943 27.621 982.623 204 206 205
187.943 28.121 982.841 185 204 217
187.943 28.621 983.003 171 208 231
187.943 29.121 983.083 166 212 236
187.943 29.621 983.098 166 213 238
187.943 30.121 983.035 168 213 239
187.943 30.621 982.949 171 212 237
187.943 31.121 982.775 142 169 193
187.943 31.621 982.698 102 116 132
187.943 32.121 982.614 143 144 148
188.443 27.121 982.405 215 204 193
188.443 27.621 982.613 205 204 204
188.443 28.121 982.810 184 201 214
188.443 28.621 982.972 169 206 227
188.443 29.121 983.067 162 210 234
188.443 29.621 983.085 161 212 237
188.443 30.121 983.059 163 211 239
188.443 30.621 982.973 167 210 236
188.443 31.121 982.785 148 179 205
188.443 31.621 982.699 104 119 136
188.443 32.121 982.598 129 131 137
188.943 27.121 982.377 217 206 195
188.943 27.621 982.569 208 205 204
188.943 28.121 982.780 191 208 218
188.943 28.621 982.949 172 209 231
188.943 29.121 983.067 160 211 234
188.943 29.621 983.092 158 212 238
188.943 30.121 983.086 160 211 239
188.943 30.621 983.001 166 212 238
188.943 31.121 982.797 156 189 217
188.943 31.621 982.700 108 124 146
188.943 32.121 982.612 122 125 134
189.443 27.621 982.515 206 202 198
189.443 28.121 982.719 193 209 219
189.443 28.621 982.923 172 209 228
189.443 29.121 983.077 160 211 235
189.443 29.621 983.122 156 212 238
189.443 30.121 983.117 158 211 240
189.443 30.621 983.029 162 213 239
189.443 31.121 982.816 158 195 222
189.443 31.621 982.710 112 129 153
189.443 32.121 982.634 116 119 129
189.943 27.621 982.492 209 203 199
189.943 28.121 982.635 195 207 215
189.943 28.621 982.912 177 212 230
189.943 29.121 983.092 160 211 234
189.943 29.621 983.162 157 211 238
189.943 30.121 983.148 158 212 239
189.943 30.621 983.066 163 214 240
189.943 31.121 982.872 167 204 232
189.943 31.621 982.745 117 136 158
189.943 32.121 982.635 108 115 125
190.443 27.621 982.492 209 202 196
190.443 28.121 982.599 199 206 209
190.443 28.621 982.918 184 211 226
190.443 29.121 983.109 168 211 235
190.443 29.621 983.183 163 214 240
190.443 30.121 983.165 166 215 239
190.443 30.621 983.090 169 215 244
190.443 31.121 982.978 171 211 237
190.443 31.621 982.797 124 149 171
190.443 32.121 982.633 106 113 127
190.943 27.621 982.486 209 201 195
190.943 28.121 982.613 199 204 207
190.943 28.621 982.915 187 212 226
190.943 29.121 983.102 171 215 238
190.943 29.621 983.175 167 217 244
190.943 30.121 983.165 168 218 243
190.943 30.621 983.094 171 218 246
190.943 31.121 983.041 174 214 239
190.943 31.621 982.814 132 157 181
190.943 32.121 982.646 103 113 128
191.443 27.621 982.464 211 204 197
191.443 28.121 982.617 202 205 205
191.443 28.621 982.881 190 212 225
191.443 29.121 983.060 169 211 234
191.443 29.621 983.136 163 213 239
191.443 30.121 983.139 163 215 238
191.443 30.621 983.093 164 214 240
191.443 31.121 983.047 169 212 239
191.443 31.621 982.795 139 168 193
191.443 32.121 982.658 103 115 131
191.943 27.621 982.412 214 205 195
191.943 28.121 982.588 204 206 205
191.943 28.621 982.815 193 211 224
191.943 29.121 983.005 171 209 231
191.943 29.621 983.089 161 210 237
191.943 30.121 983.109 159 213 238
191.943 30.621 983.089 161 212 240
191.943 31.121 983.047 167 213 239
191.943 31.621 982.787 149 180 206
191.943 32.121 982.663 102 117 135
192.443 27.621 982.319 216 206 197
192.443 28.121 982.523 208 207 205
192.443 28.621 982.748 194 210 220
192.443 29.121 982.961 173 209 230
192.443 29.621 983.059 161 211 237
192.443 30.121 983.091 157 213 238
192.443 30.621 983.081 159 213 240
192.443 31.121 983.043 166 213 243
192.443 31.621 982.807 153 188 216
192.443 32.121 982.683 105 121 143
192.943 28.121 982.474 211 208 205
192.943 28.621 982.693 195 210 219
192.943 29.121 982.917 176 210 232
192.943 29.621 983.032 161 211 238
192.943 30.121 983.080 158 214 238
192.943 30.621 983.074 159 214 244
192.943 31.121 983.039 163 213 243
192.943 31.621 982.837 159 195 225
192.943 32.121 982.717 107 125 147
193.443 28.121 982.461 213 207 201
193.443 28.621 982.643 199 208 212
193.443 29.121 982.874 180 210 227
193.443 29.621 983.018 162 209 234
193.443 30.121 983.077 158 213 240
193.443 30.621 983.070 159 212 243
193.443 31.121 983.027 160 212 239
193.443 31.621 982.852 161 203 228
193.443 32.121 982.737 110 131 156
193.943 28.121 982.459 214 207 201
193.943 28.621 982.610 201 208 212
193.943 29.121 982.848 183 210 227
193.943 29.621 983.028 166 210 234
193.943 30.121 983.091 159 214 239
193.943 30.621 983.088 159 212 243
193.943 31.121 983.027 162 215 241
193.943 31.621 982.859 168 210 235
193.943 32.121 982.753 118 140 163
194.443 27.621 982.193 218 206 194
194.443 28.121 982.466 215 207 199
194.443 28.621 982.613 202 207 210
194.443 29.121 982.851 186 212 227
194.443 29.621 983.029 169 212 236
194.443 30.121 983.113 162 215 243
194.443 30.621 983.128 163 216 247
194.443 31.121 983.051 163 216 244
194.443 31.621 982.901 169 214 239
194.443 32.121 982.793 128 153 179
194.943 28.121 982.486 214 205 196
194.943 28.621 982.635 203 205 207
194.943 29.121 982.860 188 210 225
194.943 29.621 983.025 169 210 235
194.943 30.121 983.112 163 212 241
194.943 30.621 983.147 160 213 244
194.943 31.121 983.077 160 213 240
194.943 31.621 982.958 166 210 237
194.943 32.121 982.837 135 163 190
195.443 28.121 982.483 215 203 193
195.443 28.621 982.641 204 204 205
195.443 29.121 982.847 189 208 222
195.443 29.621 983.015 169 208 232
195.443 30.121 983.093 162 210 237
195.443 30.621 983.144 159 210 240
195.443 31.121 983.098 158 212 238
195.443 31.621 982.992 164 211 238
195.443 32.121 982.871 146 175 204
195.943 28.121 982.440 215 203 192
195.943 28.621 982.613 206 203 202
195.943 29.121 982.834 190 209 221
195.943 29.621 983.010 173 210 232
195.943 30.121 983.087 164 212 238
195.943 30.621 983.138 162 213 243
195.943 31.121 983.104 161 215 241
195.943 31.621 983.013 168 216 241
195.943 32.121 982.918 154 185 213
196.443 28.121 982.390 216 204 193
196.443 28.621 982.573 207 204 200
196.443 29.121 982.841 196 209 220
196.443 29.621 983.023 179 212 233
196.443 30.121 983.097 168 216 240
196.443 30.621 983.138 167 217 245
196.443 31.121 983.107 168 217 244
196.443 31.621 983.020 171 217 244
196.443 32.121 982.950 162 196 223
196.943 28.121 982.360 215 205 193
196.943 28.621 982.555 208 204 200
196.943 29.121 982.859 199 206 214
196.943 29.621 983.037 181 210 230
196.943 30.121 983.107 168 213 238
196.943 30.621 983.144 166 216 239
196.943 31.121 983.113 168 216 240
196.943 31.621 983.009 172 217 243
196.943 32.121 982.945 166 203 230
197.443 28.621 982.527 210 204 198
197.443 29.121 982.819 200 205 212
197.443 29.621 983.019 184 210 228
197.443 30.121 983.089 168 212 236
197.443 30.621 983.137 164 215 240
197.443 31.121 983.116 167 216 240
197.443 31.621 983.010 170 217 245
197.443 32.121 982.943 168 206 233
197.943 28.621 982.492 212 204 198
197.943 29.121 982.741 201 204 210
197.943 29.621 982.962 184 208 227
197.943 30.121 983.059 166 209 233
197.943 30.621 983.119 162 213 239
197.943 31.121 983.103 163 213 238
197.943 31.621 983.024 163 213 239
197.943 32.121 982.911 167 208 235
198.443 28.621 982.491 215 203 196
198.443 29.121 982.686 203 204 207
198.443 29.621 982.901 188 209 225
198.443 30.121 983.033 168 209 232
198.443 30.621 983.090 160 211 238
198.443 31.121 983.083 161 212 238
198.443 31.621 983.021 161 213 240
198.443 32.121 982.875 167 211 238
198.943 28.621 982.499 217 201 194
198.943 29.121 982.658 206 203 207
198.943 29.621 982.872 190 209 225
198.943 30.121 983.012 171 211 234
198.943 30.621 983.058 163 214 239
198.943 31.121 983.070 161 213 239
198.943 31.621 983.022 160 214 240
198.943 32.121 982.881 167 214 244
199.443 28.621 982.497 217 202 193
199.443 29.121 982.634 207 204 205
199.443 29.621 982.863 192 210 223
199.443 30.121 983.007 174 212 235
199.443 30.621 983.044 163 213 239
199.443 31.121 983.061 162 214 240
199.443 31.621 983.033 161 216 243
199.443 32.121 982.933 168 216 245
199.943 28.621 982.487 217 204 195
199.943 29.121 982.608 211 205 204
199.943 29.621 982.834 196 211 220
199.943 30.121 982.989 179 213 231
199.943 30.621 983.039 164 215 238
199.943 31.121 983.050 163 214 241
199.943 31.621 983.041 164 215 244
199.943 32.121 983.006 168 217 243
200.443 29.121 982.591 213 208 205
200.443 29.621 982.779 198 211 218
200.443 30.121 982.954 181 214 231
200.443 30.621 983.034 168 215 238
200.443 31.121 983.053 167 214 241
200.443 31.621 983.048 167 215 245
200.443 32.121 983.022 170 217 244
200.943 29.121 982.574 216 209 205
200.943 29.621 982.746 201 210 217
200.943 30.121 982.924 186 214 230
200.943 30.621 983.018 170 214 238
200.943 31.121 983.051 168 213 239
200.943 31.621 983.046 168 214 244
200.943 32.121 983.015 172 216 245
201.443 29.121 982.580 217 208 204
201.443 29.621 982.719 204 210 216
201.443 30.121 982.898 189 214 227
201.443 30.621 982.984 174 215 237
201.443 31.121 983.025 172 215 241
201.443 31.621 983.025 170 216 246
201.443 32.121 983.011 171 218 245
201.943 29.121 982.564 220 210 202
201.943 29.621 982.658 207 210 213
201.943 30.121 982.865 193 213 225
201.943 30.621 982.978 175 215 237
201.943 31.121 983.019 171 214 238
201.943 31.621 983.013 169 215 243
201.943 32.121 982.995 171 217 245
202.443 29.121 982.514 220 210 202
202.443 29.621 982.600 208 209 212
202.443 30.121 982.833 195 211 223
202.443 30.621 982.966 175 215 235
202.443 31.121 982.995 169 213 237
202.443 31.621 982.996 168 216 244
202.443 32.121 982.972 167 216 241
202.943 29.621 982.546 210 210 212
202.943 30.121 982.822 195 211 221
202.943 30.621 982.922 174 215 234
202.943 31.121 982.946 166 214 236
202.943 31.621 982.967 159 215 241
202.943 32.121 982.937 160 216 243
203.443 29.621 982.461 210 210 210
203.443 30.121 982.778 195 207 217
203.443 30.621 982.864 172 212 231
203.443 31.121 982.909 163 211 236
203.443 31.621 982.929 156 214 241
203.443 32.121 982.895 157 213 241
203.943 29.621 982.384 213 211 206
203.943 30.121 982.660 199 207 211
203.943 30.621 982.803 177 209 227
203.943 31.121 982.861 168 207 227
203.943 31.621 982.863 164 209 234
203.943 32.121 982.829 166 210 234
204.443 29.621 982.288 216 211 202
204.443 30.121 982.491 207 208 205
204.443 30.621 982.683 196 207 214
204.443 31.121 982.739 181 196 205
204.443 31.621 982.764 168 188 199
204.443 32.121 982.686 166 184 195
204.943 29.621 982.143 220 211 198
204.943 30.121 982.361 216 212 201
204.943 30.621 982.494 214 207 201
204.943 31.121 982.534 201 196 190
204.943 31.621 982.594 189 187 183
204.943 32.121 982.567 186 185 180
185.943 32.621 982.598 213 209 198
186.443 32.621 982.608 215 211 201
186.943 32.621 982.619 211 207 199
187.443 32.621 982.620 213 209 200
187.943 32.621 982.602 207 205 198
188.443 32.621 982.581 194 192 187
188.943 32.621 982.579 181 180 176
189.443 32.621 982.587 174 173 171
189.943 32.621 982.588 159 158 157
190.443 32.621 982.588 151 151 154
190.943 32.621 982.590 151 150 155
190.943 33.121 982.584 208 208 201
191.443 32.621 982.591 145 146 152
191.443 33.121 982.583 204 205 199
191.943 32.621 982.583 129 132 140
191.943 33.121 982.574 192 193 187
192.443 32.621 982.570 123 127 136
192.443 33.121 982.559 184 185 180
192.443 33.621 982.588 215 214 204
192.943 32.621 982.568 121 124 135
192.943 33.121 982.553 180 183 178
192.943 33.621 982.577 216 213 205
193.443 32.621 982.581 115 120 133
193.443 33.121 982.549 175 175 172
193.443 33.621 982.570 216 214 202
193.943 32.621 982.614 110 118 130
193.943 33.121 982.554 169 168 167
193.943 33.621 982.572 213 211 200
194.443 32.621 982.649 104 112 128
194.443 33.121 982.571 158 158 158
194.443 33.621 982.575 212 209 200
194.943 32.621 982.663 104 112 131
194.943 33.121 982.576 146 146 149
194.943 33.621 982.570 203 203 195
195.443 32.621 982.680 102 113 133
195.443 33.121 982.572 133 136 140
195.443 33.621 982.558 183 183 175
195.943 32.621 982.724 105 119 139
195.943 33.121 982.571 129 131 139
195.943 33.621 982.546 189 188 184
195.943 34.121 982.563 208 208 198
196.443 32.621 982.767 109 125 146
196.443 33.121 982.586 120 122 132
196.443 33.621 982.539 180 179 176
196.443 34.121 982.554 212 210 202
196.943 32.621 982.784 111 131 151
196.943 33.121 982.608 116 118 128
196.943 33.621 982.541 174 172 171
196.943 34.121 982.553 212 209 201
197.443 32.621 982.800 116 138 160
197.443 33.121 982.627 111 115 127
197.443 33.621 982.547 168 163 162
197.443 34.121 982.547 215 210 204
197.943 32.621 982.791 121 147 170
197.943 33.121 982.640 106 111 126
197.943 33.621 982.544 150 148 149
197.943 34.121 982.534 207 202 197
198.443 32.621 982.761 132 160 183
198.443 33.121 982.647 106 113 129
198.443 33.621 982.543 137 135 140
198.443 34.121 982.526 194 189 185
198.443 34.621 982.538 197 190 180
198.943 32.621 982.760 143 172 197
198.943 33.121 982.658 108 117 133
198.943 33.621 982.553 133 131 137
198.943 34.121 982.535 191 187 183
198.943 34.621 982.538 202 196 186
199.443 32.621 982.801 152 184 207
199.443 33.121 982.680 109 119 138
199.443 33.621 982.560 124 124 131
199.443 34.121 982.538 185 184 178
199.443 34.621 982.537 211 207 197
199.943 32.621 982.863 157 193 216
199.943 33.121 982.705 106 125 144
199.943 33.621 982.563 119 121 128
199.943 34.121 982.536 183 181 178
199.943 34.621 982.532 217 215 204
200.443 32.621 982.887 166 200 223
200.443 33.121 982.707 113 130 149
200.443 33.621 982.555 115 117 125
200.443 34.121 982.530 174 173 171
200.443 34.621 982.527 217 215 205
200.943 32.621 982.888 173 208 233
200.943 33.121 982.708 120 139 160
200.943 33.621 982.561 110 115 124
200.943 34.121 982.531 161 159 159
200.943 34.621 982.533 213 211 200
201.443 32.621 982.908 177 213 237
201.443 33.121 982.718 130 150 173
201.443 33.621 982.603 107 112 124
201.443 34.121 982.550 149 148 149
201.443 34.621 982.543 204 201 190
201.943 32.621 982.894 177 215 240
201.943 33.121 982.730 136 161 184
201.943 33.621 982.641 105 113 126
201.943 34.121 982.567 139 137 141
201.943 34.621 982.547 195 191 181
202.443 32.621 982.854 173 214 238
202.443 33.121 982.738 146 173 196
202.443 33.621 982.626 109 119 134
202.443 34.121 982.541 129 128 132
202.443 34.621 982.525 188 183 174
202.943 32.621 982.847 169 215 238
202.943 33.121 982.742 152 184 204
202.943 33.621 982.597 115 126 139
202.943 34.121 982.491 125 124 130
202.943 34.621 982.469 184 176 171
202.943 35.121 982.479 220 211 195
203.443 32.621 982.800 166 210 235
203.443 33.121 982.701 157 190 210
203.443 33.621 982.579 121 133 144
203.443 34.121 982.456 125 125 128
203.443 34.621 982.411 184 174 171
203.443 35.121 982.432 221 212 197
203.943 32.621 982.736 168 203 225
203.943 33.121 982.622 159 184 202
203.943 33.621 982.540 136 145 154
203.943 34.121 982.414 148 145 145
203.943 34.621 982.363 183 173 167
203.943 35.121 982.388 217 208 193
204.443 32.621 982.646 169 183 192
204.443 33.121 982.557 175 184 189
204.443 33.621 982.468 174 175 175
204.443 34.121 982.360 180 175 171
204.943 32.621 982.542 188 184 178
204.943 33.121 982.496 193 185 178
204.943 33.621 982.361 188 184 174
