222.943 12.621 981.899 230 218 200
222.943 13.121 981.885 228 215 197
222.943 13.621 981.855 227 210 192
222.943 14.121 981.777 215 198 178
223.443 11.621 982.108 227 215 195
223.443 12.121 982.139 228 217 199
223.443 12.621 982.175 228 217 199
223.443 13.121 982.149 228 215 197
223.443 13.621 982.033 220 204 184
223.443 14.121 981.919 209 192 172
223.443 14.621 981.842 207 191 168
223.443 15.121 981.752 205 189 166
223.943 11.121 982.250 225 215 198
223.943 11.621 982.409 228 217 199
223.943 12.121 982.447 226 214 198
223.943 12.621 982.495 224 213 197
223.943 13.121 982.442 220 208 192
223.943 13.621 982.235 213 200 183
223.943 14.121 982.075 203 188 170
223.943 14.621 982.004 200 184 164
223.943 15.121 981.882 200 184 163
224.443 11.121 982.512 226 217 204
224.443 11.621 982.733 224 215 204
224.443 12.121 982.821 222 213 201
224.443 12.621 982.829 213 203 193
224.443 13.121 982.755 201 191 180
224.443 13.621 982.530 191 179 166
224.443 14.121 982.284 185 171 158
224.443 14.621 982.163 184 168 152
224.443 15.121 982.013 187 171 155
224.943 11.121 982.803 231 220 209
224.943 11.621 983.063 231 223 215
224.943 12.121 983.193 233 225 217
224.943 12.621 983.185 225 218 210
224.943 13.121 983.075 214 205 198
224.943 13.621 982.833 192 183 173
224.943 14.121 982.569 163 150 140
224.943 14.621 982.331 150 137 124
224.943 15.121 982.101 153 138 125
225.443 10.621 982.575 227 217 205
225.443 11.121 983.038 234 227 217
225.443 11.621 983.263 241 237 232
225.443 12.121 983.361 246 244 240
225.443 12.621 983.386 246 246 243
225.443 13.121 983.294 247 244 242
225.443 13.621 983.049 236 231 226
225.443 14.121 982.765 179 170 165
225.443 14.621 982.496 145 135 127
225.443 15.121 982.218 143 134 123
225.943 10.621 982.756 225 215 204
225.943 11.121 983.155 233 226 216
225.943 11.621 983.335 245 241 236
225.943 12.121 983.408 249 248 245
225.943 12.621 983.441 249 249 249
225.943 13.121 983.374 249 247 247
225.943 13.621 983.169 244 239 236
225.943 14.121 982.893 184 176 171
225.943 14.621 982.633 146 137 130
225.943 15.121 982.354 143 133 124
226.443 10.621 982.950 224 214 202
226.443 11.121 983.212 232 224 215
226.443 11.621 983.354 248 245 241
226.443 12.121 983.426 250 249 247
226.443 12.621 983.463 249 249 249
226.443 13.121 983.399 249 249 248
226.443 13.621 983.204 243 237 235
226.443 14.121 982.964 176 168 164
226.443 14.621 982.698 145 136 130
226.443 15.121 982.424 147 136 127
226.943 10.621 982.995 226 216 206
226.943 11.121 983.222 233 227 218
226.943 11.621 983.345 247 244 239
226.943 12.121 983.429 249 248 246
226.943 12.621 983.484 249 249 249
226.943 13.121 983.427 250 250 249
226.943 13.621 983.218 244 238 235
226.943 14.121 983.019 171 163 160
226.943 14.621 982.762 144 134 132
226.943 15.121 982.466 152 140 134
227.443 10.621 983.024 225 215 205
227.443 11.121 983.230 234 228 220
227.443 11.621 983.345 246 245 241
227.443 12.121 983.434 249 249 247
227.443 12.621 983.503 249 250 252
227.443 13.121 983.449 249 248 250
227.443 13.621 983.235 240 237 234
227.443 14.121 983.083 167 161 157
227.443 14.621 982.844 140 130 128
227.443 15.121 982.523 153 143 138
227.943 10.621 983.041 224 214 205
227.943 11.121 983.234 234 228 221
227.943 11.621 983.361 247 246 242
227.943 12.121 983.458 249 249 249
227.943 12.621 983.513 248 249 251
227.943 13.121 983.454 248 249 250
227.943 13.621 983.226 241 237 236
227.943 14.121 983.076 166 160 156
227.943 14.621 982.866 137 128 127
227.943 15.121 982.569 153 143 138
228.443 10.621 983.044 224 213 204
228.443 11.121 983.243 234 227 220
228.443 11.621 983.382 247 245 242
228.443 12.121 983.496 249 249 246
228.443 12.621 983.527 248 250 248
228.443 13.121 983.461 247 249 247
228.443 13.621 983.254 241 238 235
228.443 14.121 983.046 166 160 156
228.443 14.621 982.813 137 128 126
228.443 15.121 982.591 151 142 136
228.943 10.621 983.060 223 213 204
228.943 11.121 983.270 234 226 219
228.943 11.621 983.413 247 246 243
228.943 12.121 983.504 248 249 248
228.943 12.621 983.526 246 250 249
228.943 13.121 983.472 248 249 249
228.943 13.621 983.291 237 236 234
228.943 14.121 983.022 162 157 154
228.943 14.621 982.782 136 128 125
228.943 15.121 982.624 148 138 131
229.443 10.621 983.086 223 213 204
229.443 11.121 983.293 234 228 222
229.443 11.621 983.445 247 247 246
229.443 12.121 983.511 248 250 249
229.443 12.621 983.531 246 250 251
229.443 13.121 983.482 248 249 250
229.443 13.621 983.295 233 232 232
229.443 14.121 983.030 159 154 154
229.443 14.621 982.802 136 128 126
229.443 15.121 982.642 147 137 131
229.943 10.621 983.094 222 214 205
229.943 11.121 983.297 233 230 224
229.943 11.621 983.457 247 247 245
229.943 12.121 983.508 249 250 250
229.943 12.621 983.521 248 250 249
229.943 13.121 983.471 250 249 249
229.943 13.621 983.266 233 228 227
229.943 14.121 983.020 160 151 152
229.943 14.621 982.836 134 125 124
229.943 15.121 982.650 146 136 131
230.443 10.621 983.065 219 212 205
230.443 11.121 983.272 233 232 227
230.443 11.621 983.466 246 247 246
230.443 12.121 983.515 245 248 248
230.443 12.621 983.522 247 250 251
230.443 13.121 983.458 247 248 249
230.443 13.621 983.225 231 227 230
230.443 14.121 982.998 154 148 149
230.443 14.621 982.856 132 123 124
230.443 15.121 982.665 145 135 131
230.943 10.621 983.025 210 205 202
230.943 11.121 983.242 223 225 226
230.943 11.621 983.470 239 249 251
230.943 12.121 983.526 240 251 255
230.943 12.621 983.529 239 251 255
230.943 13.121 983.448 244 251 255
230.943 13.621 983.211 219 223 228
230.943 14.121 982.985 149 148 154
230.943 14.621 982.837 129 120 123
230.943 15.121 982.680 141 131 128
231.443 10.121 982.654 207 198 190
231.443 10.621 983.009 197 192 192
231.443 11.121 983.239 196 202 208
231.443 11.621 983.463 199 220 230
231.443 12.121 983.524 202 226 235
231.443 12.621 983.523 204 227 237
231.443 13.121 983.429 209 230 240
231.443 13.621 983.216 202 216 228
231.443 14.121 983.002 145 154 165
231.443 14.621 982.838 126 119 124
231.443 15.121 982.675 135 125 123
231.943 10.121 982.630 198 190 183
231.943 10.621 982.986 184 186 190
231.943 11.121 983.249 183 200 216
231.943 11.621 983.446 166 204 226
231.943 12.121 983.505 160 210 233
231.943 12.621 983.514 164 209 236
231.943 13.121 983.435 169 210 237
231.943 13.621 983.241 177 212 233
231.943 14.121 983.024 139 154 174
231.943 14.621 982.835 121 122 133
231.943 15.121 982.655 131 123 122
232.443 10.121 982.602 196 187 179
232.443 10.621 982.873 184 186 190
232.443 11.121 983.251 183 201 219
232.443 11.621 983.447 164 206 232
232.443 12.121 983.482 156 209 237
232.443 12.621 983.487 162 208 240
232.443 13.121 983.432 163 208 238
232.443 13.621 983.247 168 205 231
232.443 14.121 983.024 132 149 173
232.443 14.621 982.821 121 123 133
232.443 15.121 982.619 132 124 124
232.943 10.121 982.578 192 184 176
232.943 10.621 982.772 184 187 191
232.943 11.121 983.227 183 201 219
232.943 11.621 983.431 164 204 232
232.943 12.121 983.476 156 207 237
232.943 12.621 983.473 160 207 241
232.943 13.121 983.399 163 207 238
232.943 13.621 983.193 168 204 230
232.943 14.121 982.985 131 146 173
232.943 14.621 982.791 120 121 132
232.943 15.121 982.590 131 124 124
233.443 10.121 982.577 190 181 174
233.443 10.621 982.838 184 186 190
233.443 11.121 983.202 185 202 220
233.443 11.621 983.403 169 207 231
233.443 12.121 983.467 163 211 236
233.443 12.621 983.453 168 211 241
233.443 13.121 983.367 174 213 241
233.443 13.621 983.162 177 210 232
233.443 14.121 982.961 133 146 171
233.443 14.621 982.774 122 122 135
233.443 15.121 982.581 131 123 124
233.943 10.121 982.572 197 188 181
233.943 10.621 982.916 188 190 194
233.943 11.121 983.172 186 202 218
233.943 11.621 983.389 173 210 233
233.943 12.121 983.461 168 214 237
233.943 12.621 983.449 170 212 240
233.943 13.121 983.376 175 212 239
233.943 13.621 983.190 183 214 235
233.943 14.121 982.979 140 153 173
233.943 14.621 982.780 123 123 136
233.943 15.121 982.584 132 124 125
234.443 10.121 982.568 206 197 190
234.443 10.621 982.922 194 196 200
234.443 11.121 983.163 180 199 216
234.443 11.621 983.386 168 208 231
234.443 12.121 983.470 164 214 237
234.443 12.621 983.474 169 212 243
234.443 13.121 983.401 173 214 240
234.443 13.621 983.220 179 213 234
234.443 14.121 983.003 140 155 177
234.443 14.621 982.794 125 126 139
234.443 15.121 982.590 132 124 127
234.943 10.121 982.580 211 204 200
234.943 10.621 982.914 198 200 205
234.943 11.121 983.190 183 200 215
234.943 11.621 983.419 161 201 229
234.943 12.121 983.493 155 207 237
234.943 12.621 983.494 154 210 243
234.943 13.121 983.430 162 212 242
234.943 13.621 983.263 169 204 231
234.943 14.121 983.013 131 148 174
234.943 14.621 982.772 127 127 136
234.943 15.121 982.551 130 125 125
235.443 10.121 982.542 215 208 201
235.443 10.621 982.877 207 207 207
235.443 11.121 983.198 192 204 215
235.443 11.621 983.435 171 201 221
235.443 12.121 983.502 164 202 225
235.443 12.621 983.500 162 204 229
235.443 13.121 983.433 166 202 226
235.443 13.621 983.256 180 204 225
235.443 14.121 982.960 137 150 168
235.443 14.621 982.677 129 126 133
235.443 15.121 982.450 135 127 126
235.943 10.121 982.447 222 213 204
235.943 10.621 982.758 224 219 216
235.943 11.121 983.085 223 226 229
235.943 11.621 983.327 225 237 245
235.943 12.121 983.434 224 238 250
235.943 12.621 983.447 220 238 252
235.943 13.121 983.352 222 237 249
235.943 13.621 983.132 230 238 245
235.943 14.121 982.821 172 175 179
235.943 14.621 982.541 147 139 140
235.943 15.121 982.322 145 135 133
236.443 10.621 982.593 221 216 205
236.443 11.121 982.844 226 223 216
236.443 11.621 983.103 237 237 235
236.443 12.121 983.266 237 236 236
236.443 12.621 983.275 238 236 237
236.443 13.121 983.162 235 233 234
236.443 13.621 982.948 228 228 224
236.443 14.121 982.651 190 189 184
236.443 14.621 982.401 179 168 163
236.443 15.121 982.191 179 167 159
236.943 11.121 982.596 220 211 200
236.943 11.621 982.813 221 214 206
236.943 12.121 982.990 223 215 207
236.943 12.621 982.979 222 213 208
236.943 13.121 982.856 220 211 205
236.943 13.621 982.683 211 204 196
236.943 14.121 982.442 202 195 186
236.943 14.621 982.230 204 191 180
236.943 15.121 982.052 204 190 178
237.443 11.621 982.500 222 211 198
237.443 12.121 982.600 223 214 199
237.443 12.621 982.582 222 212 197
237.443 13.121 982.453 221 212 197
237.443 13.621 982.289 219 207 194
223.943 15.621 981.773 211 195 175
223.943 16.121 981.697 215 200 179
224.443 15.621 981.874 204 189 171
224.443 16.121 981.782 221 205 188
224.943 15.621 981.951 188 172 157
224.943 16.121 981.856 222 206 191
225.443 15.621 982.026 184 170 157
225.443 16.121 981.869 222 206 190
225.943 15.621 982.090 184 169 156
225.943 16.121 981.853 217 201 185
226.443 15.621 982.117 186 173 161
226.443 16.121 981.885 217 201 186
226.943 15.621 982.158 192 179 168
227.443 15.621 982.226 197 184 173
227.943 15.621 982.295 196 183 173
228.443 15.621 982.347 192 179 167
228.443 16.121 981.972 221 206 189
228.943 15.621 982.385 186 172 160
229.443 15.621 982.422 179 166 154
229.943 15.621 982.423 173 161 150
229.943 16.121 982.131 198 183 166
230.443 15.621 982.420 177 164 154
230.443 16.121 982.135 202 186 171
230.943 15.621 982.436 176 162 154
230.943 16.121 982.135 208 192 177
230.943 16.621 981.904 217 202 183
231.443 15.621 982.457 168 154 145
231.443 16.121 982.182 205 189 174
231.443 16.621 981.937 218 203 184
231.943 15.621 982.482 166 151 140
231.943 16.121 982.240 203 187 172
231.943 16.621 981.970 213 200 184
231.943 17.121 981.788 221 205 188
232.443 15.621 982.473 166 150 140
232.443 16.121 982.240 201 185 171
232.443 16.621 981.972 212 199 182
232.943 15.621 982.438 164 147 138
232.943 16.121 982.208 195 179 164
232.943 16.621 981.949 205 192 175
233.443 15.621 982.416 162 147 137
233.443 16.121 982.186 190 174 159
233.443 16.621 981.926 201 188 171
233.943 15.621 982.414 162 148 138
233.943 16.121 982.177 191 175 159
233.943 16.621 981.915 200 187 171
234.443 15.621 982.399 167 151 141
234.443 16.121 982.156 195 179 163
234.443 16.621 981.894 204 191 174
234.943 15.621 982.330 164 152 144
234.943 16.121 982.106 197 184 167
234.943 16.621 981.854 211 195 177
235.443 15.621 982.210 166 153 146
235.443 16.121 982.010 201 185 171
235.443 16.621 981.785 213 197 179
235.943 15.621 982.109 168 154 146
235.943 16.121 981.925 204 186 171
236.443 15.621 982.020 191 175 164
236.443 16.121 981.852 207 189 175
236.943 15.621 981.889 208 192 179
