326.443 -68.379 969.497 214 192 171
326.443 -67.879 969.491 214 192 171
326.443 -67.379 969.464 213 191 171
326.443 -66.879 969.423 213 191 171
326.443 -66.379 969.389 217 195 174
326.443 -65.879 969.365 219 197 176
326.443 -65.379 969.352 217 195 174
326.443 -64.879 969.345 219 197 176
326.443 -64.379 969.365 219 197 176
326.443 -63.879 969.407 220 198 177
326.443 -63.379 969.450 222 200 179
326.443 -62.879 969.487 222 200 179
326.443 -62.379 969.515 224 202 181
326.443 -61.879 969.533 216 194 173
326.443 -61.379 969.538 213 191 171
326.443 -60.879 969.528 215 193 172
326.943 -68.879 969.508 212 190 168
326.943 -68.379 969.502 214 192 171
326.943 -67.879 969.507 214 192 171
326.943 -67.379 969.482 214 192 171
326.943 -66.879 969.438 214 192 171
326.943 -66.379 969.397 217 195 174
326.943 -65.879 969.366 220 198 177
326.943 -65.379 969.347 219 197 176
326.943 -64.879 969.333 218 196 175
326.943 -64.379 969.345 219 197 176
326.943 -63.879 969.378 220 198 177
326.943 -63.379 969.423 219 197 176
326.943 -62.879 969.457 221 199 178
326.943 -62.379 969.487 220 198 177
326.943 -61.879 969.506 222 200 179
326.943 -61.379 969.512 214 192 171
326.943 -60.879 969.506 214 192 171
327.443 -68.879 969.523 212 190 167
327.443 -68.379 969.514 212 190 168
327.443 -67.879 969.517 213 191 171
327.443 -67.379 969.500 213 191 171
327.443 -66.879 969.455 216 194 173
327.443 -66.379 969.412 217 195 174
327.443 -65.879 969.378 219 197 176
327.443 -65.379 969.353 218 196 175
327.443 -64.879 969.335 220 198 177
327.443 -64.379 969.337 220 198 177
327.443 -63.879 969.366 221 199 178
327.443 -63.379 969.404 221 199 178
327.443 -62.879 969.429 222 200 179
327.443 -62.379 969.458 221 199 178
327.443 -61.879 969.482 221 199 178
327.443 -61.379 969.491 223 201 180
327.443 -60.879 969.485 220 198 177
327.943 -68.879 969.548 213 189 166
327.943 -68.379 969.537 209 187 164
327.943 -67.879 969.531 210 188 165
327.943 -67.379 969.518 213 191 168
327.943 -66.879 969.473 215 193 171
327.943 -66.379 969.432 216 194 173
327.943 -65.879 969.400 217 195 174
327.943 -65.379 969.376 218 196 175
327.943 -64.879 969.357 219 197 176
327.943 -64.379 969.350 219 197 176
327.943 -63.879 969.366 220 198 177
327.943 -63.379 969.387 220 198 177
327.943 -62.879 969.402 220 198 177
327.943 -62.379 969.427 221 199 178
327.943 -61.879 969.450 222 201 180
327.943 -61.379 969.461 222 201 180
327.943 -60.879 969.460 222 201 180
328.443 -68.879 969.598 214 191 170
328.443 -68.379 969.579 210 188 165
328.443 -67.879 969.556 206 184 161
328.443 -67.379 969.534 209 187 165
328.443 -66.879 969.492 214 192 171
328.443 -66.379 969.466 216 194 173
328.443 -65.879 969.431 216 194 173
328.443 -65.379 969.407 217 195 174
328.443 -64.879 969.383 217 195 174
328.443 -64.379 969.373 218 196 175
328.443 -63.879 969.373 218 196 175
328.443 -63.379 969.380 218 196 175
328.443 -62.879 969.388 218 196 175
328.443 -62.379 969.402 219 198 177
328.443 -61.879 969.415 220 199 178
328.443 -61.379 969.430 221 200 179
328.443 -60.879 969.440 223 202 181
328.943 -68.879 969.649 213 191 171
328.943 -68.379 969.641 208 187 166
328.943 -67.879 969.603 205 184 163
328.943 -67.379 969.565 201 180 159
328.943 -66.879 969.525 207 186 165
328.943 -66.379 969.516 213 192 171
328.943 -65.879 969.478 213 192 171
328.943 -65.379 969.444 215 193 172
328.943 -64.879 969.404 217 195 174
328.943 -64.379 969.389 218 196 175
328.943 -63.879 969.379 217 195 174
328.943 -63.379 969.375 217 195 174
328.943 -62.879 969.375 217 195 174
328.943 -62.379 969.383 217 196 175
328.943 -61.879 969.398 218 197 176
328.943 -61.379 969.418 220 199 178
328.943 -60.879 969.437 221 200 179
329.443 -68.879 969.717 211 190 171
329.443 -68.379 969.717 206 185 166
329.443 -67.879 969.688 195 174 155
329.443 -67.379 969.644 188 168 148
329.443 -66.879 969.590 193 172 153
329.443 -66.379 969.569 207 186 167
329.443 -65.879 969.528 213 192 173
329.443 -65.379 969.479 214 193 172
329.443 -64.879 969.428 215 194 173
329.443 -64.379 969.404 216 195 174
329.443 -63.879 969.384 216 195 174
329.443 -63.379 969.371 216 195 174
329.443 -62.879 969.360 216 195 174
329.443 -62.379 969.369 215 194 173
329.443 -61.879 969.394 217 196 175
329.443 -61.379 969.423 218 197 176
329.443 -60.879 969.441 218 197 176
329.943 -68.879 969.787 191 172 155
329.943 -68.379 969.775 180 161 144
329.943 -67.879 969.764 174 155 138
329.943 -67.379 969.733 171 153 134
329.943 -66.879 969.674 175 157 137
329.943 -66.379 969.620 188 170 150
329.943 -65.879 969.555 203 185 165
329.943 -65.379 969.490 213 192 171
329.943 -64.879 969.443 214 193 172
329.943 -64.379 969.416 214 193 172
329.943 -63.879 969.394 216 195 174
329.943 -63.379 969.372 216 195 174
329.943 -62.879 969.352 216 195 174
329.943 -62.379 969.367 216 195 174
329.943 -61.879 969.402 217 196 175
329.943 -61.379 969.432 208 187 166
329.943 -60.879 969.444 213 192 171
330.443 -68.879 969.828 167 147 131
330.443 -68.379 969.820 169 150 134
330.443 -67.879 969.807 172 153 136
330.443 -67.379 969.786 176 157 140
330.443 -66.879 969.746 173 154 136
330.443 -66.379 969.663 179 161 141
330.443 -65.879 969.554 196 179 158
330.443 -65.379 969.488 211 190 170
330.443 -64.879 969.452 214 193 172
330.443 -64.379 969.429 215 194 173
330.443 -63.879 969.416 217 196 175
330.443 -63.379 969.391 216 195 174
330.443 -62.879 969.362 216 195 174
330.443 -62.379 969.374 215 194 173
330.443 -61.879 969.408 214 193 172
330.443 -61.379 969.434 208 187 166
330.443 -60.879 969.443 214 193 172
330.943 -68.879 969.843 162 144 129
330.943 -68.379 969.844 177 159 147
330.943 -67.879 969.838 179 160 147
330.943 -67.379 969.824 179 160 146
330.943 -66.879 969.782 180 161 146
330.943 -66.379 969.688 179 160 143
330.943 -65.879 969.563 191 170 153
330.943 -65.379 969.499 208 187 166
330.943 -64.879 969.454 215 194 173
330.943 -64.379 969.434 215 194 173
330.943 -63.879 969.433 217 196 177
330.943 -63.379 969.412 216 195 176
330.943 -62.879 969.382 215 194 175
330.943 -62.379 969.390 212 193 174
330.943 -61.879 969.416 209 191 171
330.943 -61.379 969.434 209 188 170
330.943 -60.879 969.443 216 195 175
331.443 -68.879 969.853 173 155 141
331.443 -68.379 969.862 184 166 153
331.443 -67.879 969.863 187 169 155
331.443 -67.379 969.845 181 162 148
331.443 -66.879 969.781 183 163 147
331.443 -66.379 969.675 181 162 145
331.443 -65.879 969.566 197 179 161
331.443 -65.379 969.506 210 189 168
331.443 -64.879 969.453 215 194 173
331.443 -64.379 969.431 216 195 176
331.443 -63.879 969.432 216 195 176
331.443 -63.379 969.424 216 195 176
331.443 -62.879 969.400 214 193 174
331.443 -62.379 969.404 210 191 172
331.443 -61.879 969.423 207 189 170
331.443 -61.379 969.434 214 193 174
331.443 -60.879 969.442 217 196 177
331.943 -68.879 969.855 173 156 141
331.943 -68.379 969.875 185 168 153
331.943 -67.879 969.867 187 170 154
331.943 -67.379 969.841 184 167 150
331.943 -66.879 969.774 185 167 150
331.943 -66.379 969.670 184 164 147
331.943 -65.879 969.565 203 184 167
331.943 -65.379 969.511 212 191 171
331.943 -64.879 969.466 215 194 174
331.943 -64.379 969.439 216 195 176
331.943 -63.879 969.434 216 195 176
331.943 -63.379 969.438 216 195 176
331.943 -62.879 969.420 210 189 171
331.943 -62.379 969.416 205 187 167
331.943 -61.879 969.424 210 192 172
331.943 -61.379 969.427 216 195 176
331.943 -60.879 969.433 216 195 175
332.443 -68.879 969.838 184 168 151
332.443 -68.379 969.868 184 168 151
332.443 -67.879 969.860 190 173 157
332.443 -67.379 969.831 185 168 152
332.443 -66.879 969.780 184 167 149
332.443 -66.379 969.717 183 163 146
332.443 -65.879 969.618 204 185 168
332.443 -65.379 969.541 211 191 173
332.443 -64.879 969.492 212 192 174
332.443 -64.379 969.461 214 195 176
332.443 -63.879 969.448 214 195 175
332.443 -63.379 969.451 211 192 173
332.443 -62.879 969.435 206 187 168
332.443 -62.379 969.429 200 183 161
332.443 -61.879 969.426 211 193 172
332.443 -61.379 969.412 217 196 176
332.443 -60.879 969.416 216 195 174
332.943 -68.879 969.816 190 173 158
332.943 -68.379 969.845 189 173 158
332.943 -67.879 969.844 185 169 154
332.943 -67.379 969.813 179 161 147
332.943 -66.879 969.780 179 161 146
332.943 -66.379 969.746 177 160 144
332.943 -65.879 969.665 199 183 166
332.943 -65.379 969.580 208 189 172
332.943 -64.879 969.525 211 192 175
332.943 -64.379 969.485 213 194 177
332.943 -63.879 969.465 209 190 173
332.943 -63.379 969.458 205 187 167
332.943 -62.879 969.443 210 192 172
332.943 -62.379 969.426 209 191 170
332.943 -61.879 969.414 210 192 171
332.943 -61.379 969.402 214 193 172
332.943 -60.879 969.407 216 195 174
333.443 -68.879 969.780 194 177 162
333.443 -68.379 969.818 192 176 161
333.443 -67.879 969.828 181 166 150
333.443 -67.379 969.792 174 158 143
333.443 -66.879 969.764 169 151 137
333.443 -66.379 969.726 175 157 144
333.443 -65.879 969.669 184 167 154
333.443 -65.379 969.611 190 171 156
333.443 -64.879 969.563 196 177 161
333.443 -64.379 969.503 207 188 171
333.443 -63.879 969.471 206 187 171
333.443 -63.379 969.459 207 189 170
333.443 -62.879 969.439 209 191 171
333.443 -62.379 969.407 209 191 170
333.443 -61.879 969.396 211 193 171
333.443 -61.379 969.392 216 195 174
333.443 -60.879 969.391 215 194 174
333.943 -68.879 969.760 193 177 161
333.943 -68.379 969.812 184 168 155
333.943 -67.879 969.824 171 155 142
333.943 -67.379 969.783 163 147 134
333.943 -66.879 969.748 156 138 126
333.943 -66.379 969.703 163 145 133
333.943 -65.879 969.668 176 158 146
333.943 -65.379 969.632 180 163 147
333.943 -64.879 969.583 193 174 159
333.943 -64.379 969.520 204 185 168
333.943 -63.879 969.487 200 181 164
333.943 -63.379 969.467 207 189 170
333.943 -62.879 969.431 212 194 174
333.943 -62.379 969.390 215 196 175
333.943 -61.879 969.385 215 197 175
333.943 -61.379 969.387 218 197 176
333.943 -60.879 969.378 218 197 176
334.443 -68.879 969.757 191 174 157
334.443 -68.379 969.805 175 159 146
334.443 -67.879 969.822 166 149 136
334.443 -67.379 969.793 161 147 136
334.443 -66.879 969.761 155 140 128
334.443 -66.379 969.716 154 138 125
334.443 -65.879 969.681 176 158 144
334.443 -65.379 969.642 184 168 151
334.443 -64.879 969.580 187 171 155
334.443 -64.379 969.525 195 179 160
334.443 -63.879 969.503 200 181 164
334.443 -63.379 969.477 210 192 172
334.443 -62.879 969.430 217 196 177
334.443 -62.379 969.382 217 196 176
334.443 -61.879 969.372 216 195 174
334.443 -61.379 969.379 218 197 176
334.443 -60.879 969.375 215 194 173
334.943 -68.879 969.757 194 177 161
334.943 -68.379 969.791 172 156 143
334.943 -67.879 969.818 166 149 136
334.943 -67.379 969.809 163 149 138
334.943 -66.879 969.790 167 151 139
334.943 -66.379 969.754 159 143 130
334.943 -65.879 969.705 184 167 152
334.943 -65.379 969.643 191 175 159
334.943 -64.879 969.575 195 179 162
334.943 -64.379 969.524 191 173 155
334.943 -63.879 969.499 200 183 162
334.943 -63.379 969.463 217 196 177
334.943 -62.879 969.415 219 198 177
334.943 -62.379 969.379 219 198 177
334.943 -61.879 969.365 217 196 175
334.943 -61.379 969.370 218 197 176
334.943 -60.879 969.373 216 195 174
335.443 -68.879 969.745 200 184 167
335.443 -68.379 969.780 180 164 151
335.443 -67.879 969.809 169 153 140
335.443 -67.379 969.807 172 158 147
335.443 -66.879 969.805 169 154 142
335.443 -66.379 969.796 160 144 131
335.443 -65.879 969.747 177 159 145
335.443 -65.379 969.671 195 179 162
335.443 -64.879 969.594 207 190 173
335.443 -64.379 969.540 203 184 167
335.443 -63.879 969.496 211 193 173
335.443 -63.379 969.440 219 198 179
335.443 -62.879 969.402 219 198 177
335.443 -62.379 969.391 217 196 175
335.443 -61.879 969.386 217 196 175
335.443 -61.379 969.383 216 195 174
335.443 -60.879 969.370 218 197 176
335.943 -68.879 969.731 203 186 170
335.943 -68.379 969.774 186 170 157
335.943 -67.879 969.804 171 155 142
335.943 -67.379 969.811 170 156 145
335.943 -66.879 969.819 172 157 146
335.943 -66.379 969.829 160 144 131
335.943 -65.879 969.806 169 151 137
335.943 -65.379 969.732 187 170 152
335.943 -64.879 969.619 200 183 165
335.943 -64.379 969.561 210 192 172
335.943 -63.879 969.508 217 196 177
335.943 -63.379 969.447 217 196 175
335.943 -62.879 969.417 218 196 175
335.943 -62.379 969.409 217 196 175
335.943 -61.879 969.407 217 196 175
335.943 -61.379 969.392 215 194 173
335.943 -60.879 969.367 217 196 175
336.443 -68.879 969.738 201 184 168
336.443 -68.379 969.775 191 175 162
336.443 -67.879 969.807 176 160 147
336.443 -67.379 969.825 170 156 145
336.443 -66.879 969.834 168 152 141
336.443 -66.379 969.838 164 148 135
336.443 -65.879 969.832 171 153 139
336.443 -65.379 969.776 177 160 143
336.443 -64.879 969.643 190 172 154
336.443 -64.379 969.558 210 190 171
336.443 -63.879 969.506 216 195 175
336.443 -63.379 969.468 216 194 173
336.443 -62.879 969.438 216 194 172
336.443 -62.379 969.422 217 196 174
336.443 -61.879 969.415 217 196 175
336.443 -61.379 969.398 217 196 175
336.443 -60.879 969.377 216 195 174
336.943 -68.879 969.745 201 184 168
336.943 -68.379 969.777 183 167 153
336.943 -67.879 969.820 184 168 155
336.943 -67.379 969.845 179 164 153
336.943 -66.879 969.854 167 152 140
336.943 -66.379 969.835 164 148 135
336.943 -65.879 969.824 171 153 139
336.943 -65.379 969.771 177 158 141
336.943 -64.879 969.637 184 166 147
336.943 -64.379 969.537 206 186 167
336.943 -63.879 969.492 215 194 173
336.943 -63.379 969.482 215 193 172
336.943 -62.879 969.459 216 194 171
336.943 -62.379 969.442 214 193 171
336.943 -61.879 969.426 212 191 171
336.943 -61.379 969.411 214 193 172
336.943 -60.879 969.385 217 196 175
337.443 -68.879 969.716 206 187 171
337.443 -68.379 969.773 179 161 145
337.443 -67.879 969.828 185 168 153
337.443 -67.379 969.852 188 172 159
337.443 -66.879 969.868 174 158 145
337.443 -66.379 969.833 164 150 137
337.443 -65.879 969.814 168 153 137
337.443 -65.379 969.741 179 159 142
337.443 -64.879 969.602 189 170 152
337.443 -64.379 969.522 210 189 168
337.443 -63.879 969.490 214 193 172
337.443 -63.379 969.482 215 195 171
337.443 -62.879 969.462 215 193 170
337.443 -62.379 969.446 213 192 171
337.443 -61.879 969.429 213 192 171
337.443 -61.379 969.412 213 192 171
337.443 -60.879 969.383 216 195 174
337.943 -68.879 969.671 208 190 173
337.943 -68.379 969.760 190 173 157
337.943 -67.879 969.827 184 166 151
337.943 -67.379 969.850 185 169 156
337.943 -66.879 969.862 179 163 150
337.943 -66.379 969.824 168 153 138
337.943 -65.879 969.786 167 152 136
337.943 -65.379 969.691 179 160 142
337.943 -64.879 969.587 196 177 158
337.943 -64.379 969.518 213 192 171
337.943 -63.879 969.478 213 192 171
337.943 -63.379 969.467 214 194 171
337.943 -62.879 969.456 215 193 171
337.943 -62.379 969.443 215 194 173
337.943 -61.879 969.427 216 195 174
337.943 -61.379 969.396 214 193 172
337.943 -60.879 969.364 215 194 173
338.443 -68.879 969.642 207 189 173
338.443 -68.379 969.748 193 176 160
338.443 -67.879 969.822 186 168 154
338.443 -67.379 969.842 183 166 151
338.443 -66.879 969.845 183 166 152
338.443 -66.379 969.811 177 161 146
338.443 -65.879 969.754 164 148 132
338.443 -65.379 969.649 173 155 135
338.443 -64.879 969.563 204 185 165
338.443 -64.379 969.504 214 193 173
338.443 -63.879 969.460 215 194 173
338.443 -63.379 969.449 215 194 172
338.443 -62.879 969.443 215 193 171
338.443 -62.379 969.425 214 193 172
338.443 -61.879 969.404 216 195 174
338.443 -61.379 969.380 217 196 175
338.443 -60.879 969.358 217 196 175
338.943 -68.879 969.632 204 186 171
338.943 -68.379 969.746 194 177 161
338.943 -67.879 969.815 189 171 157
338.943 -67.379 969.828 184 166 151
338.943 -66.879 969.822 183 164 150
338.943 -66.379 969.793 181 164 148
338.943 -65.879 969.733 174 157 139
338.943 -65.379 969.646 188 170 150
338.943 -64.879 969.549 204 185 165
338.943 -64.379 969.468 214 193 172
338.943 -63.879 969.420 216 195 174
338.943 -63.379 969.406 215 194 173
338.943 -62.879 969.402 215 193 172
338.943 -62.379 969.388 215 194 173
338.943 -61.879 969.379 218 197 176
338.943 -61.379 969.378 218 197 176
338.943 -60.879 969.371 215 194 173
339.443 -68.879 969.653 198 180 165
339.443 -68.379 969.753 194 177 161
339.443 -67.879 969.805 179 161 147
339.443 -67.379 969.816 172 154 140
339.443 -66.879 969.803 175 157 142
339.443 -66.379 969.769 181 163 147
339.443 -65.879 969.718 188 169 152
339.443 -65.379 969.639 196 179 156
339.443 -64.879 969.528 209 190 168
339.443 -64.379 969.426 216 195 174
339.443 -63.879 969.383 216 195 174
339.443 -63.379 969.371 215 194 173
339.443 -62.879 969.365 216 194 173
339.443 -62.379 969.361 216 194 173
339.443 -61.879 969.366 217 196 175
339.443 -61.379 969.376 217 196 175
339.443 -60.879 969.386 215 194 173
339.943 -68.879 969.685 198 180 165
339.943 -68.379 969.748 195 179 162
339.943 -67.879 969.790 170 152 138
339.943 -67.379 969.799 174 156 142
339.943 -66.879 969.780 185 168 153
339.943 -66.379 969.735 192 173 156
339.943 -65.879 969.680 197 179 159
339.943 -65.379 969.597 203 185 163
339.943 -64.879 969.487 213 195 173
339.943 -64.379 969.405 216 195 174
339.943 -63.879 969.376 219 198 177
339.943 -63.379 969.362 219 198 177
339.943 -62.879 969.357 219 197 176
339.943 -62.379 969.355 216 195 174
339.943 -61.879 969.352 217 196 175
339.943 -61.379 969.357 216 195 174
339.943 -60.879 969.378 215 194 173
340.443 -68.879 969.697 184 167 150
340.443 -68.379 969.732 195 179 162
340.443 -67.879 969.769 176 157 142
340.443 -67.379 969.763 191 173 157
340.443 -66.879 969.745 201 183 164
340.443 -66.379 969.696 206 186 168
340.443 -65.879 969.626 205 185 164
340.443 -65.379 969.548 210 191 170
340.443 -64.879 969.465 213 193 171
340.443 -64.379 969.398 213 192 171
340.443 -63.879 969.373 219 198 177
340.443 -63.379 969.356 219 198 177
340.443 -62.879 969.348 217 196 175
340.443 -62.379 969.343 215 194 172
340.443 -61.879 969.342 216 195 172
340.443 -61.379 969.343 216 195 172
340.443 -60.879 969.362 214 193 172
340.943 -68.879 969.691 180 161 146
340.943 -68.379 969.720 191 172 155
340.943 -67.879 969.741 183 163 146
340.943 -67.379 969.729 206 188 168
340.943 -66.879 969.706 212 191 171
340.943 -66.379 969.651 209 188 167
340.943 -65.879 969.586 210 189 168
340.943 -65.379 969.514 213 192 171
340.943 -64.879 969.456 214 193 172
340.943 -64.379 969.396 215 194 173
340.943 -63.879 969.367 218 197 176
340.943 -63.379 969.344 219 198 177
340.943 -62.879 969.336 216 195 174
340.943 -62.379 969.323 216 195 172
340.943 -61.879 969.317 216 196 172
340.943 -61.379 969.318 214 194 171
340.943 -60.879 969.342 213 192 171
341.443 -68.879 969.661 193 174 158
341.443 -68.379 969.697 189 170 153
341.443 -67.879 969.709 191 172 155
341.443 -67.379 969.703 209 188 170
341.443 -66.879 969.676 215 194 174
341.443 -66.379 969.608 213 192 171
341.443 -65.879 969.549 212 191 171
341.443 -65.379 969.490 213 192 171
341.443 -64.879 969.438 215 194 173
341.443 -64.379 969.392 217 196 175
341.443 -63.879 969.362 218 197 176
341.443 -63.379 969.338 219 198 177
341.443 -62.879 969.323 218 197 176
341.443 -62.379 969.300 218 198 175
341.443 -61.879 969.290 217 197 173
341.443 -61.379 969.296 214 194 171
341.443 -60.879 969.319 215 194 173
341.943 -68.879 969.607 188 168 153
341.943 -68.379 969.663 185 164 146
341.943 -67.879 969.678 205 184 165
341.943 -67.379 969.670 214 193 174
341.943 -66.879 969.645 214 193 172
341.943 -66.379 969.580 215 194 173
341.943 -65.879 969.514 216 195 174
341.943 -65.379 969.464 212 191 171
341.943 -64.879 969.413 214 193 172
341.943 -64.379 969.378 216 195 174
341.943 -63.879 969.354 216 195 174
341.943 -63.379 969.337 218 197 176
341.943 -62.879 969.309 217 196 175
341.943 -62.379 969.280 217 197 174
341.943 -61.879 969.273 219 199 175
341.943 -61.379 969.286 215 195 171
341.943 -60.879 969.307 216 195 174
342.443 -68.879 969.564 197 175 158
342.443 -68.379 969.620 212 191 171
342.443 -67.879 969.648 221 200 180
342.443 -67.379 969.640 220 199 178
342.443 -66.879 969.605 216 195 174
342.443 -66.379 969.544 216 195 174
342.443 -65.879 969.483 216 195 174
342.443 -65.379 969.430 216 195 174
342.443 -64.879 969.390 215 194 173
342.443 -64.379 969.362 215 194 173
342.443 -63.879 969.342 215 194 173
342.443 -63.379 969.327 217 196 175
342.443 -62.879 969.295 218 197 176
342.443 -62.379 969.267 219 198 175
342.443 -61.879 969.262 217 197 173
342.443 -61.379 969.282 217 197 173
342.443 -60.879 969.306 214 193 172
342.943 -68.879 969.516 214 192 173
342.943 -68.379 969.567 221 199 178
342.943 -67.879 969.603 224 202 181
342.943 -67.379 969.601 224 202 181
342.943 -66.879 969.569 220 199 178
342.943 -66.379 969.507 217 196 175
342.943 -65.879 969.459 217 196 175
342.943 -65.379 969.406 218 197 176
342.943 -64.879 969.374 217 196 175
342.943 -64.379 969.353 216 195 174
342.943 -63.879 969.333 214 193 172
342.943 -63.379 969.318 215 194 173
342.943 -62.879 969.289 217 196 175
342.943 -62.379 969.262 219 199 176
342.943 -61.879 969.260 218 198 174
342.943 -61.379 969.287 218 198 174
342.943 -60.879 969.309 217 196 175
262.943 -60.379 975.039 227 212 191
263.443 -60.379 975.015 227 212 192
263.943 -60.379 974.983 227 210 192
264.443 -60.379 974.952 213 196 178
264.943 -60.379 974.917 189 172 154
265.443 -60.379 974.843 214 197 179
265.943 -60.379 974.755 221 204 186
266.443 -60.379 974.667 215 198 180
266.943 -60.379 974.570 180 164 148
266.943 -59.879 975.068 213 197 181
267.443 -60.379 974.484 172 156 140
267.443 -59.879 974.996 213 197 181
267.943 -60.379 974.377 204 188 172
267.943 -59.879 974.860 223 207 191
268.443 -60.379 974.201 219 203 187
268.443 -59.879 974.645 221 205 189
268.943 -60.379 974.048 220 204 188
268.943 -59.879 974.435 219 203 187
268.943 -59.379 974.924 219 203 187
269.443 -60.379 973.967 220 204 188
269.443 -59.879 974.302 221 205 189
269.443 -59.379 974.711 221 205 189
269.943 -60.379 973.897 222 206 190
269.943 -59.879 974.217 220 204 188
269.943 -59.379 974.612 218 202 186
270.443 -60.379 973.721 220 204 188
270.443 -59.879 974.096 217 201 185
270.443 -59.379 974.510 222 206 190
270.443 -58.879 974.986 226 213 196
270.943 -60.379 973.502 231 214 198
270.943 -59.879 973.929 231 214 198
270.943 -59.379 974.337 231 214 198
270.943 -58.879 974.694 231 217 200
271.443 -60.379 973.393 233 216 200
271.443 -59.879 973.799 231 214 198
271.443 -59.379 974.150 233 219 202
271.443 -58.879 974.461 236 223 206
271.443 -58.379 974.906 236 223 206
271.943 -60.379 973.338 234 220 205
271.943 -59.879 973.695 234 221 205
271.943 -59.379 974.001 235 222 205
271.943 -58.879 974.289 237 224 207
271.943 -58.379 974.656 238 225 208
272.443 -60.379 973.192 236 223 206
272.443 -59.879 973.566 233 220 204
272.443 -59.379 973.860 234 221 205
272.443 -58.879 974.121 234 221 205
272.443 -58.379 974.467 237 224 207
272.443 -57.879 974.956 235 222 205
272.943 -60.379 973.004 234 221 205
272.943 -59.879 973.406 233 220 204
272.943 -59.379 973.699 233 220 204
272.943 -58.879 973.970 231 217 200
272.943 -58.379 974.311 233 220 204
272.943 -57.879 974.732 235 222 205
273.443 -60.379 972.831 233 220 204
273.443 -59.879 973.198 233 222 205
273.443 -59.379 973.493 233 221 204
273.443 -58.879 973.801 233 217 200
273.443 -58.379 974.133 231 217 200
273.443 -57.879 974.509 233 220 204
273.943 -60.379 972.639 233 220 204
273.943 -59.879 972.986 233 220 202
273.943 -59.379 973.292 233 220 202
273.943 -58.879 973.644 233 218 202
273.943 -58.379 974.017 233 219 202
273.943 -57.879 974.363 234 221 205
273.943 -57.379 974.881 234 221 205
274.443 -60.379 972.474 232 218 201
274.443 -59.879 972.803 233 220 204
274.443 -59.379 973.140 233 220 204
274.443 -58.879 973.544 235 220 205
274.443 -58.379 973.948 235 222 205
274.443 -57.879 974.247 236 223 206
274.443 -57.379 974.696 237 224 207
274.943 -60.379 972.309 233 218 201
274.943 -59.879 972.598 234 221 205
274.943 -59.379 972.922 235 222 205
274.943 -58.879 973.328 235 220 205
274.943 -58.379 973.745 235 222 205
274.943 -57.879 974.119 236 223 206
274.943 -57.379 974.488 236 223 206
274.943 -56.879 974.868 234 223 205
275.443 -60.379 972.138 233 217 201
275.443 -59.879 972.411 234 221 205
275.443 -59.379 972.703 233 220 204
275.443 -58.879 973.076 233 218 202
275.443 -58.379 973.513 233 220 204
275.443 -57.879 973.929 234 221 205
275.443 -57.379 974.255 233 220 204
275.443 -56.879 974.598 234 223 205
275.443 -56.379 975.114 236 225 207
275.943 -60.379 971.997 230 213 197
275.943 -59.879 972.276 233 217 201
275.943 -59.379 972.576 233 217 201
275.943 -58.879 972.898 234 219 204
275.943 -58.379 973.298 233 220 204
275.943 -57.879 973.674 234 221 205
275.943 -57.379 974.047 234 221 205
275.943 -56.879 974.428 236 225 207
275.943 -56.379 974.879 235 224 206
276.443 -60.379 971.849 219 203 187
276.443 -59.879 972.111 233 216 200
276.443 -59.379 972.409 234 218 202
276.443 -58.879 972.694 234 220 204
276.443 -58.379 973.032 235 222 205
276.443 -57.879 973.405 235 222 205
276.443 -57.379 973.836 235 222 205
276.443 -56.879 974.251 236 224 207
276.443 -56.379 974.644 235 223 205
276.443 -55.879 975.102 235 222 205
276.943 -60.379 971.695 213 197 181
276.943 -59.879 971.969 231 214 198
276.943 -59.379 972.225 235 219 204
276.943 -58.879 972.504 231 217 200
276.943 -58.379 972.829 234 221 205
276.943 -57.879 973.194 236 223 206
276.943 -57.379 973.620 236 223 206
276.943 -56.879 974.016 238 225 208
276.943 -56.379 974.466 230 216 199
276.943 -55.879 974.803 228 215 198
277.443 -60.379 971.601 220 204 188
277.443 -59.879 971.877 233 217 201
277.443 -59.379 972.078 232 215 199
277.443 -58.879 972.337 228 215 198
277.443 -58.379 972.660 236 223 206
277.443 -57.879 973.076 236 223 206
277.443 -57.379 973.483 237 224 207
277.443 -56.879 973.852 238 225 208
277.443 -56.379 974.298 236 223 206
277.443 -55.879 974.652 233 219 202
277.443 -55.379 975.031 237 224 207
277.943 -60.379 971.454 235 219 204
277.943 -59.879 971.713 236 220 205
277.943 -59.379 971.926 234 218 202
277.943 -58.879 972.201 231 217 200
277.943 -58.379 972.544 238 225 208
277.943 -57.879 972.936 238 225 208
277.943 -57.379 973.337 238 225 208
277.943 -56.879 973.772 238 225 208
277.943 -56.379 974.127 237 224 207
277.943 -55.879 974.435 237 224 207
277.943 -55.379 974.794 236 223 206
278.443 -60.379 971.296 235 219 204
278.443 -59.879 971.533 236 220 205
278.443 -59.379 971.775 235 219 204
278.443 -58.879 972.075 233 220 204
278.443 -58.379 972.390 236 223 206
278.443 -57.879 972.729 238 225 208
278.443 -57.379 973.134 238 225 208
278.443 -56.879 973.586 238 225 208
278.443 -56.379 973.945 237 224 207
278.443 -55.879 974.210 238 225 208
278.443 -55.379 974.576 238 225 208
278.443 -54.879 974.958 239 226 209
278.943 -60.379 971.227 233 217 201
278.943 -59.879 971.433 236 220 205
278.943 -59.379 971.680 237 221 205
278.943 -58.879 971.987 233 220 204
278.943 -58.379 972.244 235 222 205
278.943 -57.879 972.588 237 224 207
278.943 -57.379 972.951 236 223 206
278.943 -56.879 973.310 237 224 207
278.943 -56.379 973.716 237 224 207
278.943 -55.879 974.061 238 225 208
278.943 -55.379 974.389 238 225 208
278.943 -54.879 974.783 238 225 208
279.443 -60.379 971.128 235 219 204
279.443 -59.879 971.330 237 221 205
279.443 -59.379 971.612 238 222 206
279.443 -58.879 971.907 233 220 204
279.443 -58.379 972.166 235 222 205
279.443 -57.879 972.530 237 224 207
279.443 -57.379 972.792 235 222 205
279.443 -56.879 973.126 236 223 206
279.443 -56.379 973.571 238 225 208
279.443 -55.879 973.908 237 224 207
279.443 -55.379 974.182 237 224 207
279.443 -54.879 974.631 237 224 207
279.443 -54.379 974.977 234 221 205
279.943 -60.379 971.034 235 222 205
279.943 -59.879 971.228 235 222 205
279.943 -59.379 971.503 236 223 206
279.943 -58.879 971.797 235 222 205
279.943 -58.379 972.080 236 223 206
279.943 -57.879 972.438 237 224 207
279.943 -57.379 972.677 237 224 207
279.943 -56.879 973.015 237 224 207
279.943 -56.379 973.495 237 224 207
279.943 -55.879 973.776 237 224 207
279.943 -55.379 974.076 236 223 206
279.943 -54.879 974.586 234 221 205
279.943 -54.379 974.868 234 221 205
280.443 -60.379 970.969 235 220 205
280.443 -59.879 971.164 234 221 205
280.443 -59.379 971.360 236 223 206
280.443 -58.879 971.670 238 224 205
280.443 -58.379 971.951 237 223 205
280.443 -57.879 972.230 238 224 205
280.443 -57.379 972.509 238 224 205
280.443 -56.879 972.856 237 224 205
280.443 -56.379 973.283 236 223 205
280.443 -55.879 973.531 236 222 205
280.443 -55.379 973.953 236 221 205
280.443 -54.879 974.497 235 220 205
280.443 -54.379 974.812 234 220 204
280.443 -53.879 975.109 235 221 205
280.943 -60.379 970.878 232 215 199
280.943 -59.879 971.077 233 217 201
280.943 -59.379 971.274 233 217 201
280.943 -58.879 971.531 236 219 201
280.943 -58.379 971.782 235 219 201
280.943 -57.879 972.029 237 222 204
280.943 -57.379 972.340 236 221 202
280.943 -56.879 972.704 237 222 204
280.943 -56.379 973.080 238 223 205
280.943 -55.879 973.342 239 223 207
280.943 -55.379 973.875 236 220 205
280.943 -54.879 974.341 230 213 197
280.943 -54.379 974.676 219 203 187
280.943 -53.879 974.989 226 210 194
281.443 -60.379 970.810 231 213 195
281.443 -59.879 970.962 233 217 198
281.443 -59.379 971.169 225 208 192
281.443 -58.879 971.394 232 213 195
281.443 -58.379 971.636 222 205 187
281.443 -57.879 971.907 231 213 195
281.443 -57.379 972.218 232 216 197
281.443 -56.879 972.593 235 220 201
281.443 -56.379 972.997 236 221 202
281.443 -55.879 973.318 237 222 204
281.443 -55.379 973.799 231 215 196
281.443 -54.879 974.174 217 202 183
281.443 -54.379 974.544 179 163 144
281.443 -53.879 974.832 190 175 156
281.943 -60.379 970.754 222 205 187
281.943 -59.879 970.872 231 213 195
281.943 -59.379 971.054 217 200 182
281.943 -58.879 971.314 197 179 161
281.943 -58.379 971.530 172 153 136
281.943 -57.879 971.787 207 190 172
281.943 -57.379 972.105 227 210 192
281.943 -56.879 972.499 234 219 199
281.943 -56.379 972.871 237 222 202
281.943 -55.879 973.237 236 221 202
281.943 -55.379 973.634 233 218 199
281.943 -54.879 974.031 212 197 178
281.943 -54.379 974.442 168 152 133
281.943 -53.879 974.716 188 173 154
281.943 -53.379 975.049 233 217 198
282.443 -60.379 970.648 208 189 172
282.443 -59.879 970.779 196 179 161
282.443 -59.379 970.966 198 180 162
282.443 -58.879 971.200 177 156 137
282.443 -58.379 971.431 181 161 142
282.443 -57.879 971.721 213 195 175
282.443 -57.379 972.056 233 216 196
282.443 -56.879 972.440 238 222 201
282.443 -56.379 972.771 238 223 202
282.443 -55.879 973.173 238 221 204
282.443 -55.379 973.539 236 219 201
282.443 -54.879 973.897 231 213 195
282.443 -54.379 974.264 208 191 173
282.443 -53.879 974.569 222 205 187
282.443 -53.379 974.878 236 219 201
282.943 -60.379 970.559 217 198 181
282.943 -59.879 970.690 197 179 161
282.943 -59.379 970.878 198 179 162
282.943 -58.879 971.085 196 179 158
282.943 -58.379 971.351 211 193 173
282.943 -57.879 971.692 225 207 187
282.943 -57.379 972.034 238 221 201
282.943 -56.879 972.383 240 223 204
282.943 -56.379 972.711 239 222 202
282.943 -55.879 973.098 239 224 205
282.943 -55.379 973.442 239 224 205
282.943 -54.879 973.747 238 223 205
282.943 -54.379 974.071 235 219 204
282.943 -53.879 974.373 232 215 199
282.943 -53.379 974.711 228 212 196
282.943 -52.879 975.063 235 222 205
283.443 -60.379 970.521 205 186 170
283.443 -59.879 970.637 198 179 162
283.443 -59.379 970.837 208 189 172
283.443 -58.879 971.040 225 207 187
283.443 -58.379 971.291 227 209 189
283.443 -57.879 971.635 230 211 191
283.443 -57.379 971.992 237 220 200
283.443 -56.879 972.343 237 220 200
283.443 -56.379 972.640 238 221 201
283.443 -55.879 973.009 240 225 206
283.443 -55.379 973.306 240 225 206
283.443 -54.879 973.633 240 225 206
283.443 -54.379 973.946 239 226 208
283.443 -53.879 974.265 231 217 200
283.443 -53.379 974.675 226 213 196
283.443 -52.879 975.034 237 224 207
283.943 -60.379 970.506 214 196 178
283.943 -59.879 970.612 192 173 156
283.943 -59.379 970.790 202 184 166
283.943 -58.879 970.984 213 195 175
283.943 -58.379 971.241 215 197 177
283.943 -57.879 971.581 209 191 171
283.943 -57.379 971.904 233 215 195
283.943 -56.879 972.241 238 221 201
283.943 -56.379 972.546 238 221 201
283.943 -55.879 972.927 239 223 205
283.943 -55.379 973.211 239 224 205
283.943 -54.879 973.572 240 225 206
283.943 -54.379 973.886 236 222 205
283.943 -53.879 974.235 237 224 207
283.943 -53.379 974.601 237 224 207
283.943 -52.879 974.922 237 224 207
284.443 -60.379 970.512 214 195 177
284.443 -59.879 970.629 179 160 143
284.443 -59.379 970.764 195 176 159
284.443 -58.879 970.951 206 187 171
284.443 -58.379 971.234 214 195 178
284.443 -57.879 971.561 201 183 165
284.443 -57.379 971.824 210 193 174
284.443 -56.879 972.123 235 218 198
284.443 -56.379 972.461 238 221 201
284.443 -55.879 972.873 238 221 201
284.443 -55.379 973.135 238 222 202
284.443 -54.879 973.516 239 223 205
284.443 -54.379 973.847 239 224 205
284.443 -53.879 974.186 238 224 206
284.443 -53.379 974.486 238 224 206
284.443 -52.879 974.733 238 225 208
284.943 -60.379 970.493 219 200 183
284.943 -59.879 970.638 198 179 162
284.943 -59.379 970.769 200 181 164
284.943 -58.879 970.915 177 158 143
284.943 -58.379 971.185 175 156 141
284.943 -57.879 971.488 183 163 146
284.943 -57.379 971.778 204 187 170
284.943 -56.879 972.084 230 212 192
284.943 -56.379 972.382 234 217 197
284.943 -55.879 972.818 236 219 199
284.943 -55.379 973.084 237 220 200
284.943 -54.879 973.398 237 220 200
284.943 -54.379 973.769 236 220 201
284.943 -53.879 974.117 239 224 205
284.943 -53.379 974.443 238 223 205
284.943 -52.879 974.631 239 224 205
284.943 -52.379 975.010 237 222 204
285.443 -60.379 970.454 222 203 186
285.443 -59.879 970.633 214 195 178
285.443 -59.379 970.772 186 168 150
285.443 -58.879 970.879 158 139 125
285.443 -58.379 971.104 179 160 145
285.443 -57.879 971.384 202 184 166
285.443 -57.379 971.709 227 210 192
285.443 -56.879 972.027 227 210 190
285.443 -56.379 972.280 226 209 189
285.443 -55.879 972.653 227 210 190
285.443 -55.379 973.006 228 211 191
285.443 -54.879 973.304 236 219 199
285.443 -54.379 973.676 237 221 202
285.443 -53.879 974.050 237 222 204
285.443 -53.379 974.327 237 222 204
285.443 -52.879 974.590 237 222 204
285.443 -52.379 974.988 233 217 198
285.943 -60.379 970.438 219 201 183
285.943 -59.879 970.617 214 195 178
285.943 -59.379 970.760 173 155 139
285.943 -58.879 970.874 145 127 113
285.943 -58.379 971.066 151 133 118
285.943 -57.879 971.345 173 156 140
285.943 -57.379 971.645 218 201 183
285.943 -56.879 971.934 232 214 194
285.943 -56.379 972.202 214 197 177
285.943 -55.879 972.509 207 190 171
285.943 -55.379 972.867 225 208 188
285.943 -54.879 973.229 232 214 194
285.943 -54.379 973.555 231 214 194
285.943 -53.879 973.888 224 209 190
285.943 -53.379 974.145 232 216 197
285.943 -52.879 974.527 233 217 198
285.943 -52.379 974.959 228 213 194
286.443 -60.379 970.443 221 202 185
286.443 -59.879 970.588 220 203 187
286.443 -59.379 970.749 188 172 157
286.443 -58.879 970.870 145 129 116
286.443 -58.379 971.054 137 121 107
286.443 -57.879 971.288 163 147 132
286.443 -57.379 971.591 218 201 185
286.443 -56.879 971.853 231 213 197
286.443 -56.379 972.137 232 214 196
286.443 -55.879 972.475 223 208 187
286.443 -55.379 972.771 228 213 193
286.443 -54.879 973.113 230 214 195
286.443 -54.379 973.419 227 212 193
286.443 -53.879 973.705 205 189 172
286.443 -53.379 974.008 218 202 186
286.443 -52.879 974.425 205 189 172
286.443 -52.379 974.822 209 192 174
286.943 -60.379 970.436 222 203 186
286.943 -59.879 970.554 221 204 188
286.943 -59.379 970.728 185 169 154
286.943 -58.879 970.854 144 128 116
286.943 -58.379 971.017 139 123 110
286.943 -57.879 971.202 160 144 129
286.943 -57.379 971.493 218 200 186
286.943 -56.879 971.774 233 215 199
286.943 -56.379 972.101 231 213 195
286.943 -55.879 972.408 233 217 198
286.943 -55.379 972.668 228 213 194
286.943 -54.879 972.997 231 215 196
286.943 -54.379 973.296 228 213 194
286.943 -53.879 973.621 230 213 197
286.943 -53.379 973.934 221 205 189
286.943 -52.879 974.331 192 175 159
286.943 -52.379 974.682 181 164 148
287.443 -60.379 970.428 221 202 185
287.443 -59.879 970.535 219 202 186
287.443 -59.379 970.662 177 161 145
287.443 -58.879 970.798 144 128 116
287.443 -58.379 970.959 138 122 109
287.443 -57.879 971.139 142 126 113
287.443 -57.379 971.412 193 175 161
287.443 -56.879 971.710 228 210 195
287.443 -56.379 972.039 232 214 196
287.443 -55.879 972.299 230 214 195
287.443 -55.379 972.530 228 213 194
287.443 -54.879 972.860 222 207 188
287.443 -54.379 973.167 228 212 196
287.443 -53.879 973.558 231 214 198
287.443 -53.379 973.857 227 211 195
287.443 -52.879 974.186 223 206 190
287.443 -52.379 974.564 198 181 165
287.943 -60.379 970.403 220 201 183
287.943 -59.879 970.503 220 203 187
287.943 -59.379 970.596 194 179 162
287.943 -58.879 970.744 147 131 118
287.943 -58.379 970.907 141 124 114
287.943 -57.879 971.097 140 123 113
287.943 -57.379 971.369 162 144 132
287.943 -56.879 971.628 218 200 185
287.943 -56.379 971.938 227 210 192
287.943 -55.879 972.206 223 208 189
287.943 -55.379 972.424 226 211 192
287.943 -54.879 972.757 228 213 195
287.943 -54.379 973.123 228 212 196
287.943 -53.879 973.511 226 210 194
287.943 -53.379 973.764 220 204 188
287.943 -52.879 974.016 226 209 194
287.943 -52.379 974.420 230 212 196
288.443 -60.379 970.369 218 198 181
288.443 -59.879 970.465 218 201 185
288.443 -59.379 970.578 205 189 173
288.443 -58.879 970.735 157 141 127
288.443 -58.379 970.872 142 125 116
288.443 -57.879 971.064 140 123 114
288.443 -57.379 971.330 148 130 120
288.443 -56.879 971.547 194 176 161
288.443 -56.379 971.838 220 203 186
288.443 -55.879 972.116 227 211 194
288.443 -55.379 972.326 224 208 192
288.443 -54.879 972.684 216 200 184
288.443 -54.379 973.078 222 206 190
288.443 -53.879 973.411 218 202 187
288.443 -53.379 973.690 195 179 164
288.443 -52.879 973.928 190 174 159
288.443 -52.379 974.321 192 174 159
288.943 -60.379 970.333 216 197 179
288.943 -59.879 970.420 218 200 184
288.943 -59.379 970.562 213 197 181
288.943 -58.879 970.732 173 157 143
288.943 -58.379 970.851 141 124 114
288.943 -57.879 971.010 137 120 112
288.943 -57.379 971.247 145 127 117
288.943 -56.879 971.495 158 140 128
288.943 -56.379 971.775 206 189 172
288.943 -55.879 972.025 226 210 194
288.943 -55.379 972.240 226 210 194
288.943 -54.879 972.572 214 198 182
288.943 -54.379 972.980 216 200 185
288.943 -53.879 973.268 216 200 185
288.943 -53.379 973.596 179 163 148
288.943 -52.879 973.845 164 148 133
288.943 -52.379 974.188 167 148 134
289.443 -60.379 970.298 218 197 178
289.443 -59.879 970.380 220 199 181
289.443 -59.379 970.538 218 198 180
289.443 -58.879 970.725 190 171 156
289.443 -58.379 970.840 151 132 118
289.443 -57.879 970.962 146 128 116
289.443 -57.379 971.174 154 136 122
289.443 -56.879 971.437 172 155 137
289.443 -56.379 971.707 213 198 177
289.443 -55.879 971.934 227 210 190
289.443 -55.379 972.168 227 210 192
289.443 -54.879 972.471 225 208 190
289.443 -54.379 972.849 223 206 190
289.443 -53.879 973.132 204 186 172
289.443 -53.379 973.467 158 140 128
289.443 -52.879 973.763 175 157 142
289.443 -52.379 974.063 196 179 163
289.943 -60.379 970.269 218 197 178
289.943 -59.879 970.356 219 198 179
289.943 -59.379 970.512 220 199 180
289.943 -58.879 970.701 212 193 177
289.943 -58.379 970.824 174 155 140
289.943 -57.879 970.949 163 145 131
289.943 -57.379 971.157 193 176 160
289.943 -56.879 971.385 209 192 174
289.943 -56.379 971.634 225 208 188
289.943 -55.879 971.863 225 208 190
289.943 -55.379 972.123 223 206 188
289.943 -54.879 972.415 222 205 188
289.943 -54.379 972.749 218 201 185
289.943 -53.879 973.011 197 179 165
289.943 -53.379 973.298 170 152 138
289.943 -52.879 973.610 169 151 136
289.943 -52.379 973.928 198 181 165
290.443 -60.379 970.230 218 197 178
290.443 -59.879 970.329 218 197 178
290.443 -59.379 970.483 220 199 180
290.443 -58.879 970.658 222 203 186
290.443 -58.379 970.795 213 194 178
290.443 -57.879 970.930 194 175 159
290.443 -57.379 971.111 211 193 177
290.443 -56.879 971.310 224 207 189
290.443 -56.379 971.557 226 209 190
290.443 -55.879 971.780 221 204 186
290.443 -55.379 972.072 215 198 180
290.443 -54.879 972.388 190 173 157
290.443 -54.379 972.705 192 175 159
290.443 -53.879 972.923 196 179 164
290.443 -53.379 973.175 180 162 148
290.443 -52.879 973.441 172 154 139
290.443 -52.379 973.765 176 159 143
290.943 -60.379 970.168 219 198 179
290.943 -59.879 970.281 217 196 177
290.943 -59.379 970.437 220 199 180
290.943 -58.879 970.595 222 201 184
290.943 -58.379 970.738 224 204 187
290.943 -57.879 970.873 223 204 187
290.943 -57.379 971.020 221 202 185
290.943 -56.879 971.221 224 206 188
290.943 -56.379 971.428 224 207 189
290.943 -55.879 971.675 213 196 180
290.943 -55.379 971.992 189 172 156
290.943 -54.879 972.290 148 131 116
290.943 -54.379 972.606 153 136 120
290.943 -53.879 972.844 199 183 166
290.943 -53.379 973.114 202 184 171
290.943 -52.879 973.359 208 190 176
290.943 -52.379 973.657 198 181 165
291.443 -60.379 970.102 220 199 180
291.443 -59.879 970.212 216 195 176
291.443 -59.379 970.358 220 199 180
291.443 -58.879 970.506 221 200 183
291.443 -58.379 970.653 225 204 185
291.443 -57.879 970.786 223 205 185
291.443 -57.379 970.918 218 200 180
291.443 -56.879 971.151 221 202 185
291.443 -56.379 971.353 218 199 184
291.443 -55.879 971.628 191 174 158
291.443 -55.379 971.903 172 155 139
291.443 -54.879 972.115 156 139 123
291.443 -54.379 972.437 169 152 136
291.443 -53.879 972.735 213 196 180
291.443 -53.379 973.027 215 198 182
291.443 -52.879 973.303 208 191 175
291.443 -52.379 973.580 203 186 171
291.943 -60.379 970.051 220 199 180
291.943 -59.879 970.129 217 196 177
291.943 -59.379 970.255 218 197 178
291.943 -58.879 970.417 220 199 181
291.943 -58.379 970.559 223 202 183
291.943 -57.879 970.704 226 205 184
291.943 -57.379 970.846 221 203 183
291.943 -56.879 971.067 221 202 183
291.943 -56.379 971.312 221 202 187
291.943 -55.879 971.577 203 186 171
291.943 -55.379 971.786 198 181 165
291.943 -54.879 971.997 212 195 179
291.943 -54.379 972.294 219 202 186
291.943 -53.879 972.583 220 203 187
291.943 -53.379 972.915 221 204 188
291.943 -52.879 973.216 213 196 180
291.943 -52.379 973.455 212 195 179
292.443 -60.379 969.992 220 201 182
292.443 -59.879 970.050 219 200 180
292.443 -59.379 970.173 219 200 180
292.443 -58.879 970.344 220 199 180
292.443 -58.379 970.485 221 200 180
292.443 -57.879 970.645 225 204 183
292.443 -57.379 970.792 225 205 184
292.443 -56.879 970.935 223 205 186
292.443 -56.379 971.201 225 206 190
292.443 -55.879 971.443 218 201 185
292.443 -55.379 971.646 209 192 176
292.443 -54.879 971.914 220 203 187
292.443 -54.379 972.159 217 200 184
292.443 -53.879 972.421 216 199 183
292.443 -53.379 972.773 215 198 182
292.443 -52.879 973.079 211 194 178
292.443 -52.379 973.290 210 193 176
292.943 -60.379 969.933 221 203 183
292.943 -59.879 969.995 218 200 180
292.943 -59.379 970.111 218 200 180
292.943 -58.879 970.273 220 199 180
292.943 -58.379 970.426 219 198 178
292.943 -57.879 970.563 222 201 180
292.943 -57.379 970.737 222 201 180
292.943 -56.879 970.857 225 207 188
292.943 -56.379 971.074 225 206 189
292.943 -55.879 971.282 218 201 185
292.943 -55.379 971.489 209 192 176
292.943 -54.879 971.774 205 188 172
292.943 -54.379 972.002 212 195 179
292.943 -53.879 972.273 213 196 180
292.943 -53.379 972.591 207 190 174
292.943 -52.879 972.904 197 180 164
292.943 -52.379 973.143 191 174 158
293.443 -60.379 969.892 221 203 183
293.443 -59.879 969.945 218 200 180
293.443 -59.379 970.037 217 199 179
293.443 -58.879 970.210 219 198 179
293.443 -58.379 970.364 218 197 176
293.443 -57.879 970.455 218 197 176
293.443 -57.379 970.649 220 199 178
293.443 -56.879 970.814 219 201 182
293.443 -56.379 970.958 223 204 187
293.443 -55.879 971.145 217 200 184
293.443 -55.379 971.340 210 193 177
293.443 -54.879 971.596 190 173 157
293.443 -54.379 971.820 199 183 166
293.443 -53.879 972.101 208 191 175
293.443 -53.379 972.410 200 184 167
293.443 -52.879 972.700 191 174 158
293.443 -52.379 972.984 175 158 142
293.943 -60.379 969.852 220 202 182
293.943 -59.879 969.902 217 199 179
293.943 -59.379 969.996 215 197 177
293.943 -58.879 970.150 217 196 177
293.943 -58.379 970.299 218 197 176
293.943 -57.879 970.378 216 195 174
293.943 -57.379 970.515 222 201 180
293.943 -56.879 970.695 221 203 183
293.943 -56.379 970.831 223 204 187
293.943 -55.879 971.024 207 190 174
293.943 -55.379 971.227 198 181 165
293.943 -54.879 971.437 191 174 158
293.943 -54.379 971.661 183 166 149
293.943 -53.879 971.952 198 181 165
293.943 -53.379 972.226 205 188 172
293.943 -52.879 972.469 203 186 171
293.943 -52.379 972.740 204 187 171
294.443 -60.379 969.815 218 200 180
294.443 -59.879 969.880 218 200 180
294.443 -59.379 969.988 214 196 176
294.443 -58.879 970.090 214 193 174
294.443 -58.379 970.213 221 200 179
294.443 -57.879 970.316 222 201 180
294.443 -57.379 970.389 223 202 181
294.443 -56.879 970.539 222 203 184
294.443 -56.379 970.697 223 204 187
294.443 -55.879 970.891 216 199 183
294.443 -55.379 971.085 196 179 163
294.443 -54.879 971.271 203 186 171
294.443 -54.379 971.533 193 176 160
294.443 -53.879 971.836 194 177 161
294.443 -53.379 972.043 207 190 174
294.443 -52.879 972.281 208 191 175
294.443 -52.379 972.478 202 185 171
294.943 -60.379 969.792 217 199 179
294.943 -59.879 969.857 217 199 179
294.943 -59.379 969.957 215 197 177
294.943 -58.879 970.042 211 190 171
294.943 -58.379 970.130 211 190 170
294.943 -57.879 970.240 220 199 178
294.943 -57.379 970.315 223 202 181
294.943 -56.879 970.433 220 201 182
294.943 -56.379 970.576 220 201 184
294.943 -55.879 970.752 212 195 179
294.943 -55.379 970.934 199 183 166
294.943 -54.879 971.122 194 177 161
294.943 -54.379 971.405 197 180 164
294.943 -53.879 971.697 200 184 167
294.943 -53.379 971.912 211 194 178
294.943 -52.879 972.165 212 194 179
294.943 -52.379 972.308 198 180 166
295.443 -60.379 969.770 217 199 179
295.443 -59.879 969.832 218 200 180
295.443 -59.379 969.910 217 199 179
295.443 -58.879 969.983 214 193 174
295.443 -58.379 970.061 209 188 167
295.443 -57.879 970.173 218 197 176
295.443 -57.379 970.271 223 202 181
295.443 -56.879 970.363 221 202 183
295.443 -56.379 970.487 219 201 182
295.443 -55.879 970.647 190 173 156
295.443 -55.379 970.822 176 159 143
295.443 -54.879 971.005 189 172 156
295.443 -54.379 971.291 203 186 171
295.443 -53.879 971.540 210 193 177
295.443 -53.379 971.804 209 192 176
295.443 -52.879 972.043 205 188 173
295.443 -52.379 972.198 188 170 156
295.943 -60.379 969.740 213 195 175
295.943 -59.879 969.802 216 198 178
295.943 -59.379 969.862 217 199 179
295.943 -58.879 969.917 217 196 175
295.943 -58.379 969.992 214 193 172
295.943 -57.879 970.101 217 196 175
295.943 -57.379 970.214 219 198 177
295.943 -56.879 970.293 223 202 181
295.943 -56.379 970.408 223 202 181
295.943 -55.879 970.544 215 197 178
295.943 -55.379 970.690 192 173 156
295.943 -54.879 970.881 180 161 146
295.943 -54.379 971.135 207 190 174
295.943 -53.879 971.368 219 202 186
295.943 -53.379 971.629 205 187 173
295.943 -52.879 971.863 177 160 145
295.943 -52.379 972.057 162 145 129
296.443 -60.379 969.712 211 193 173
296.443 -59.879 969.758 215 197 177
296.443 -59.379 969.814 218 200 180
296.443 -58.879 969.872 216 195 174
296.443 -58.379 969.926 213 192 171
296.443 -57.879 970.003 214 193 172
296.443 -57.379 970.127 210 189 168
296.443 -56.879 970.231 221 200 179
296.443 -56.379 970.321 222 201 180
296.443 -55.879 970.428 219 200 183
296.443 -55.379 970.554 213 194 177
296.443 -54.879 970.760 187 168 153
296.443 -54.379 970.945 196 179 163
296.443 -53.879 971.169 205 188 172
296.443 -53.379 971.402 210 192 177
296.443 -52.879 971.661 202 184 170
296.443 -52.379 971.878 202 185 170
296.943 -60.379 969.695 215 197 177
296.943 -59.879 969.725 216 198 178
296.943 -59.379 969.769 220 202 182
296.943 -58.879 969.824 218 197 178
296.943 -58.379 969.870 213 192 173
296.943 -57.879 969.925 217 196 177
296.943 -57.379 970.049 210 189 171
296.943 -56.879 970.168 219 198 179
296.943 -56.379 970.252 218 197 178
296.943 -55.879 970.326 217 198 181
296.943 -55.379 970.464 217 198 181
296.943 -54.879 970.642 195 176 159
296.943 -54.379 970.820 163 146 130
296.943 -53.879 970.997 184 168 151
296.943 -53.379 971.188 214 197 181
296.943 -52.879 971.444 213 196 180
296.943 -52.379 971.718 205 188 172
297.443 -60.379 969.676 215 197 177
297.443 -59.879 969.706 215 197 177
