324.943 21.621 965.268 123 116 113
324.943 22.121 965.019 113 105 103
324.943 22.621 964.680 108 103 100
324.943 23.121 964.358 112 107 105
324.943 23.621 964.136 117 110 110
325.443 20.621 965.760 129 120 116
325.443 21.121 965.395 123 116 112
325.443 21.621 965.129 122 115 112
325.443 22.121 964.883 121 113 111
325.443 22.621 964.550 119 113 110
325.443 23.121 964.265 116 109 109
325.443 23.621 964.001 115 108 108
325.943 20.121 965.968 128 118 111
325.943 20.621 965.631 123 112 106
325.943 21.121 965.264 122 112 110
325.943 21.621 965.005 118 109 106
325.943 22.121 964.749 120 111 109
325.943 22.621 964.438 119 113 110
325.943 23.121 964.176 116 109 109
325.943 23.621 963.878 116 111 110
326.443 20.121 965.846 136 121 113
326.443 20.621 965.521 131 118 110
326.443 21.121 965.179 132 120 113
326.443 21.621 964.898 120 108 103
326.443 22.121 964.561 119 108 103
326.443 22.621 964.281 121 112 110
326.443 23.121 964.034 118 108 106
326.443 23.621 963.720 109 103 100
326.943 19.621 966.026 167 148 136
326.943 20.121 965.748 164 146 135
326.943 20.621 965.450 163 146 136
326.943 21.121 965.123 145 128 120
326.943 21.621 964.829 136 122 113
326.943 22.121 964.418 134 121 113
326.943 22.621 964.125 131 119 116
326.943 23.121 963.858 127 118 113
326.943 23.621 963.529 116 105 103
327.443 19.621 965.917 170 151 136
327.443 20.121 965.659 172 153 139
327.443 20.621 965.341 169 150 137
327.443 21.121 965.032 170 152 141
327.443 21.621 964.698 166 147 137
327.443 22.121 964.262 144 129 119
327.443 22.621 963.969 147 134 126
327.443 23.121 963.700 145 133 127
327.443 23.621 963.406 125 115 109
327.943 19.121 966.001 169 148 131
327.943 19.621 965.754 179 159 142
327.943 20.121 965.504 184 164 149
327.943 20.621 965.162 177 158 143
327.943 21.121 964.880 160 139 126
327.943 21.621 964.529 162 142 130
327.943 22.121 964.125 171 153 143
327.943 22.621 963.842 169 151 141
327.943 23.121 963.575 168 150 142
327.943 23.621 963.329 144 129 122
328.443 19.121 965.798 174 156 141
328.443 19.621 965.574 184 164 149
328.443 20.121 965.310 186 168 152
328.443 20.621 964.997 186 168 153
328.443 21.121 964.719 179 159 145
328.443 21.621 964.420 163 144 131
328.443 22.121 964.062 158 140 128
328.443 22.621 963.745 156 138 127
328.443 23.121 963.459 162 145 135
328.443 23.621 963.194 171 155 146
328.943 18.621 965.930 147 131 120
328.943 19.121 965.616 159 140 128
328.943 19.621 965.388 168 149 135
328.943 20.121 965.106 168 148 134
328.943 20.621 964.842 172 153 139
328.943 21.121 964.572 185 168 153
328.943 21.621 964.270 181 163 149
328.943 22.121 963.923 168 149 137
328.943 22.621 963.609 150 134 121
328.943 23.121 963.315 147 131 119
328.943 23.621 962.998 154 137 127
329.443 18.121 966.037 140 126 116
329.443 18.621 965.655 142 125 116
329.443 19.121 965.405 155 137 124
329.443 19.621 965.182 168 149 135
329.443 20.121 964.915 155 137 125
329.443 20.621 964.664 153 135 123
329.443 21.121 964.344 169 151 139
329.443 21.621 963.991 177 159 147
329.443 22.121 963.682 168 152 139
329.443 22.621 963.413 168 152 139
329.443 23.121 963.112 170 153 141
329.443 23.621 962.776 172 155 145
329.943 18.121 965.782 166 147 137
329.943 18.621 965.433 162 144 132
329.943 19.121 965.209 171 152 140
329.943 19.621 964.980 175 157 144
329.943 20.121 964.721 167 148 136
329.943 20.621 964.390 162 145 135
329.943 21.121 964.046 161 144 134
329.943 21.621 963.707 155 138 129
329.943 22.121 963.430 146 129 119
329.943 22.621 963.180 153 136 126
329.943 23.121 962.885 161 144 134
329.943 23.621 962.568 167 149 139
330.443 17.621 965.839 177 158 145
330.443 18.121 965.536 185 164 151
330.443 18.621 965.244 184 163 149
330.443 19.121 965.022 183 162 148
330.443 19.621 964.776 177 159 146
330.443 20.121 964.489 166 147 137
330.443 20.621 964.117 154 137 128
330.443 21.121 963.790 157 141 134
330.443 21.621 963.508 167 149 141
330.443 22.121 963.215 159 142 134
330.443 22.621 962.892 155 138 130
330.443 23.121 962.612 162 145 137
330.443 23.621 962.310 157 140 132
330.943 17.121 965.866 170 152 138
330.943 17.621 965.556 184 164 150
330.943 18.121 965.271 187 168 154
330.943 18.621 965.031 180 161 147
330.943 19.121 964.811 159 141 129
330.943 19.621 964.548 160 143 132
330.943 20.121 964.220 150 133 123
330.943 20.621 963.864 147 130 121
330.943 21.121 963.538 150 133 126
330.943 21.621 963.269 146 129 122
330.943 22.121 962.959 142 127 120
330.943 22.621 962.622 142 128 119
330.943 23.121 962.325 153 139 130
330.943 23.621 962.033 153 139 130
331.443 16.621 965.794 169 151 136
331.443 17.121 965.568 180 161 146
331.443 17.621 965.301 180 159 145
331.443 18.121 965.021 180 158 145
331.443 18.621 964.800 173 154 140
331.443 19.121 964.570 164 145 132
331.443 19.621 964.288 162 144 134
331.443 20.121 963.932 160 143 133
331.443 20.621 963.598 152 135 125
331.443 21.121 963.302 145 128 120
331.443 21.621 963.004 146 131 124
331.443 22.121 962.725 144 129 122
331.443 22.621 962.435 133 119 111
331.443 23.121 962.145 136 122 114
331.443 23.621 961.877 132 119 111
331.943 16.121 965.754 154 135 120
331.943 16.621 965.495 172 153 138
331.943 17.121 965.299 184 164 147
331.943 17.621 965.024 184 163 148
331.943 18.121 964.780 171 149 135
331.943 18.621 964.560 162 140 126
331.943 19.121 964.297 168 148 135
331.943 19.621 963.992 166 147 135
331.943 20.121 963.678 161 143 131
331.943 20.621 963.418 159 142 132
331.943 21.121 963.106 158 144 135
331.943 21.621 962.787 159 145 136
331.943 22.121 962.545 151 136 129
331.943 22.621 962.275 143 130 122
331.943 23.121 962.054 144 131 125
331.943 23.621 961.744 129 117 110
332.443 15.621 965.726 173 151 137
332.443 16.121 965.402 179 157 141
332.443 16.621 965.158 187 167 149
332.443 17.121 964.968 188 168 150
332.443 17.621 964.716 194 172 158
332.443 18.121 964.490 192 170 156
332.443 18.621 964.266 184 161 148
332.443 19.121 963.990 177 157 144
332.443 19.621 963.716 167 148 136
332.443 20.121 963.489 155 137 126
332.443 20.621 963.250 154 137 126
332.443 21.121 962.928 159 145 134
332.443 21.621 962.600 162 148 137
332.443 22.121 962.350 161 148 139
332.443 22.621 962.134 168 155 147
332.443 23.121 961.903 160 147 141
332.443 23.621 961.603 143 130 125
332.943 15.621 965.407 181 159 145
332.943 16.121 965.087 194 172 158
332.943 16.621 964.838 184 166 150
332.943 17.121 964.627 170 151 136
332.943 17.621 964.409 176 157 143
332.943 18.121 964.188 183 163 149
332.943 18.621 963.938 189 170 156
332.943 19.121 963.698 195 177 165
332.943 19.621 963.487 193 175 165
332.943 20.121 963.264 167 149 139
332.943 20.621 963.013 150 133 123
332.943 21.121 962.724 158 142 129
332.943 21.621 962.445 161 144 134
332.943 22.121 962.198 163 149 139
332.943 22.621 961.991 170 156 147
332.943 23.121 961.707 166 151 142
332.943 23.621 961.466 166 150 142
333.443 15.621 965.110 167 146 131
333.443 16.121 964.818 189 170 155
333.443 16.621 964.569 184 166 150
333.443 17.121 964.339 167 149 133
333.443 17.621 964.141 160 141 128
333.443 18.121 963.916 151 133 121
333.443 18.621 963.641 161 143 131
333.443 19.121 963.448 155 138 128
333.443 19.621 963.239 156 141 132
333.443 20.121 962.959 163 149 140
333.443 20.621 962.703 177 162 152
333.443 21.121 962.491 184 167 154
333.443 21.621 962.276 184 167 154
333.443 22.121 962.038 179 162 149
333.443 22.621 961.787 169 153 141
333.443 23.121 961.525 168 150 139
333.443 23.621 961.304 164 149 137
333.943 15.621 964.782 187 168 153
333.943 16.121 964.552 192 174 159
333.943 16.621 964.310 188 170 156
333.943 17.121 964.101 179 160 146
333.943 17.621 963.897 171 153 140
333.943 18.121 963.651 155 138 126
333.943 18.621 963.418 154 137 127
333.943 19.121 963.208 143 129 120
333.943 19.621 962.943 131 117 109
333.943 20.121 962.649 118 104 97
333.943 20.621 962.428 128 116 108
333.943 21.121 962.257 148 131 121
333.943 21.621 962.046 161 144 134
333.943 22.121 961.776 172 154 144
333.943 22.621 961.510 172 154 143
333.943 23.121 961.309 180 164 150
333.943 23.621 961.083 168 151 136
334.443 15.621 964.498 188 169 155
334.443 16.121 964.298 188 171 156
334.443 16.621 964.100 175 158 145
334.443 17.121 963.876 172 156 142
334.443 17.621 963.619 179 162 148
334.443 18.121 963.426 167 151 138
334.443 18.621 963.205 158 144 133
334.443 19.121 962.928 140 127 118
334.443 19.621 962.644 136 125 119
334.443 20.121 962.419 125 115 111
334.443 20.621 962.275 125 115 112
334.443 21.121 962.074 120 107 100
334.443 21.621 961.849 137 122 116
334.443 22.121 961.536 147 130 123
334.443 22.621 961.293 145 128 120
334.443 23.121 961.129 166 147 138
334.443 23.621 960.904 184 164 154
334.943 15.621 964.271 171 153 141
334.943 16.121 964.056 169 153 141
334.943 16.621 963.845 162 145 135
334.943 17.121 963.584 151 137 126
334.943 17.621 963.348 171 154 144
334.943 18.121 963.189 187 170 160
334.943 18.621 962.956 180 163 155
334.943 19.121 962.684 167 151 143
334.943 19.621 962.414 146 133 125
334.943 20.121 962.218 137 124 116
334.943 20.621 962.083 139 126 120
334.943 21.121 961.894 130 117 107
334.943 21.621 961.604 130 117 107
334.943 22.121 961.325 138 124 116
334.943 22.621 961.131 148 131 123
334.943 23.121 960.950 161 144 136
334.943 23.621 960.694 163 144 137
335.443 15.621 964.029 142 125 116
335.443 16.121 963.817 140 125 116
335.443 16.621 963.575 151 136 128
335.443 17.121 963.329 146 133 125
335.443 17.621 963.134 153 138 130
335.443 18.121 962.942 166 148 140
335.443 18.621 962.727 167 149 141
335.443 19.121 962.489 177 163 154
335.443 19.621 962.251 179 166 156
335.443 20.121 962.039 168 154 145
335.443 20.621 961.806 169 156 147
335.443 21.121 961.578 156 142 133
335.443 21.621 961.314 154 140 131
335.443 22.121 961.115 152 138 129
335.443 22.621 960.924 155 138 130
335.443 23.121 960.682 152 135 127
335.443 23.621 960.405 149 132 125
335.943 15.621 963.799 138 124 116
335.943 16.121 963.587 137 122 116
335.943 16.621 963.357 140 127 121
335.943 17.121 963.157 138 126 120
335.943 17.621 962.955 142 129 122
335.943 18.121 962.726 152 137 130
335.943 18.621 962.488 142 127 120
335.943 19.121 962.246 143 129 121
335.943 19.621 962.040 154 140 131
335.943 20.121 961.840 160 147 138
335.943 20.621 961.558 168 154 143
335.943 21.121 961.306 176 162 153
335.943 21.621 961.125 179 164 155
335.943 22.121 960.953 184 170 161
335.943 22.621 960.681 179 166 156
335.943 23.121 960.414 156 141 133
335.943 23.621 960.195 141 125 117
336.443 15.621 963.572 142 129 121
336.443 16.121 963.351 142 130 124
336.443 16.621 963.142 142 131 125
336.443 17.121 962.929 138 128 123
336.443 17.621 962.689 142 131 126
336.443 18.121 962.441 146 134 128
336.443 18.621 962.225 143 131 125
336.443 19.121 962.011 137 125 118
336.443 19.621 961.791 135 123 116
336.443 20.121 961.551 140 128 120
336.443 20.621 961.345 138 125 116
336.443 21.121 961.124 138 123 116
336.443 21.621 960.920 140 125 117
336.443 22.121 960.726 155 141 132
336.443 22.621 960.398 179 166 156
336.443 23.121 960.186 179 166 155
336.443 23.621 959.979 164 150 140
336.943 15.621 963.283 140 129 120
336.943 16.121 963.069 138 127 121
336.943 16.621 962.897 137 128 121
336.943 17.121 962.711 134 125 120
336.943 17.621 962.469 144 135 130
336.943 18.121 962.204 145 136 131
336.943 18.621 961.999 143 134 129
336.943 19.121 961.802 138 127 123
336.943 19.621 961.557 132 121 116
336.943 20.121 961.271 135 124 118
336.943 20.621 961.059 134 121 116
336.943 21.121 960.874 131 117 111
336.943 21.621 960.683 130 116 108
336.943 22.121 960.414 133 119 111
336.943 22.621 960.107 149 135 126
336.943 23.121 959.903 154 142 130
336.943 23.621 959.711 169 157 143
337.443 15.621 963.011 152 139 133
337.443 16.121 962.831 147 134 128
337.443 16.621 962.642 144 131 125
337.443 17.121 962.455 143 129 126
337.443 17.621 962.275 144 131 126
337.443 18.121 962.030 151 138 132
337.443 18.621 961.815 143 130 124
337.443 19.121 961.581 137 126 122
337.443 19.621 961.336 136 125 121
337.443 20.121 961.069 138 127 123
337.443 20.621 960.820 140 131 126
337.443 21.121 960.609 131 121 117
337.443 21.621 960.380 121 111 107
337.443 22.121 960.131 117 105 102
337.443 22.621 959.900 129 118 113
337.443 23.121 959.681 138 126 119
337.443 23.621 959.434 145 132 124
337.943 15.621 962.773 157 142 135
337.943 16.121 962.620 151 138 130
337.943 16.621 962.391 153 140 133
337.943 17.121 962.171 160 147 141
337.943 17.621 962.018 156 143 137
337.943 18.121 961.813 154 141 135
337.943 18.621 961.584 144 131 125
337.943 19.121 961.345 136 125 120
337.943 19.621 961.111 138 127 123
337.943 20.121 960.844 148 137 132
337.943 20.621 960.589 141 130 126
337.943 21.121 960.303 131 122 117
337.943 21.621 960.064 128 119 116
337.943 22.121 959.893 115 104 103
337.943 22.621 959.686 119 107 103
337.943 23.121 959.467 136 125 121
337.943 23.621 959.170 139 129 121
338.443 15.621 962.534 153 139 129
338.443 16.121 962.351 154 140 130
338.443 16.621 962.144 152 138 128
338.443 17.121 961.967 157 143 134
338.443 17.621 961.782 160 147 138
338.443 18.121 961.560 156 142 134
338.443 18.621 961.337 149 135 128
338.443 19.121 961.108 143 130 123
338.443 19.621 960.817 146 134 127
338.443 20.121 960.532 149 137 131
338.443 20.621 960.288 145 133 127
338.443 21.121 960.028 137 130 124
338.443 21.621 959.847 134 125 122
338.443 22.121 959.640 126 117 114
338.443 22.621 959.391 124 115 112
338.443 23.121 959.192 139 130 125
338.443 23.621 958.928 142 133 126
338.943 15.621 962.287 177 161 148
338.943 16.121 962.072 168 151 138
338.943 16.621 961.864 168 154 141
338.943 17.121 961.680 179 166 152
338.943 17.621 961.477 169 155 145
338.943 18.121 961.269 167 152 143
338.943 18.621 961.058 159 145 136
338.943 19.121 960.805 144 130 121
338.943 19.621 960.509 145 132 124
338.943 20.121 960.259 149 136 128
338.943 20.621 960.037 140 128 122
338.943 21.121 959.829 136 127 121
338.943 21.621 959.642 135 126 121
338.943 22.121 959.416 137 127 125
338.943 22.621 959.146 135 125 123
338.943 23.121 958.911 141 131 129
338.943 23.621 958.650 146 137 132
339.443 15.621 961.996 180 162 148
339.443 16.121 961.738 170 154 141
339.443 16.621 961.536 168 152 139
339.443 17.121 961.340 164 148 135
339.443 17.621 961.154 161 144 134
339.443 18.121 960.969 168 151 141
339.443 18.621 960.724 164 147 137
339.443 19.121 960.471 159 145 135
339.443 19.621 960.259 154 140 131
339.443 20.121 960.031 161 147 138
339.443 20.621 959.798 156 142 133
339.443 21.121 959.594 140 129 122
339.443 21.621 959.390 139 128 122
339.443 22.121 959.146 144 133 128
339.443 22.621 958.909 141 130 126
339.443 23.121 958.641 143 134 129
339.443 23.621 958.402 145 136 130
339.943 15.621 961.633 175 157 144
339.943 16.121 961.424 173 155 143
339.943 16.621 961.244 166 149 136
339.943 17.121 961.036 168 152 140
339.943 17.621 960.862 163 147 134
339.943 18.121 960.668 164 148 135
339.943 18.621 960.391 167 150 137
339.943 19.121 960.161 162 145 135
339.943 19.621 959.960 155 141 130
339.943 20.121 959.724 161 147 136
339.943 20.621 959.496 170 156 147
339.943 21.121 959.254 159 146 137
339.943 21.621 959.054 150 137 129
339.943 22.121 958.802 150 137 131
339.943 22.621 958.594 146 135 131
339.943 23.121 958.400 147 136 130
339.943 23.621 958.210 148 137 130
340.443 15.621 961.279 158 140 128
340.443 16.121 961.081 170 152 140
340.443 16.621 960.923 173 154 143
340.443 17.121 960.730 181 163 149
340.443 17.621 960.533 172 153 140
340.443 18.121 960.335 177 158 145
340.443 18.621 960.087 175 158 144
340.443 19.121 959.864 174 156 143
340.443 19.621 959.629 168 151 138
340.443 20.121 959.394 169 152 140
340.443 20.621 959.165 167 149 136
340.443 21.121 958.938 167 149 137
340.443 21.621 958.732 164 148 138
340.443 22.121 958.497 155 139 131
340.443 22.621 958.284 153 139 132
340.443 23.121 958.125 151 137 130
340.443 23.621 957.961 150 139 131
340.943 15.621 960.974 157 139 127
340.943 16.121 960.740 171 153 141
340.943 16.621 960.559 170 151 137
340.943 17.121 960.392 167 147 133
340.943 17.621 960.160 169 150 135
340.943 18.121 959.952 189 170 155
340.943 18.621 959.737 193 174 159
340.943 19.121 959.534 195 176 161
340.943 19.621 959.320 177 158 143
340.943 20.121 959.093 180 161 146
340.943 20.621 958.877 180 161 146
340.943 21.121 958.689 183 163 148
340.943 21.621 958.455 179 160 146
340.943 22.121 958.272 168 150 139
340.943 22.621 958.068 161 144 136
340.943 23.121 957.883 158 142 133
340.943 23.621 957.693 157 142 135
341.443 15.621 960.657 166 148 136
341.443 16.121 960.455 187 169 155
341.443 16.621 960.237 179 159 144
341.443 17.121 960.024 159 140 125
341.443 17.621 959.810 171 150 135
341.443 18.121 959.590 196 175 158
341.443 18.621 959.411 200 179 162
341.443 19.121 959.194 195 174 157
341.443 19.621 958.999 191 170 153
341.443 20.121 958.807 199 179 161
341.443 20.621 958.606 200 179 162
341.443 21.121 958.413 202 181 164
341.443 21.621 958.185 203 184 168
341.443 22.121 958.027 194 175 160
341.443 22.621 957.839 186 168 155
341.443 23.121 957.659 169 151 139
341.443 23.621 957.480 158 141 130
341.943 15.621 960.325 179 160 146
341.943 16.121 960.104 185 167 151
341.943 16.621 959.889 186 168 152
341.943 17.121 959.690 184 164 147
341.943 17.621 959.509 193 173 154
341.943 18.121 959.315 195 174 155
341.943 18.621 959.148 199 179 159
341.943 19.121 958.943 194 173 154
341.943 19.621 958.712 205 184 165
341.943 20.121 958.534 206 185 166
341.943 20.621 958.350 207 186 168
341.943 21.121 958.149 208 187 168
341.943 21.621 957.957 209 188 170
341.943 22.121 957.775 207 188 171
341.943 22.621 957.604 208 189 172
341.943 23.121 957.430 206 188 172
341.943 23.621 957.239 185 168 152
342.443 15.621 960.017 188 169 155
342.443 16.121 959.804 187 168 153
342.443 16.621 959.602 194 175 158
342.443 17.121 959.415 192 173 156
342.443 17.621 959.228 194 174 158
342.443 18.121 959.058 195 175 159
342.443 18.621 958.892 196 176 160
342.443 19.121 958.710 194 174 158
342.443 19.621 958.476 194 174 158
342.443 20.121 958.270 195 175 160
342.443 20.621 958.105 205 186 170
342.443 21.121 957.924 203 184 164
342.443 21.621 957.754 205 185 167
342.443 22.121 957.591 205 185 167
342.443 22.621 957.450 204 185 168
342.443 23.121 957.243 211 192 176
342.443 23.621 957.006 206 187 172
342.943 15.621 959.765 194 175 158
342.943 16.121 959.583 192 173 156
342.943 16.621 959.376 190 171 156
342.943 17.121 959.142 189 170 155
342.943 17.621 958.962 181 162 148
342.943 18.121 958.787 184 167 152
342.943 18.621 958.609 179 161 147
342.943 19.121 958.453 171 153 139
342.943 19.621 958.228 169 151 137
342.943 20.121 957.992 168 149 135
342.943 20.621 957.847 171 154 138
342.943 21.121 957.693 179 159 142
342.943 21.621 957.528 179 159 144
342.943 22.121 957.331 179 160 145
342.943 22.621 957.165 171 152 137
342.943 23.121 956.991 188 169 154
310.943 32.121 965.995 118 111 113
311.443 31.621 965.859 100 95 99
311.443 32.121 965.583 107 101 103
311.943 30.621 965.935 87 85 90
311.943 31.121 965.737 92 88 93
311.943 31.621 965.448 101 96 100
311.943 32.121 965.290 104 98 100
312.443 30.121 965.839 95 91 96
312.443 30.621 965.485 92 91 94
312.443 31.121 965.377 96 93 96
312.443 31.621 965.227 105 101 103
312.443 32.121 965.052 112 106 108
312.943 29.621 965.725 94 90 95
312.943 30.121 965.361 93 88 94
312.943 30.621 965.233 98 96 99
312.943 31.121 964.957 107 102 106
312.943 31.621 964.888 107 101 104
312.943 32.121 964.749 117 110 110
313.443 29.121 965.681 96 92 96
313.443 29.621 965.173 92 86 93
313.443 30.121 964.865 94 90 95
313.443 30.621 964.786 106 101 105
313.443 31.121 964.496 117 112 116
313.443 31.621 964.387 121 117 117
313.443 32.121 964.362 121 116 116
313.943 28.621 965.623 101 96 100
313.943 29.121 965.016 97 92 96
313.943 29.621 964.670 93 88 94
313.943 30.121 964.395 97 92 98
313.943 30.621 964.173 117 111 116
313.943 31.121 964.062 124 119 120
313.943 31.621 963.978 130 124 125
313.943 32.121 963.901 129 120 121
314.443 28.121 965.854 98 93 97
314.443 28.621 964.955 103 98 103
314.443 29.121 964.461 99 94 99
314.443 29.621 964.184 95 91 96
314.443 30.121 964.009 100 95 102
314.443 30.621 963.811 115 110 111
314.443 31.121 963.656 120 115 116
314.443 31.621 963.577 132 126 127
314.443 32.121 963.430 139 130 131
314.943 28.121 965.140 101 96 100
314.943 28.621 964.511 104 99 103
314.943 29.121 964.053 99 95 100
314.943 29.621 963.762 94 92 97
314.943 30.121 963.566 96 94 99
314.943 30.621 963.479 112 107 111
314.943 31.121 963.294 119 111 116
314.943 31.621 963.135 131 122 124
314.943 32.121 963.017 142 132 131
315.443 27.621 965.430 100 95 99
315.443 28.121 964.581 103 98 103
315.443 28.621 964.053 107 102 106
315.443 29.121 963.680 101 97 102
315.443 29.621 963.447 96 94 99
315.443 30.121 963.176 95 93 98
315.443 30.621 963.062 107 102 106
315.443 31.121 962.890 115 107 110
315.443 31.621 962.728 124 116 116
315.443 32.121 962.670 123 113 112
315.943 27.121 966.021 109 103 104
315.943 27.621 964.798 104 98 103
315.943 28.121 964.168 105 100 104
315.943 28.621 963.643 105 100 104
315.943 29.121 963.284 98 94 98
315.943 29.621 963.077 95 93 98
315.943 30.121 962.834 95 93 98
315.943 30.621 962.716 106 102 103
315.943 31.121 962.503 125 119 120
315.943 31.621 962.328 135 126 128
315.943 32.121 962.195 125 116 114
316.443 27.121 965.308 112 106 108
316.443 27.621 964.279 103 98 102
316.443 28.121 963.759 104 99 103
316.443 28.621 963.353 101 96 100
316.443 29.121 962.975 99 95 100
316.443 29.621 962.748 95 93 98
316.443 30.121 962.553 97 95 99
316.443 30.621 962.389 113 109 110
316.443 31.121 962.133 131 124 126
316.443 31.621 961.949 133 124 125
316.443 32.121 961.779 124 115 113
316.943 27.121 964.870 111 105 107
316.943 27.621 963.968 102 97 102
316.943 28.121 963.452 100 95 99
316.943 28.621 963.068 99 94 98
316.943 29.121 962.771 101 97 102
316.943 29.621 962.525 97 95 100
316.943 30.121 962.177 95 93 97
316.943 30.621 961.999 112 108 107
316.943 31.121 961.794 133 126 126
316.943 31.621 961.627 131 122 123
316.943 32.121 961.519 123 113 112
317.443 26.621 965.540 115 108 110
317.443 27.121 964.431 110 104 106
317.443 27.621 963.737 102 96 100
317.443 28.121 963.244 98 93 97
317.443 28.621 962.803 100 95 99
317.443 29.121 962.509 100 96 102
317.443 29.621 962.194 99 97 103
317.443 30.121 961.830 96 94 98
317.443 30.621 961.681 109 105 104
317.443 31.121 961.542 132 125 126
317.443 31.621 961.326 139 130 131
317.443 32.121 961.222 133 123 122
317.943 26.621 965.007 117 110 111
317.943 27.121 964.092 108 102 104
317.943 27.621 963.492 99 94 98
317.943 28.121 963.008 97 92 96
317.943 28.621 962.568 96 92 95
317.943 29.121 962.275 98 93 97
317.943 29.621 961.918 97 95 98
317.943 30.121 961.655 103 100 103
317.943 30.621 961.518 116 110 109
317.943 31.121 961.317 132 125 125
317.943 31.621 961.086 142 133 134
317.943 32.121 960.941 140 130 129
318.443 26.121 965.542 112 106 106
318.443 26.621 964.469 112 106 106
318.443 27.121 963.783 107 101 103
318.443 27.621 963.258 98 93 97
318.443 28.121 962.760 95 91 94
318.443 28.621 962.411 95 91 94
318.443 29.121 962.101 95 90 93
318.443 29.621 961.752 100 94 96
318.443 30.121 961.509 109 103 105
318.443 30.621 961.378 120 115 112
318.443 31.121 961.145 127 122 119
318.443 31.621 960.907 131 123 121
318.443 32.121 960.710 135 127 125
318.943 26.121 964.991 115 108 108
318.943 26.621 964.085 112 106 106
318.943 27.121 963.549 103 97 100
318.943 27.621 963.062 100 95 99
318.943 28.121 962.613 98 94 95
318.943 28.621 962.343 97 93 94
318.943 29.121 962.001 98 92 94
318.943 29.621 961.608 104 98 98
318.943 30.121 961.383 119 112 112
318.943 30.621 961.255 124 119 116
318.943 31.121 961.043 127 122 119
318.943 31.621 960.831 127 120 117
318.943 32.121 960.526 129 121 119
319.443 25.121 966.034 120 115 114
319.443 25.621 965.542 119 113 113
319.443 26.121 964.616 118 111 111
319.443 26.621 963.860 112 106 106
319.443 27.121 963.330 102 97 97
319.443 27.621 962.850 101 97 98
319.443 28.121 962.488 102 98 99
319.443 28.621 962.215 111 105 107
319.443 29.121 961.925 119 113 113
319.443 29.621 961.559 120 115 114
319.443 30.121 961.319 124 117 116
319.443 30.621 961.152 132 124 122
319.443 31.121 960.948 134 126 124
319.443 31.621 960.748 131 123 121
319.443 32.121 960.376 131 123 121
319.943 24.621 965.994 121 116 116
319.943 25.121 965.491 118 111 111
319.943 25.621 964.974 120 115 114
319.943 26.121 964.304 119 113 113
319.943 26.621 963.578 108 102 103
319.943 27.121 963.114 106 100 102
319.943 27.621 962.693 110 104 106
319.943 28.121 962.353 117 110 110
319.943 28.621 962.054 124 119 118
319.943 29.121 961.803 129 122 122
319.943 29.621 961.527 131 123 121
319.943 30.121 961.254 137 129 127
319.943 30.621 961.047 138 130 127
319.943 31.121 960.847 136 128 125
319.943 31.621 960.545 127 119 117
319.943 32.121 960.249 122 115 112
320.443 24.121 965.882 126 120 120
320.443 24.621 965.533 122 117 116
320.443 25.121 965.069 119 113 113
320.443 25.621 964.547 119 112 112
320.443 26.121 963.990 118 111 111
320.443 26.621 963.296 112 106 106
320.443 27.121 962.920 121 116 116
320.443 27.621 962.558 128 122 122
320.443 28.121 962.227 133 128 126
320.443 28.621 961.934 131 126 124
320.443 29.121 961.677 132 124 122
320.443 29.621 961.438 130 122 119
320.443 30.121 961.136 136 128 126
320.443 30.621 960.933 148 139 137
320.443 31.121 960.747 142 134 131
320.443 31.621 960.396 125 118 116
320.443 32.121 960.186 123 116 113
320.943 24.121 965.442 125 119 119
320.943 24.621 965.100 127 121 121
320.943 25.121 964.739 119 112 112
320.943 25.621 964.194 120 115 114
320.943 26.121 963.705 123 118 117
320.943 26.621 963.126 126 120 120
320.943 27.121 962.779 133 127 127
320.943 27.621 962.437 126 121 118
320.943 28.121 962.111 132 127 124
320.943 28.621 961.864 130 122 120
320.943 29.121 961.561 124 117 114
320.943 29.621 961.270 129 121 118
320.943 30.121 961.008 136 128 125
320.943 30.621 960.801 148 139 134
320.943 31.121 960.620 147 137 135
320.943 31.621 960.350 130 122 120
320.943 32.121 960.136 125 118 116
321.443 24.121 965.078 135 127 125
321.443 24.621 964.768 127 119 117
321.443 25.121 964.417 116 107 105
321.443 25.621 963.970 119 110 108
321.443 26.121 963.515 122 115 112
321.443 26.621 963.060 128 120 118
321.443 27.121 962.693 124 117 114
321.443 27.621 962.334 118 109 107
321.443 28.121 962.018 128 120 118
321.443 28.621 961.786 133 125 123
321.443 29.121 961.457 130 122 120
321.443 29.621 961.114 130 122 120
321.443 30.121 960.917 135 127 125
321.443 30.621 960.716 144 134 133
321.443 31.121 960.503 156 147 145
321.443 31.621 960.274 148 140 138
321.443 32.121 960.031 129 120 121
321.943 24.121 964.810 144 136 134
321.943 24.621 964.491 135 127 125
321.943 25.121 964.133 119 111 109
321.943 25.621 963.788 122 115 112
321.943 26.121 963.348 119 111 109
321.943 26.621 962.980 124 117 114
321.943 27.121 962.623 119 111 109
321.943 27.621 962.203 116 107 105
321.943 28.121 961.929 126 119 116
321.943 28.621 961.642 131 123 121
321.943 29.121 961.354 136 128 126
321.943 29.621 961.023 133 125 123
321.943 30.121 960.841 130 122 120
321.943 30.621 960.625 138 128 127
321.943 31.121 960.414 148 139 138
321.943 31.621 960.205 142 133 134
321.943 32.121 959.961 131 122 123
322.443 24.121 964.586 146 138 136
322.443 24.621 964.206 140 132 130
322.443 25.121 963.884 131 123 121
322.443 25.621 963.576 127 119 117
322.443 26.121 963.181 127 119 117
322.443 26.621 962.874 128 120 118
322.443 27.121 962.575 121 113 111
322.443 27.621 962.121 124 117 114
322.443 28.121 961.870 125 118 116
322.443 28.621 961.526 131 123 121
322.443 29.121 961.236 131 123 121
322.443 29.621 960.937 132 124 122
322.443 30.121 960.725 127 119 117
322.443 30.621 960.485 131 123 121
322.443 31.121 960.322 134 125 125
322.443 31.621 960.116 132 123 123
322.443 32.121 959.850 127 119 120
322.943 24.121 964.324 136 128 126
322.943 24.621 963.934 134 126 124
322.943 25.121 963.681 134 126 124
322.943 25.621 963.377 133 125 123
322.943 26.121 963.034 134 126 124
322.943 26.621 962.803 133 125 123
322.943 27.121 962.469 128 120 118
322.943 27.621 962.074 128 120 118
322.943 28.121 961.781 129 121 119
322.943 28.621 961.463 129 121 119
322.943 29.121 961.110 124 117 114
322.943 29.621 960.784 128 120 118
322.943 30.121 960.569 128 120 118
322.943 30.621 960.346 121 112 113
322.943 31.121 960.167 124 116 116
322.943 31.621 959.960 121 115 114
322.943 32.121 959.605 122 117 118
323.443 24.121 964.123 127 119 117
323.443 24.621 963.772 130 122 120
323.443 25.121 963.527 134 126 124
323.443 25.621 963.186 134 126 124
323.443 26.121 962.904 136 128 126
323.443 26.621 962.733 133 125 123
323.443 27.121 962.265 136 128 126
323.443 27.621 961.997 130 122 120
323.443 28.121 961.623 129 121 119
323.443 28.621 961.314 135 127 125
323.443 29.121 960.983 126 119 116
323.443 29.621 960.621 127 119 117
323.443 30.121 960.388 131 123 121
323.443 30.621 960.162 121 112 113
323.443 31.121 959.973 116 107 108
323.443 31.621 959.752 117 110 112
323.443 32.121 959.322 117 110 112
323.943 24.121 964.025 110 102 100
323.943 24.621 963.683 117 108 106
323.943 25.121 963.395 130 122 120
323.943 25.621 963.035 130 122 120
323.943 26.121 962.808 131 123 121
323.943 26.621 962.586 125 118 116
323.943 27.121 962.108 128 120 118
323.943 27.621 961.881 130 122 120
323.943 28.121 961.510 131 123 121
323.943 28.621 961.099 130 122 120
323.943 29.121 960.854 130 122 120
323.943 29.621 960.508 129 121 119
323.943 30.121 960.191 128 120 118
323.943 30.621 959.976 123 118 117
323.943 31.121 959.764 116 109 109
323.943 31.621 959.446 116 109 110
323.943 32.121 959.051 116 109 111
324.443 24.121 963.961 112 106 103
324.443 24.621 963.588 120 115 111
324.443 25.121 963.308 121 116 112
324.443 25.621 962.954 124 119 116
324.443 26.121 962.706 119 113 110
324.443 26.621 962.369 117 110 107
324.443 27.121 962.004 123 118 114
324.443 27.621 961.740 127 121 118
324.443 28.121 961.424 130 124 121
324.443 28.621 960.975 128 122 119
324.443 29.121 960.683 125 119 116
324.443 29.621 960.365 123 117 114
324.443 30.121 960.028 128 121 119
324.443 30.621 959.802 123 118 117
324.443 31.121 959.473 121 116 116
324.443 31.621 959.133 119 112 113
324.443 32.121 958.805 118 111 113
324.943 24.121 963.862 116 110 107
324.943 24.621 963.492 115 109 106
324.943 25.121 963.222 119 115 111
324.943 25.621 962.893 126 121 118
324.943 26.121 962.553 117 111 108
324.943 26.621 962.161 107 102 99
324.943 27.121 961.871 111 106 103
324.943 27.621 961.611 118 112 109
324.943 28.121 961.279 125 120 117
324.943 28.621 960.898 124 119 116
324.943 29.121 960.475 122 118 114
324.943 29.621 960.188 123 119 116
324.943 30.121 959.860 127 122 119
324.943 30.621 959.586 132 126 126
324.943 31.121 959.176 124 119 118
324.943 31.621 958.884 123 118 117
324.943 32.121 958.529 124 119 120
325.443 24.121 963.697 115 109 106
325.443 24.621 963.379 113 108 105
325.443 25.121 963.112 117 111 108
325.443 25.621 962.815 128 123 120
325.443 26.121 962.433 121 117 113
325.443 26.621 962.065 116 110 107
325.443 27.121 961.742 115 109 106
325.443 27.621 961.504 109 104 102
325.443 28.121 961.142 117 111 108
325.443 28.621 960.813 124 119 116
325.443 29.121 960.319 122 118 114
325.443 29.621 960.051 121 117 113
325.443 30.121 959.665 126 121 118
325.443 30.621 959.395 132 126 126
325.443 31.121 959.008 121 116 116
325.443 31.621 958.662 124 119 118
325.443 32.121 958.270 122 117 116
325.943 24.121 963.539 115 109 106
325.943 24.621 963.272 112 106 103
325.943 25.121 962.996 115 109 106
325.943 25.621 962.686 121 117 113
325.943 26.121 962.352 120 115 111
325.943 26.621 962.044 119 115 111
325.943 27.121 961.650 116 110 107
325.943 27.621 961.413 102 96 94
325.943 28.121 961.070 112 107 104
325.943 28.621 960.688 119 115 111
325.943 29.121 960.245 116 110 107
325.943 29.621 959.964 120 116 112
325.943 30.121 959.517 124 119 116
325.943 30.621 959.235 126 120 120
325.943 31.121 958.855 120 115 114
325.943 31.621 958.497 123 118 117
325.943 32.121 958.120 131 125 125
326.443 24.121 963.390 116 107 105
326.443 24.621 963.127 119 111 109
326.443 25.121 962.819 119 111 109
326.443 25.621 962.512 120 112 110
326.443 26.121 962.247 116 107 105
326.443 26.621 961.977 124 117 114
326.443 27.121 961.558 121 115 113
326.443 27.621 961.324 101 95 95
326.443 28.121 960.989 111 105 105
326.443 28.621 960.521 111 105 105
326.443 29.121 960.147 113 107 107
326.443 29.621 959.838 121 116 116
326.443 30.121 959.392 119 112 112
326.443 30.621 959.067 113 107 107
326.443 31.121 958.673 117 110 110
326.443 31.621 958.327 121 116 116
326.443 32.121 957.998 127 121 120
326.943 24.121 963.207 113 105 103
326.943 24.621 962.935 117 108 106
326.943 25.121 962.632 119 110 108
326.943 25.621 962.366 122 115 112
326.943 26.121 962.088 118 109 107
326.943 26.621 961.794 120 112 110
326.943 27.121 961.437 128 121 119
326.943 27.621 961.198 108 102 103
326.943 28.121 960.869 105 99 99
326.943 28.621 960.407 106 100 100
326.943 29.121 960.031 117 110 110
326.943 29.621 959.656 109 103 103
326.943 30.121 959.230 106 100 100
326.943 30.621 958.869 108 102 103
326.943 31.121 958.554 118 111 111
326.943 31.621 958.145 121 117 113
326.943 32.121 957.874 121 117 113
327.443 24.121 963.069 116 106 104
327.443 24.621 962.768 111 101 99
327.443 25.121 962.487 115 105 103
327.443 25.621 962.241 119 110 108
327.443 26.121 961.940 120 112 110
327.443 26.621 961.623 120 112 110
327.443 27.121 961.344 119 112 110
327.443 27.621 961.070 112 106 106
327.443 28.121 960.710 113 107 107
327.443 28.621 960.337 111 105 105
327.443 29.121 959.967 116 109 109
327.443 29.621 959.517 108 102 103
327.443 30.121 959.056 101 95 95
327.443 30.621 958.703 104 98 98
327.443 31.121 958.452 115 108 108
327.443 31.621 958.041 123 119 116
327.443 32.121 957.775 119 115 111
327.943 24.121 962.997 128 116 109
327.943 24.621 962.600 119 105 103
327.943 25.121 962.302 123 110 106
327.943 25.621 962.068 121 112 107
327.943 26.121 961.825 120 111 107
327.943 26.621 961.545 117 107 107
327.943 27.121 961.256 108 100 99
327.943 27.621 960.936 107 102 99
327.943 28.121 960.509 122 117 113
327.943 28.621 960.202 113 107 104
327.943 29.121 959.866 117 108 106
327.943 29.621 959.415 115 106 104
327.943 30.121 958.963 109 100 98
327.943 30.621 958.652 109 104 102
327.943 31.121 958.359 118 112 109
327.943 31.621 957.988 122 118 114
327.943 32.121 957.664 123 116 113
328.443 24.121 962.846 155 139 132
328.443 24.621 962.436 133 118 110
328.443 25.121 962.143 130 117 109
328.443 25.621 961.915 145 131 125
328.443 26.121 961.674 137 125 120
328.443 26.621 961.397 126 115 111
328.443 27.121 961.110 118 107 106
328.443 27.621 960.719 108 99 97
328.443 28.121 960.327 113 104 103
328.443 28.621 960.028 115 103 100
328.443 29.121 959.730 119 108 105
328.443 29.621 959.295 125 115 110
328.443 30.121 958.902 125 115 110
328.443 30.621 958.582 125 116 110
328.443 31.121 958.221 135 124 119
328.443 31.621 957.925 138 129 124
328.443 32.121 957.557 131 123 118
328.943 24.121 962.630 170 152 142
328.943 24.621 962.302 166 147 137
328.943 25.121 962.025 162 144 134
328.943 25.621 961.749 160 143 133
328.943 26.121 961.457 155 138 130
328.943 26.621 961.169 148 133 126
328.943 27.121 960.923 133 119 114
328.943 27.621 960.507 115 100 97
328.943 28.121 960.145 111 97 94
328.943 28.621 959.869 116 102 96
328.943 29.121 959.589 130 118 109
328.943 29.621 959.154 143 128 121
328.943 30.121 958.739 153 138 131
328.943 30.621 958.414 157 142 133
328.943 31.121 958.057 158 144 135
328.943 31.621 957.821 161 148 139
328.943 32.121 957.467 148 138 130
329.443 24.121 962.441 169 151 139
329.443 24.621 962.128 163 145 133
329.443 25.121 961.815 159 141 127
329.443 25.621 961.540 152 134 120
329.443 26.121 961.257 157 139 126
329.443 26.621 960.989 162 145 135
329.443 27.121 960.741 154 137 129
329.443 27.621 960.393 145 128 122
329.443 28.121 959.999 145 128 121
329.443 28.621 959.714 152 135 128
329.443 29.121 959.438 155 141 132
329.443 29.621 959.004 157 143 134
329.443 30.121 958.560 155 141 130
329.443 30.621 958.286 162 146 133
329.443 31.121 957.982 160 144 132
329.443 31.621 957.715 168 152 141
329.443 32.121 957.370 162 149 140
329.943 24.121 962.232 177 159 147
329.943 24.621 961.915 169 151 137
329.943 25.121 961.612 177 159 144
329.943 25.621 961.363 173 156 140
329.943 26.121 961.108 168 150 136
329.943 26.621 960.859 163 145 132
329.943 27.121 960.610 169 151 140
329.943 27.621 960.303 173 154 147
329.943 28.121 959.881 169 152 144
329.943 28.621 959.585 163 146 138
329.943 29.121 959.292 155 138 130
329.943 29.621 958.858 148 131 123
329.943 30.121 958.498 147 133 124
329.943 30.621 958.242 149 132 122
329.943 31.121 957.928 147 131 121
329.943 31.621 957.611 145 131 122
329.943 32.121 957.231 146 132 123
330.443 24.121 961.994 167 148 137
330.443 24.621 961.714 184 166 151
330.443 25.121 961.428 195 177 162
330.443 25.621 961.187 192 175 159
330.443 26.121 960.939 176 159 143
330.443 26.621 960.693 167 148 134
330.443 27.121 960.488 177 159 146
330.443 27.621 960.171 176 158 147
330.443 28.121 959.722 167 148 138
330.443 28.621 959.405 156 139 129
330.443 29.121 959.105 147 130 122
330.443 29.621 958.753 142 126 120
330.443 30.121 958.481 143 128 123
330.443 30.621 958.126 144 130 123
330.443 31.121 957.766 145 132 125
330.443 31.621 957.443 145 131 124
330.443 32.121 957.052 139 124 117
330.943 24.121 961.751 156 141 130
330.943 24.621 961.488 170 153 143
330.943 25.121 961.190 184 168 154
330.943 25.621 961.007 181 164 151
330.943 26.121 960.737 185 168 153
330.943 26.621 960.499 180 162 148
330.943 27.121 960.304 174 156 144
330.943 27.621 959.993 153 136 128
330.943 28.121 959.584 152 135 127
330.943 28.621 959.194 145 130 122
330.943 29.121 958.896 142 129 121
330.943 29.621 958.623 142 129 123
330.943 30.121 958.316 148 137 131
330.943 30.621 957.950 146 135 129
330.943 31.121 957.569 146 135 129
330.943 31.621 957.226 144 133 127
331.443 24.121 961.585 124 110 102
331.443 24.621 961.292 129 116 106
331.443 25.121 961.018 139 125 116
331.443 25.621 960.851 141 126 116
331.443 26.121 960.553 153 137 126
331.443 26.621 960.343 168 151 138
331.443 27.121 960.090 172 155 144
331.443 27.621 959.751 163 147 139
331.443 28.121 959.356 158 144 135
331.443 28.621 959.009 148 133 126
331.443 29.121 958.708 144 131 123
331.443 29.621 958.361 136 125 116
331.443 30.121 958.052 131 120 114
331.443 30.621 957.731 137 126 120
331.443 31.121 957.414 143 132 126
331.443 31.621 957.088 147 136 130
331.943 24.121 961.474 121 108 102
331.943 24.621 961.168 120 108 100
331.943 25.121 960.918 129 117 108
331.943 25.621 960.662 131 117 109
331.943 26.121 960.394 130 116 108
331.943 26.621 960.182 133 119 110
331.943 27.121 959.848 148 135 126
331.943 27.621 959.498 151 139 130
331.943 28.121 959.107 161 148 140
331.943 28.621 958.871 175 162 154
331.943 29.121 958.540 161 148 140
331.943 29.621 958.089 151 138 130
331.943 30.121 957.895 146 133 127
331.943 30.621 957.513 136 125 121
331.943 31.121 957.268 126 116 111
332.443 24.121 961.380 127 117 112
332.443 24.621 961.076 120 109 105
332.443 25.121 960.822 136 124 119
332.443 25.621 960.452 141 129 124
332.443 26.121 960.201 122 110 105
332.443 26.621 959.956 120 108 103
332.443 27.121 959.589 132 121 116
332.443 27.621 959.281 130 121 113
332.443 28.121 958.969 132 122 116
332.443 28.621 958.699 154 142 135
332.443 29.121 958.355 166 152 144
332.443 29.621 957.965 169 155 148
332.443 30.121 957.721 174 160 153
332.443 30.621 957.353 157 145 141
332.443 31.121 957.095 138 127 123
332.943 24.121 961.282 151 138 132
332.943 24.621 960.968 142 131 125
332.943 25.121 960.703 142 131 125
332.943 25.621 960.300 140 129 124
332.943 26.121 960.022 128 118 113
332.943 26.621 959.719 119 108 104
332.943 27.121 959.410 127 119 112
332.943 27.621 959.110 126 118 110
332.943 28.121 958.838 122 111 105
332.943 28.621 958.492 123 112 106
332.943 29.121 958.211 134 121 114
332.943 29.621 957.883 155 142 134
332.943 30.121 957.518 171 158 150
332.943 30.621 957.128 172 161 157
333.443 24.121 961.068 166 152 143
333.443 24.621 960.804 166 152 144
333.443 25.121 960.536 157 145 137
333.443 25.621 960.164 147 136 130
333.443 26.121 959.868 140 129 123
333.443 26.621 959.589 130 119 113
333.443 27.121 959.219 131 121 116
333.443 27.621 958.911 138 127 123
333.443 28.121 958.673 141 130 124
333.443 28.621 958.359 132 121 116
333.443 29.121 958.087 126 116 108
333.443 29.621 957.722 128 119 109
333.443 30.121 957.375 136 126 117
333.943 24.121 960.799 157 140 131
333.943 24.621 960.569 150 136 127
333.943 25.121 960.294 161 148 139
333.943 25.621 959.994 159 146 138
333.943 26.121 959.696 149 139 130
333.943 26.621 959.425 150 139 132
333.943 27.121 959.032 149 138 132
333.943 27.621 958.701 149 138 132
333.943 28.121 958.502 148 137 133
333.943 28.621 958.191 149 138 132
333.943 29.121 957.867 145 134 128
333.943 29.621 957.526 134 123 117
333.943 30.121 957.193 126 117 108
334.443 24.121 960.611 174 157 147
334.443 24.621 960.366 159 142 132
334.443 25.121 960.048 155 139 130
334.443 25.621 959.762 155 141 132
334.443 26.121 959.452 158 144 135
334.443 26.621 959.141 153 139 132
334.443 27.121 958.847 154 141 133
334.443 27.621 958.549 157 145 137
334.443 28.121 958.348 164 152 145
334.443 28.621 957.984 159 148 142
334.443 29.121 957.652 154 143 137
334.443 29.621 957.403 151 141 135
334.443 30.121 957.024 148 139 133
334.943 24.121 960.422 160 143 133
334.943 24.621 960.124 179 162 152
334.943 25.121 959.821 185 169 161
334.943 25.621 959.482 166 151 142
334.943 26.121 959.155 148 134 125
334.943 26.621 958.887 150 136 127
334.943 27.121 958.621 150 136 127
334.943 27.621 958.378 155 142 133
334.943 28.121 958.129 164 151 143
334.943 28.621 957.823 169 156 148
334.943 29.121 957.488 162 150 142
334.943 29.621 957.207 156 145 139
335.443 24.121 960.134 148 133 125
335.443 24.621 959.832 147 133 124
335.443 25.121 959.531 163 149 140
335.443 25.621 959.187 163 149 140
335.443 26.121 958.893 169 155 146
335.443 26.621 958.657 167 152 143
335.443 27.121 958.356 153 139 130
335.443 27.621 958.135 151 137 128
335.443 28.121 957.901 151 137 128
335.443 28.621 957.581 160 146 137
335.443 29.121 957.254 158 145 137
335.943 24.121 959.944 141 127 118
335.943 24.621 959.655 144 130 121
335.943 25.121 959.324 151 137 128
335.943 25.621 958.963 147 133 124
335.943 26.121 958.661 146 132 123
335.943 26.621 958.367 158 144 135
335.943 27.121 958.099 170 155 145
335.943 27.621 957.905 177 160 150
335.943 28.121 957.643 161 144 134
335.943 28.621 957.355 148 133 123
335.943 29.121 957.010 144 130 121
336.443 24.121 959.763 147 133 125
336.443 24.621 959.437 141 126 118
336.443 25.121 959.087 143 129 120
336.443 25.621 958.766 144 130 121
336.443 26.121 958.461 148 131 122
336.443 26.621 958.126 140 123 113
336.443 27.121 957.907 142 125 114
336.443 27.621 957.671 157 139 127
336.443 28.121 957.395 179 160 148
336.443 28.621 957.145 186 168 157
336.943 24.121 959.441 169 156 148
336.943 24.621 959.126 160 147 139
336.943 25.121 958.771 143 129 120
336.943 25.621 958.533 144 130 121
336.943 26.121 958.250 147 130 120
336.943 26.621 957.934 151 134 124
336.943 27.121 957.677 158 141 130
336.943 27.621 957.456 171 152 138
336.943 28.121 957.190 177 159 145
337.443 24.121 959.138 157 142 134
337.443 24.621 958.848 179 162 154
337.443 25.121 958.555 174 157 147
337.443 25.621 958.290 157 140 130
337.443 26.121 957.989 162 146 134
337.443 26.621 957.684 177 159 147
337.443 27.121 957.467 174 156 144
337.443 27.621 957.227 173 155 143
337.943 24.121 958.882 145 132 123
337.943 24.621 958.602 152 138 129
337.943 25.121 958.312 166 148 139
337.943 25.621 957.974 181 166 153
337.943 26.121 957.675 183 164 151
337.943 26.621 957.464 184 166 151
337.943 27.121 957.236 167 148 134
338.443 24.121 958.633 146 135 127
338.443 24.621 958.393 144 131 123
338.443 25.121 958.054 148 134 124
338.443 25.621 957.661 154 138 125
338.443 26.121 957.422 177 159 145
338.443 26.621 957.214 192 173 158
338.943 24.121 958.405 145 134 128
338.943 24.621 958.184 138 127 121
338.943 25.121 957.781 139 126 117
338.943 25.621 957.480 161 146 133
338.943 26.121 957.257 177 159 145
338.943 26.621 956.975 185 167 151
339.443 24.121 958.215 145 134 130
339.443 24.621 957.987 139 126 120
339.443 25.121 957.597 144 131 123
339.443 25.621 957.346 164 148 139
339.443 26.121 957.062 167 149 138
339.943 24.121 958.013 141 127 124
339.943 24.621 957.749 132 119 113
339.943 25.121 957.464 143 128 122
339.943 25.621 957.177 156 141 134
340.443 24.121 957.740 140 127 121
340.443 24.621 957.492 132 119 113
340.443 25.121 957.262 138 125 119
340.943 24.121 957.490 142 129 121
340.943 24.621 957.320 133 120 112
340.943 25.121 957.085 135 122 114
341.443 24.121 957.298 155 141 131
341.443 24.621 957.105 149 136 127
341.943 24.121 957.054 163 148 136
306.443 40.621 965.830 132 124 122
306.943 39.621 965.997 136 128 125
306.943 40.121 965.769 131 123 121
306.943 40.621 965.551 128 120 118
307.443 38.621 965.998 135 127 124
307.443 39.121 965.830 134 126 123
307.443 39.621 965.659 137 129 126
307.443 40.121 965.468 138 130 128
307.443 40.621 965.269 133 125 123
307.943 37.621 966.024 134 126 123
307.943 38.121 965.880 138 130 127
307.943 38.621 965.711 137 129 126
307.943 39.121 965.594 130 122 119
307.943 39.621 965.440 139 131 128
307.943 40.121 965.269 144 136 134
307.943 40.621 965.008 139 131 129
308.443 37.121 965.950 145 136 132
308.443 37.621 965.691 145 136 132
308.443 38.121 965.531 145 136 132
308.443 38.621 965.367 135 126 123
308.443 39.121 965.292 128 119 117
308.443 39.621 965.154 136 127 125
308.443 40.121 964.964 142 133 132
308.443 40.621 964.703 143 134 132
308.943 36.121 966.010 139 129 127
308.943 36.621 965.818 138 128 126
308.943 37.121 965.577 143 134 129
308.943 37.621 965.415 150 141 136
308.943 38.121 965.261 151 142 137
308.943 38.621 965.096 139 129 127
308.943 39.121 964.939 128 119 116
308.943 39.621 964.763 129 119 117
308.943 40.121 964.602 136 126 125
308.943 40.621 964.412 140 130 129
309.443 35.621 965.909 136 126 124
309.443 36.121 965.633 133 123 121
309.443 36.621 965.500 124 115 112
309.443 37.121 965.306 132 123 118
309.443 37.621 965.137 146 137 132
309.443 38.121 965.007 150 140 138
309.443 38.621 964.860 144 134 132
309.443 39.121 964.689 140 130 128
309.443 39.621 964.543 134 124 122
309.443 40.121 964.386 135 125 123
309.443 40.621 964.170 140 130 128
309.943 34.121 966.010 135 126 121
309.943 34.621 965.759 136 127 122
309.943 35.121 965.608 135 125 123
309.943 35.621 965.493 129 119 117
309.943 36.121 965.250 127 118 116
309.943 36.621 965.183 127 118 116
309.943 37.121 965.081 136 127 122
309.943 37.621 964.845 142 133 130
309.943 38.121 964.718 144 134 132
309.943 38.621 964.566 146 136 134
309.943 39.121 964.450 143 133 131
309.943 39.621 964.292 137 127 125
309.943 40.121 964.079 138 128 126
309.943 40.621 963.780 138 128 126
310.443 33.121 965.953 139 131 129
310.443 33.621 965.790 140 131 127
310.443 34.121 965.595 143 134 129
310.443 34.621 965.396 140 131 126
310.443 35.121 965.174 133 123 121
310.443 35.621 965.040 125 116 113
310.443 36.121 964.889 130 120 118
310.443 36.621 964.759 137 127 125
310.443 37.121 964.661 148 138 136
310.443 37.621 964.512 142 132 130
310.443 38.121 964.416 141 131 129
310.443 38.621 964.207 147 137 135
310.443 39.121 964.075 144 135 131
310.443 39.621 963.895 140 131 126
310.443 40.121 963.630 140 130 128
310.443 40.621 963.331 139 129 127
310.943 32.621 965.804 130 121 122
310.943 33.121 965.567 140 131 132
310.943 33.621 965.468 143 133 131
310.943 34.121 965.263 141 132 127
310.943 34.621 965.104 136 127 122
310.943 35.121 964.885 131 121 119
310.943 35.621 964.718 129 119 117
310.943 36.121 964.515 137 127 125
310.943 36.621 964.375 138 128 126
310.943 37.121 964.294 147 137 135
310.943 37.621 964.184 145 135 133
310.943 38.121 964.037 137 127 125
310.943 38.621 963.820 134 125 120
310.943 39.121 963.657 138 129 124
310.943 39.621 963.519 142 133 128
310.943 40.121 963.279 140 131 126
310.943 40.621 963.024 140 131 126
311.443 32.621 965.489 116 109 109
311.443 33.121 965.279 133 124 125
311.443 33.621 965.134 139 129 127
311.443 34.121 964.926 141 132 127
311.443 34.621 964.698 137 127 124
311.443 35.121 964.545 129 119 117
311.443 35.621 964.377 123 113 111
