100.943 -66.879 980.597 228 215 198
100.943 -66.379 980.591 228 215 198
100.943 -65.879 980.596 228 215 198
100.943 -65.379 980.595 230 216 199
100.943 -64.879 980.577 228 215 198
100.943 -64.379 980.551 227 214 197
100.943 -63.879 980.536 227 214 197
100.943 -63.379 980.512 227 214 197
100.943 -62.879 980.516 227 214 197
100.943 -62.379 980.523 227 214 197
100.943 -61.879 980.535 228 215 198
100.943 -61.379 980.537 228 215 198
100.943 -60.879 980.538 228 215 198
101.443 -68.879 980.541 227 212 196
101.443 -68.379 980.559 226 213 196
101.443 -67.879 980.589 227 214 197
101.443 -67.379 980.602 227 214 197
101.443 -66.879 980.602 228 215 198
101.443 -66.379 980.593 228 215 198
101.443 -65.879 980.582 228 215 198
101.443 -65.379 980.578 228 215 198
101.443 -64.879 980.562 227 214 197
101.443 -64.379 980.547 227 214 197
101.443 -63.879 980.536 227 214 197
101.443 -63.379 980.513 227 214 197
101.443 -62.879 980.508 227 214 197
101.443 -62.379 980.510 227 214 197
101.443 -61.879 980.535 227 214 197
101.443 -61.379 980.542 227 214 197
101.443 -60.879 980.545 228 215 198
101.943 -68.879 980.539 228 213 197
101.943 -68.379 980.555 227 214 197
101.943 -67.879 980.577 228 215 198
101.943 -67.379 980.587 228 215 198
101.943 -66.879 980.593 228 215 198
101.943 -66.379 980.589 228 215 198
101.943 -65.879 980.570 228 215 198
101.943 -65.379 980.558 227 214 197
101.943 -64.879 980.544 227 214 197
101.943 -64.379 980.534 227 214 197
101.943 -63.879 980.529 227 214 197
101.943 -63.379 980.524 227 214 197
101.943 -62.879 980.515 227 214 197
101.943 -62.379 980.503 227 214 197
101.943 -61.879 980.529 226 213 196
101.943 -61.379 980.552 226 213 196
101.943 -60.879 980.561 228 215 198
102.443 -68.879 980.540 231 215 198
102.443 -68.379 980.555 228 215 198
102.443 -67.879 980.563 228 215 198
102.443 -67.379 980.565 228 215 198
102.443 -66.879 980.564 227 214 197
102.443 -66.379 980.553 227 214 197
102.443 -65.879 980.532 228 215 198
102.443 -65.379 980.522 227 214 197
102.443 -64.879 980.512 227 214 197
102.443 -64.379 980.513 227 214 197
102.443 -63.879 980.518 227 214 197
102.443 -63.379 980.517 227 214 197
102.443 -62.879 980.506 227 214 197
102.443 -62.379 980.501 227 214 197
102.443 -61.879 980.528 226 213 196
102.443 -61.379 980.555 226 213 196
102.443 -60.879 980.562 230 216 199
102.943 -68.879 980.547 232 216 199
102.943 -68.379 980.558 230 216 199
102.943 -67.879 980.560 227 214 197
102.943 -67.379 980.557 226 213 196
102.943 -66.879 980.541 227 214 197
102.943 -66.379 980.516 227 214 197
102.943 -65.879 980.494 228 215 198
102.943 -65.379 980.491 227 214 197
102.943 -64.879 980.487 226 213 196
102.943 -64.379 980.493 226 213 196
102.943 -63.879 980.505 226 213 196
102.943 -63.379 980.506 227 214 197
102.943 -62.879 980.496 227 214 197
102.943 -62.379 980.502 227 214 197
102.943 -61.879 980.529 227 214 197
102.943 -61.379 980.555 228 215 198
102.943 -60.879 980.557 230 216 199
103.443 -68.879 980.550 232 216 199
103.443 -68.379 980.560 228 215 198
103.443 -67.879 980.570 226 213 196
103.443 -67.379 980.567 225 212 195
103.443 -66.879 980.537 227 214 197
103.443 -66.379 980.503 228 215 198
103.443 -65.879 980.485 228 215 198
103.443 -65.379 980.483 227 214 197
103.443 -64.879 980.484 226 213 196
103.443 -64.379 980.486 226 213 196
103.443 -63.879 980.499 225 212 195
103.443 -63.379 980.505 227 214 197
103.443 -62.879 980.501 230 216 199
103.443 -62.379 980.505 228 215 198
103.443 -61.879 980.521 230 216 199
103.443 -61.379 980.545 230 216 199
103.443 -60.879 980.553 231 217 200
103.943 -68.879 980.544 231 214 198
103.943 -68.379 980.552 228 215 198
103.943 -67.879 980.563 228 215 198
103.943 -67.379 980.566 228 215 198
103.943 -66.879 980.536 227 214 197
103.943 -66.379 980.506 228 215 198
103.943 -65.879 980.492 227 214 197
103.943 -65.379 980.479 227 214 197
103.943 -64.879 980.482 226 213 196
103.943 -64.379 980.478 226 213 196
103.943 -63.879 980.494 225 212 195
103.943 -63.379 980.506 226 213 196
103.943 -62.879 980.504 230 216 199
103.943 -62.379 980.506 232 218 201
103.943 -61.879 980.513 230 216 199
103.943 -61.379 980.527 230 216 199
103.943 -60.879 980.536 230 216 199
104.443 -68.879 980.538 228 213 197
104.443 -68.379 980.549 228 215 198
104.443 -67.879 980.555 228 215 198
104.443 -67.379 980.555 228 215 198
104.443 -66.879 980.532 228 215 198
104.443 -66.379 980.509 227 214 197
104.443 -65.879 980.495 226 213 196
104.443 -65.379 980.477 226 213 196
104.443 -64.879 980.475 227 214 197
104.443 -64.379 980.466 227 214 197
104.443 -63.879 980.478 227 214 197
104.443 -63.379 980.487 228 215 198
104.443 -62.879 980.482 231 217 200
104.443 -62.379 980.482 231 217 200
104.443 -61.879 980.492 230 216 199
104.443 -61.379 980.506 230 216 199
104.443 -60.879 980.512 228 215 198
104.943 -68.879 980.532 228 213 197
104.943 -68.379 980.547 227 214 197
104.943 -67.879 980.548 228 215 198
104.943 -67.379 980.539 228 215 198
104.943 -66.879 980.521 226 213 196
104.943 -66.379 980.508 225 212 195
104.943 -65.879 980.497 225 212 195
104.943 -65.379 980.481 225 212 195
104.943 -64.879 980.471 228 215 198
104.943 -64.379 980.454 228 215 198
104.943 -63.879 980.446 228 215 198
104.943 -63.379 980.445 230 216 199
104.943 -62.879 980.445 230 216 199
104.943 -62.379 980.453 230 216 199
104.943 -61.879 980.472 228 215 198
104.943 -61.379 980.495 227 214 197
104.943 -60.879 980.502 228 215 198
105.443 -68.879 980.516 227 212 196
105.443 -68.379 980.542 225 212 195
105.443 -67.879 980.540 227 214 197
105.443 -67.379 980.522 228 215 198
105.443 -66.879 980.515 225 212 195
105.443 -66.379 980.503 225 212 195
105.443 -65.879 980.488 226 213 196
105.443 -65.379 980.477 228 215 198
105.443 -64.879 980.463 228 215 198
105.443 -64.379 980.440 228 215 198
105.443 -63.879 980.430 228 215 198
105.443 -63.379 980.422 230 216 199
105.443 -62.879 980.418 230 216 199
105.443 -62.379 980.429 231 214 198
105.443 -61.879 980.458 231 214 198
105.443 -61.379 980.489 230 213 197
105.443 -60.879 980.500 230 213 197
105.943 -68.879 980.479 225 210 194
105.943 -68.379 980.527 225 212 195
105.943 -67.879 980.526 226 213 196
105.943 -67.379 980.502 228 215 198
105.943 -66.879 980.499 227 214 197
105.943 -66.379 980.487 227 214 197
105.943 -65.879 980.472 227 214 197
105.943 -65.379 980.454 228 215 198
105.943 -64.879 980.441 228 215 198
105.943 -64.379 980.426 228 215 198
105.943 -63.879 980.422 228 215 198
105.943 -63.379 980.405 230 216 199
105.943 -62.879 980.393 228 215 198
105.943 -62.379 980.405 228 213 197
105.943 -61.879 980.440 228 212 196
105.943 -61.379 980.473 228 212 196
105.943 -60.879 980.487 228 212 196
106.443 -68.879 980.452 226 211 195
106.443 -68.379 980.503 225 212 195
106.443 -67.879 980.506 227 214 197
106.443 -67.379 980.487 228 215 198
106.443 -66.879 980.473 228 215 198
106.443 -66.379 980.458 228 215 198
106.443 -65.879 980.453 228 215 198
106.443 -65.379 980.426 228 215 198
106.443 -64.879 980.417 228 215 198
106.443 -64.379 980.415 228 215 198
106.443 -63.879 980.409 228 215 198
106.443 -63.379 980.395 228 215 198
106.443 -62.879 980.382 227 214 197
106.443 -62.379 980.388 227 212 196
106.443 -61.879 980.415 228 212 196
106.443 -61.379 980.448 228 212 196
106.443 -60.879 980.464 228 212 196
106.943 -68.879 980.441 226 213 196
106.943 -68.379 980.472 225 212 195
106.943 -67.879 980.476 227 214 197
106.943 -67.379 980.467 228 215 198
106.943 -66.879 980.452 228 215 198
106.943 -66.379 980.432 227 214 197
106.943 -65.879 980.428 228 215 198
106.943 -65.379 980.406 227 214 197
106.943 -64.879 980.402 227 214 197
106.943 -64.379 980.407 228 215 198
106.943 -63.879 980.393 230 216 199
106.943 -63.379 980.384 228 215 198
106.943 -62.879 980.381 227 214 197
106.943 -62.379 980.385 228 213 197
106.943 -61.879 980.400 227 211 195
106.943 -61.379 980.429 227 211 195
106.943 -60.879 980.445 228 212 196
107.443 -68.879 980.422 226 213 196
107.443 -68.379 980.450 226 213 196
107.443 -67.879 980.454 227 214 197
107.443 -67.379 980.444 228 215 198
107.443 -66.879 980.431 227 214 197
107.443 -66.379 980.421 226 213 196
107.443 -65.879 980.409 227 214 197
107.443 -65.379 980.396 227 214 197
107.443 -64.879 980.393 227 214 197
107.443 -64.379 980.399 227 214 197
107.443 -63.879 980.382 228 215 198
107.443 -63.379 980.374 228 215 198
107.443 -62.879 980.380 227 214 197
107.443 -62.379 980.394 228 213 197
107.443 -61.879 980.404 228 212 196
107.443 -61.379 980.418 228 212 196
107.443 -60.879 980.424 228 212 196
107.943 -68.879 980.406 227 214 197
107.943 -68.379 980.436 227 214 197
107.943 -67.879 980.439 228 215 198
107.943 -67.379 980.432 228 215 198
107.943 -66.879 980.428 227 214 197
107.943 -66.379 980.425 226 213 196
107.943 -65.879 980.408 227 214 197
107.943 -65.379 980.391 227 214 197
107.943 -64.879 980.381 227 214 197
107.943 -64.379 980.381 227 214 197
107.943 -63.879 980.368 228 215 198
107.943 -63.379 980.364 227 214 197
107.943 -62.879 980.374 227 214 197
107.943 -62.379 980.396 228 213 196
107.943 -61.879 980.409 230 213 197
107.943 -61.379 980.412 230 213 197
107.943 -60.879 980.404 228 212 196
108.443 -68.879 980.398 227 214 197
108.443 -68.379 980.411 227 214 197
108.443 -67.879 980.415 228 215 198
108.443 -67.379 980.422 230 216 199
108.443 -66.879 980.433 227 214 197
108.443 -66.379 980.431 227 214 197
108.443 -65.879 980.415 227 214 197
108.443 -65.379 980.394 227 214 197
108.443 -64.879 980.371 228 215 198
108.443 -64.379 980.359 228 215 198
108.443 -63.879 980.349 228 215 198
108.443 -63.379 980.350 227 214 197
108.443 -62.879 980.364 226 213 196
108.443 -62.379 980.392 227 211 195
108.443 -61.879 980.406 230 213 197
108.443 -61.379 980.402 230 213 197
108.443 -60.879 980.387 228 212 196
108.943 -68.879 980.386 228 215 198
108.943 -68.379 980.385 230 216 199
108.943 -67.879 980.394 227 214 197
108.943 -67.379 980.414 226 213 196
108.943 -66.879 980.430 227 214 197
108.943 -66.379 980.432 227 214 197
108.943 -65.879 980.419 228 215 198
108.943 -65.379 980.395 227 214 197
108.943 -64.879 980.365 228 215 198
108.943 -64.379 980.345 228 215 198
108.943 -63.879 980.333 228 215 198
108.943 -63.379 980.339 227 214 197
108.943 -62.879 980.353 226 213 196
108.943 -62.379 980.378 227 212 196
108.943 -61.879 980.387 230 213 197
108.943 -61.379 980.374 230 213 197
108.943 -60.879 980.360 228 212 196
109.443 -68.879 980.367 231 217 200
109.443 -68.379 980.371 228 215 198
109.443 -67.879 980.386 226 213 196
109.443 -67.379 980.409 226 213 196
109.443 -66.879 980.428 227 214 197
109.443 -66.379 980.432 228 215 198
109.443 -65.879 980.421 228 215 198
109.443 -65.379 980.398 227 214 197
109.443 -64.879 980.370 227 214 197
109.443 -64.379 980.344 228 215 198
109.443 -63.879 980.327 228 215 198
109.443 -63.379 980.331 227 214 197
109.443 -62.879 980.339 226 213 196
109.443 -62.379 980.354 228 213 196
109.443 -61.879 980.358 230 213 197
109.443 -61.379 980.345 230 213 197
109.443 -60.879 980.336 230 213 197
109.943 -68.879 980.353 230 216 199
109.943 -68.379 980.365 226 213 196
109.943 -67.879 980.388 225 212 195
109.943 -67.379 980.409 226 213 196
109.943 -66.879 980.427 227 214 197
109.943 -66.379 980.431 228 215 198
109.943 -65.879 980.421 228 215 198
109.943 -65.379 980.404 226 213 196
109.943 -64.879 980.378 227 214 197
109.943 -64.379 980.349 228 215 198
109.943 -63.879 980.330 228 215 198
109.943 -63.379 980.326 228 215 198
109.943 -62.879 980.330 227 214 197
109.943 -62.379 980.338 230 213 197
109.943 -61.879 980.335 228 212 196
109.943 -61.379 980.325 228 212 196
109.943 -60.879 980.318 231 214 198
110.443 -68.879 980.340 231 217 200
110.443 -68.379 980.356 228 215 198
110.443 -67.879 980.388 227 214 197
110.443 -67.379 980.420 227 214 197
110.443 -66.879 980.429 228 215 198
110.443 -66.379 980.423 230 216 199
110.443 -65.879 980.409 228 215 198
110.443 -65.379 980.399 228 215 198
110.443 -64.879 980.379 228 215 198
110.443 -64.379 980.354 228 215 198
110.443 -63.879 980.334 228 215 198
110.443 -63.379 980.325 228 215 198
110.443 -62.879 980.323 227 214 197
110.443 -62.379 980.324 228 213 197
110.443 -61.879 980.312 228 212 196
110.443 -61.379 980.302 228 212 196
110.443 -60.879 980.294 231 214 198
110.943 -68.879 980.325 230 216 199
110.943 -68.379 980.345 230 216 199
110.943 -67.879 980.383 228 215 198
110.943 -67.379 980.428 228 215 198
110.943 -66.879 980.429 228 215 198
110.943 -66.379 980.408 230 216 199
110.943 -65.879 980.392 228 215 198
110.943 -65.379 980.387 228 215 198
110.943 -64.879 980.375 228 215 198
110.943 -64.379 980.357 228 215 198
110.943 -63.879 980.337 227 214 197
110.943 -63.379 980.328 227 214 197
110.943 -62.879 980.319 227 214 197
110.943 -62.379 980.309 228 213 197
110.943 -61.879 980.295 228 212 196
110.943 -61.379 980.283 228 212 196
110.943 -60.879 980.274 231 214 198
111.443 -68.879 980.327 230 216 199
111.443 -68.379 980.346 228 215 198
111.443 -67.879 980.383 227 214 197
111.443 -67.379 980.425 228 215 198
111.443 -66.879 980.425 228 215 198
111.443 -66.379 980.398 230 216 199
111.443 -65.879 980.382 228 215 198
111.443 -65.379 980.370 228 215 198
111.443 -64.879 980.357 228 215 198
111.443 -64.379 980.344 228 215 198
111.443 -63.879 980.339 227 214 197
111.443 -63.379 980.330 227 214 197
111.443 -62.879 980.317 227 214 197
111.443 -62.379 980.302 228 213 197
111.443 -61.879 980.291 228 212 196
111.443 -61.379 980.274 228 212 196
111.443 -60.879 980.257 230 213 197
111.943 -68.879 980.344 228 215 198
111.943 -68.379 980.365 228 215 198
111.943 -67.879 980.394 227 214 197
111.943 -67.379 980.425 227 214 197
111.943 -66.879 980.423 228 215 198
111.943 -66.379 980.398 230 216 199
111.943 -65.879 980.377 227 214 197
111.943 -65.379 980.349 228 215 198
111.943 -64.879 980.333 227 214 197
111.943 -64.379 980.328 227 214 197
111.943 -63.879 980.340 226 213 196
111.943 -63.379 980.335 226 213 196
111.943 -62.879 980.321 228 215 198
111.943 -62.379 980.304 230 214 198
111.943 -61.879 980.292 230 213 197
111.943 -61.379 980.272 230 213 197
111.943 -60.879 980.249 228 212 196
112.443 -68.879 980.353 227 214 197
112.443 -68.379 980.384 227 214 197
112.443 -67.879 980.413 227 214 197
112.443 -67.379 980.432 227 214 197
112.443 -66.879 980.425 228 215 198
112.443 -66.379 980.400 228 215 198
112.443 -65.879 980.375 227 214 197
112.443 -65.379 980.340 227 214 197
112.443 -64.879 980.325 227 214 197
112.443 -64.379 980.327 227 214 197
112.443 -63.879 980.344 226 213 196
112.443 -63.379 980.344 227 214 197
112.443 -62.879 980.329 228 215 198
112.443 -62.379 980.307 230 214 198
112.443 -61.879 980.287 230 213 197
112.443 -61.379 980.271 230 213 197
112.443 -60.879 980.255 227 211 195
112.943 -68.879 980.362 227 214 197
112.943 -68.379 980.396 227 214 197
112.943 -67.879 980.430 227 214 197
112.943 -67.379 980.438 227 214 197
112.943 -66.879 980.430 227 214 197
112.943 -66.379 980.403 228 215 198
112.943 -65.879 980.378 228 215 198
112.943 -65.379 980.351 227 214 197
112.943 -64.879 980.337 227 214 197
112.943 -64.379 980.336 227 214 197
112.943 -63.879 980.347 227 214 197
112.943 -63.379 980.347 227 214 197
112.943 -62.879 980.333 228 215 198
112.943 -62.379 980.307 230 214 198
112.943 -61.879 980.282 230 213 197
112.943 -61.379 980.271 230 213 197
112.943 -60.879 980.266 227 211 195
113.443 -68.879 980.377 226 213 196
113.443 -68.379 980.403 227 214 197
113.443 -67.879 980.431 225 212 195
113.443 -67.379 980.439 226 213 196
113.443 -66.879 980.428 226 213 196
113.443 -66.379 980.408 230 216 199
113.443 -65.879 980.385 227 214 197
113.443 -65.379 980.366 226 213 196
113.443 -64.879 980.351 228 215 198
113.443 -64.379 980.343 228 215 198
113.443 -63.879 980.346 228 215 198
113.443 -63.379 980.344 228 215 198
113.443 -62.879 980.332 228 215 198
113.443 -62.379 980.307 230 214 198
113.443 -61.879 980.283 230 213 197
113.443 -61.379 980.279 228 212 196
113.443 -60.879 980.284 227 211 195
113.943 -68.879 980.378 225 212 195
113.943 -68.379 980.399 226 213 196
113.943 -67.879 980.418 226 213 196
113.943 -67.379 980.429 226 213 196
113.943 -66.879 980.419 227 214 197
113.943 -66.379 980.407 228 215 198
113.943 -65.879 980.388 228 215 198
113.943 -65.379 980.375 230 216 199
113.943 -64.879 980.361 230 216 199
113.943 -64.379 980.350 228 215 198
113.943 -63.879 980.350 227 214 197
113.943 -63.379 980.342 227 214 197
113.943 -62.879 980.329 226 213 196
113.943 -62.379 980.308 230 213 197
113.943 -61.879 980.290 228 212 196
113.943 -61.379 980.288 227 211 195
113.943 -60.879 980.297 226 210 194
114.443 -68.879 980.367 225 212 195
114.443 -68.379 980.384 225 212 195
114.443 -67.879 980.400 226 213 196
114.443 -67.379 980.407 226 213 196
114.443 -66.879 980.404 228 215 198
114.443 -66.379 980.396 230 216 199
114.443 -65.879 980.384 230 216 199
114.443 -65.379 980.374 231 217 200
114.443 -64.879 980.368 230 216 199
114.443 -64.379 980.360 227 214 197
114.443 -63.879 980.357 226 213 196
114.443 -63.379 980.342 226 213 196
114.443 -62.879 980.327 225 212 195
114.443 -62.379 980.310 226 210 194
114.443 -61.879 980.297 226 210 194
114.443 -61.379 980.291 227 211 195
114.443 -60.879 980.307 227 211 195
114.943 -68.879 980.360 226 213 196
114.943 -68.379 980.365 224 211 194
114.943 -67.879 980.368 227 214 197
114.943 -67.379 980.368 228 215 198
114.943 -66.879 980.370 230 216 199
114.943 -66.379 980.368 231 217 200
114.943 -65.879 980.369 231 217 200
114.943 -65.379 980.366 230 216 199
114.943 -64.879 980.366 228 215 198
114.943 -64.379 980.367 227 214 197
114.943 -63.879 980.370 224 211 194
114.943 -63.379 980.355 224 211 194
114.943 -62.879 980.334 226 213 196
114.943 -62.379 980.321 225 210 194
114.943 -61.879 980.310 226 210 194
114.943 -61.379 980.300 227 211 195
114.943 -60.879 980.319 226 210 194
115.443 -68.879 980.346 226 213 196
115.443 -68.379 980.337 226 213 196
115.443 -67.879 980.326 230 216 199
115.443 -67.379 980.322 230 216 199
115.443 -66.879 980.322 231 217 200
115.443 -66.379 980.324 232 218 201
115.443 -65.879 980.342 231 217 200
115.443 -65.379 980.351 228 215 198
115.443 -64.879 980.356 227 214 197
115.443 -64.379 980.364 225 212 195
115.443 -63.879 980.385 223 210 193
115.443 -63.379 980.380 223 210 193
115.443 -62.879 980.356 225 212 195
115.443 -62.379 980.344 225 210 194
115.443 -61.879 980.337 225 209 193
115.443 -61.379 980.331 227 211 195
115.443 -60.879 980.341 225 209 193
115.943 -68.879 980.309 227 214 197
115.943 -68.379 980.288 228 215 198
115.943 -67.879 980.289 231 217 200
115.943 -67.379 980.289 231 217 200
115.943 -66.879 980.286 231 217 200
115.943 -66.379 980.287 231 217 200
115.943 -65.879 980.314 228 215 198
115.943 -65.379 980.337 227 214 197
115.943 -64.879 980.346 225 212 195
115.943 -64.379 980.362 224 211 194
115.943 -63.879 980.392 222 209 192
115.943 -63.379 980.398 222 209 192
115.943 -62.879 980.382 223 210 193
115.943 -62.379 980.372 226 211 194
115.943 -61.879 980.372 226 210 194
115.943 -61.379 980.369 227 211 195
115.943 -60.879 980.364 225 209 193
116.443 -68.879 980.243 227 214 197
116.443 -68.379 980.232 228 215 198
116.443 -67.879 980.245 230 216 199
116.443 -67.379 980.258 230 216 199
116.443 -66.879 980.264 230 216 199
116.443 -66.379 980.266 228 215 198
116.443 -65.879 980.296 226 213 196
116.443 -65.379 980.326 226 213 194
116.443 -64.879 980.342 224 211 193
116.443 -64.379 980.365 223 209 191
116.443 -63.879 980.393 223 209 191
116.443 -63.379 980.401 222 208 190
116.443 -62.879 980.395 224 209 192
116.443 -62.379 980.390 227 211 194
116.443 -61.879 980.391 227 211 194
116.443 -61.379 980.388 228 213 195
116.443 -60.879 980.376 226 211 193
116.943 -68.879 980.172 230 216 199
116.943 -68.379 980.181 230 216 199
116.943 -67.879 980.199 230 216 199
116.943 -67.379 980.223 230 216 199
116.943 -66.879 980.241 230 216 199
116.943 -66.379 980.244 227 214 197
116.943 -65.879 980.274 224 211 194
116.943 -65.379 980.308 223 210 191
116.943 -64.879 980.333 223 210 191
116.943 -64.379 980.354 224 209 190
116.943 -63.879 980.379 223 208 189
116.943 -63.379 980.388 223 208 189
116.943 -62.879 980.384 224 207 189
116.943 -62.379 980.380 224 208 190
116.943 -61.879 980.385 225 210 191
116.943 -61.379 980.386 227 212 193
116.943 -60.879 980.374 226 211 192
117.443 -68.879 980.142 230 216 199
117.443 -68.379 980.155 230 216 199
117.443 -67.879 980.173 230 216 199
117.443 -67.379 980.196 230 216 199
117.443 -66.879 980.213 230 216 199
117.443 -66.379 980.223 227 214 197
117.443 -65.879 980.251 223 210 193
117.443 -65.379 980.288 224 211 192
117.443 -64.879 980.315 224 210 191
117.443 -64.379 980.327 225 210 191
117.443 -63.879 980.347 222 207 188
117.443 -63.379 980.354 223 208 189
117.443 -62.879 980.357 224 207 189
117.443 -62.379 980.361 222 207 188
117.443 -61.879 980.377 224 209 190
117.443 -61.379 980.378 226 211 192
117.443 -60.879 980.370 227 212 193
117.943 -68.879 980.142 228 215 198
117.943 -68.379 980.155 230 216 199
117.943 -67.879 980.165 230 216 199
117.943 -67.379 980.178 230 216 199
117.943 -66.879 980.189 228 215 198
117.943 -66.379 980.210 227 214 197
117.943 -65.879 980.247 225 212 195
117.943 -65.379 980.282 227 214 195
117.943 -64.879 980.303 226 212 193
117.943 -64.379 980.303 226 211 192
117.943 -63.879 980.312 223 208 189
117.943 -63.379 980.319 223 208 189
117.943 -62.879 980.332 224 207 189
117.943 -62.379 980.344 223 207 190
117.943 -61.879 980.359 225 209 193
117.943 -61.379 980.362 226 210 194
117.943 -60.879 980.374 228 212 196
118.443 -68.879 980.148 228 215 198
118.443 -68.379 980.159 230 216 199
118.443 -67.879 980.166 230 216 199
118.443 -67.379 980.172 230 216 199
118.443 -66.879 980.179 228 215 198
118.443 -66.379 980.203 227 214 197
118.443 -65.879 980.251 227 214 197
118.443 -65.379 980.282 227 214 195
118.443 -64.879 980.299 226 212 193
118.443 -64.379 980.289 225 210 191
118.443 -63.879 980.285 223 208 189
118.443 -63.379 980.293 226 211 192
118.443 -62.879 980.312 227 210 192
118.443 -62.379 980.326 224 208 192
118.443 -61.879 980.341 226 210 194
118.443 -61.379 980.358 227 211 195
118.443 -60.879 980.385 228 212 196
118.943 -68.879 980.155 228 215 198
118.943 -68.379 980.173 228 215 198
118.943 -67.879 980.182 228 215 198
118.943 -67.379 980.185 227 214 197
118.943 -66.879 980.195 227 214 197
118.943 -66.379 980.214 227 214 197
118.943 -65.879 980.257 227 214 197
118.943 -65.379 980.278 226 213 194
118.943 -64.879 980.295 227 213 194
118.943 -64.379 980.280 225 210 191
118.943 -63.879 980.269 224 209 190
118.943 -63.379 980.274 228 213 194
118.943 -62.879 980.295 230 212 194
118.943 -62.379 980.317 226 210 194
118.943 -61.879 980.342 227 211 195
118.943 -61.379 980.375 228 212 196
118.943 -60.879 980.400 228 212 196
119.443 -68.879 980.161 228 215 198
119.443 -68.379 980.182 228 215 198
119.443 -67.879 980.198 227 214 197
119.443 -67.379 980.207 227 214 197
119.443 -66.879 980.224 227 214 197
119.443 -66.379 980.240 227 214 197
119.443 -65.879 980.258 227 214 197
119.443 -65.379 980.271 227 214 195
119.443 -64.879 980.284 227 214 195
119.443 -64.379 980.279 228 213 194
119.443 -63.879 980.270 230 214 195
119.443 -63.379 980.272 230 214 195
119.443 -62.879 980.288 228 212 194
119.443 -62.379 980.310 226 210 193
119.443 -61.879 980.341 228 212 196
119.443 -61.379 980.386 230 213 197
119.443 -60.879 980.411 231 214 198
119.943 -68.879 980.173 231 214 198
119.943 -68.379 980.194 230 213 197
119.943 -67.879 980.214 228 212 196
119.943 -67.379 980.232 230 213 197
119.943 -66.879 980.245 230 213 197
119.943 -66.379 980.255 230 213 197
119.943 -65.879 980.259 228 212 196
119.943 -65.379 980.265 226 213 196
119.943 -64.879 980.267 227 214 197
119.943 -64.379 980.267 228 215 198
119.943 -63.879 980.269 228 215 198
119.943 -63.379 980.269 228 215 198
119.943 -62.879 980.284 226 213 196
119.943 -62.379 980.310 227 212 196
119.943 -61.879 980.348 230 213 197
119.943 -61.379 980.392 230 213 197
119.943 -60.879 980.420 231 214 198
120.443 -68.879 980.193 230 213 197
120.443 -68.379 980.211 228 212 196
120.443 -67.879 980.228 227 211 195
120.443 -67.379 980.254 228 212 196
120.443 -66.879 980.263 230 213 197
120.443 -66.379 980.263 231 214 198
120.443 -65.879 980.262 230 213 197
120.443 -65.379 980.263 226 213 196
120.443 -64.879 980.261 227 214 197
120.443 -64.379 980.262 228 215 198
120.443 -63.879 980.267 228 215 198
120.443 -63.379 980.265 230 216 199
120.443 -62.879 980.283 227 214 197
120.443 -62.379 980.319 230 214 197
120.443 -61.879 980.352 230 213 197
120.443 -61.379 980.387 227 211 195
120.443 -60.879 980.416 230 213 197
120.943 -68.879 980.212 230 213 197
120.943 -68.379 980.218 228 212 196
120.943 -67.879 980.234 227 211 195
120.943 -67.379 980.261 228 212 196
120.943 -66.879 980.268 230 213 197
120.943 -66.379 980.267 231 214 198
120.943 -65.879 980.266 231 214 198
120.943 -65.379 980.267 228 215 198
120.943 -64.879 980.269 228 215 198
120.943 -64.379 980.271 230 216 199
120.943 -63.879 980.264 228 215 198
120.943 -63.379 980.259 230 216 199
120.943 -62.879 980.284 228 215 198
120.943 -62.379 980.323 228 215 198
120.943 -61.879 980.343 226 213 196
120.943 -61.379 980.370 225 212 195
120.943 -60.879 980.401 227 214 197
121.443 -68.879 980.238 230 214 197
121.443 -68.379 980.230 227 214 197
121.443 -67.879 980.239 227 214 197
121.443 -67.379 980.260 227 214 197
121.443 -66.879 980.273 227 214 197
121.443 -66.379 980.275 228 215 198
121.443 -65.879 980.274 230 216 199
121.443 -65.379 980.274 228 215 198
121.443 -64.879 980.277 231 217 200
121.443 -64.379 980.278 232 218 201
121.443 -63.879 980.268 230 216 199
121.443 -63.379 980.264 230 216 199
121.443 -62.879 980.289 230 216 199
121.443 -62.379 980.321 227 214 197
121.443 -61.879 980.333 227 214 197
121.443 -61.379 980.350 227 214 197
121.443 -60.879 980.365 228 215 198
121.943 -68.879 980.281 230 214 198
121.943 -68.379 980.257 228 215 198
121.943 -67.879 980.255 228 215 198
121.943 -67.379 980.262 228 215 198
121.943 -66.879 980.274 228 215 198
121.943 -66.379 980.280 230 216 199
121.943 -65.879 980.283 231 217 200
121.943 -65.379 980.283 230 216 199
121.943 -64.879 980.285 232 218 201
121.943 -64.379 980.287 232 218 201
121.943 -63.879 980.281 231 217 200
121.943 -63.379 980.278 231 217 200
121.943 -62.879 980.294 231 217 200
121.943 -62.379 980.317 230 216 199
121.943 -61.879 980.322 231 217 200
121.943 -61.379 980.323 231 217 200
121.943 -60.879 980.320 231 217 200
122.443 -68.879 980.312 231 215 198
122.443 -68.379 980.285 230 216 199
122.443 -67.879 980.260 230 216 199
122.443 -67.379 980.239 230 216 199
122.443 -66.879 980.230 230 216 199
122.443 -66.379 980.256 231 217 200
122.443 -65.879 980.284 231 217 200
122.443 -65.379 980.291 230 216 199
122.443 -64.879 980.290 232 218 201
122.443 -64.379 980.286 233 219 202
122.443 -63.879 980.281 233 219 202
122.443 -63.379 980.278 232 218 201
122.443 -62.879 980.287 232 218 201
122.443 -62.379 980.304 231 217 200
122.443 -61.879 980.307 231 217 200
122.443 -61.379 980.298 231 217 200
122.443 -60.879 980.285 231 217 200
122.943 -68.879 980.309 228 215 198
122.943 -68.379 980.285 230 216 199
122.943 -67.879 980.245 230 216 199
122.943 -67.379 980.188 231 217 200
122.943 -66.879 980.169 231 217 200
122.943 -66.379 980.203 231 217 200
122.943 -65.879 980.256 231 217 200
122.943 -65.379 980.289 232 218 201
122.943 -64.879 980.288 232 218 201
122.943 -64.379 980.279 233 219 202
122.943 -63.879 980.279 233 219 202
122.943 -63.379 980.273 233 219 202
122.943 -62.879 980.274 233 219 202
122.943 -62.379 980.290 232 218 201
122.943 -61.879 980.297 232 218 201
122.943 -61.379 980.294 232 218 201
122.943 -60.879 980.279 232 218 201
123.443 -68.879 980.290 230 216 199
123.443 -68.379 980.263 230 216 199
123.443 -67.879 980.217 231 217 200
123.443 -67.379 980.157 231 217 200
123.443 -66.879 980.144 231 217 200
123.443 -66.379 980.160 231 217 200
123.443 -65.879 980.206 231 217 200
123.443 -65.379 980.256 232 218 201
123.443 -64.879 980.275 232 218 201
123.443 -64.379 980.275 233 219 202
123.443 -63.879 980.284 233 219 202
123.443 -63.379 980.279 233 219 202
123.443 -62.879 980.274 233 219 202
123.443 -62.379 980.286 232 218 201
123.443 -61.879 980.298 232 218 201
123.443 -61.379 980.304 232 218 201
123.443 -60.879 980.292 232 218 201
123.943 -68.879 980.272 231 217 200
123.943 -68.379 980.241 231 217 200
123.943 -67.879 980.169 232 218 201
123.943 -67.379 980.137 232 218 201
123.943 -66.879 980.131 232 218 201
123.943 -66.379 980.135 232 218 201
123.943 -65.879 980.162 232 218 201
123.943 -65.379 980.213 232 218 201
123.943 -64.879 980.261 232 218 201
123.943 -64.379 980.279 233 219 202
123.943 -63.879 980.292 233 219 202
123.943 -63.379 980.293 233 219 202
123.943 -62.879 980.290 233 219 202
123.943 -62.379 980.288 232 218 201
123.943 -61.879 980.294 232 218 201
123.943 -61.379 980.301 232 218 201
123.943 -60.879 980.290 232 218 201
124.443 -68.879 980.254 232 218 201
124.443 -68.379 980.223 232 218 201
124.443 -67.879 980.145 232 218 201
124.443 -67.379 980.117 233 219 202
124.443 -66.879 980.093 232 218 201
124.443 -66.379 980.092 232 218 201
124.443 -65.879 980.113 232 218 201
124.443 -65.379 980.174 232 218 201
124.443 -64.879 980.240 232 218 201
124.443 -64.379 980.279 233 219 202
124.443 -63.879 980.298 233 219 202
124.443 -63.379 980.304 233 219 202
124.443 -62.879 980.305 233 219 202
124.443 -62.379 980.302 232 218 201
124.443 -61.879 980.303 231 217 200
124.443 -61.379 980.302 231 217 200
124.443 -60.879 980.289 232 218 201
124.943 -68.879 980.232 231 217 200
124.943 -68.379 980.179 231 217 200
124.943 -67.879 980.112 232 218 201
124.943 -67.379 980.075 232 218 201
124.943 -66.879 980.039 233 219 202
124.943 -66.379 980.032 233 220 204
124.943 -65.879 980.059 233 219 202
124.943 -65.379 980.125 233 219 202
124.943 -64.879 980.217 233 219 202
124.943 -64.379 980.277 233 219 202
124.943 -63.879 980.301 233 219 202
124.943 -63.379 980.314 233 219 202
124.943 -62.879 980.319 233 219 202
124.943 -62.379 980.321 233 219 202
124.943 -61.879 980.323 232 218 201
124.943 -61.379 980.319 232 218 201
124.943 -60.879 980.302 232 218 201
125.443 -68.879 980.218 231 217 200
125.443 -68.379 980.150 231 217 200
125.443 -67.879 980.093 232 218 201
125.443 -67.379 980.046 232 218 201
125.443 -66.879 980.021 233 219 202
125.443 -66.379 980.008 233 220 204
125.443 -65.879 980.037 233 219 202
125.443 -65.379 980.099 233 219 202
125.443 -64.879 980.211 233 219 202
125.443 -64.379 980.290 233 219 202
125.443 -63.879 980.326 233 219 202
125.443 -63.379 980.339 233 219 202
125.443 -62.879 980.339 233 219 202
125.443 -62.379 980.332 232 218 201
125.443 -61.879 980.343 233 219 202
125.443 -61.379 980.354 232 218 201
125.443 -60.879 980.344 232 218 201
125.943 -68.879 980.210 231 217 200
125.943 -68.379 980.148 231 217 200
125.943 -67.879 980.096 232 218 201
125.943 -67.379 980.051 232 218 202
125.943 -66.879 980.029 233 219 202
125.943 -66.379 980.020 233 219 204
125.943 -65.879 980.045 233 219 202
125.943 -65.379 980.107 233 219 202
125.943 -64.879 980.211 232 218 201
125.943 -64.379 980.300 232 218 201
125.943 -63.879 980.353 233 219 202
125.943 -63.379 980.360 233 219 202
125.943 -62.879 980.349 233 219 202
125.943 -62.379 980.339 232 218 201
125.943 -61.879 980.361 232 218 201
125.943 -61.379 980.384 232 218 201
125.943 -60.879 980.386 231 217 200
126.443 -68.879 980.214 232 218 201
126.443 -68.379 980.155 232 218 202
126.443 -67.879 980.109 232 218 202
126.443 -67.379 980.080 232 218 202
126.443 -66.879 980.068 233 219 204
126.443 -66.379 980.070 233 219 204
126.443 -65.879 980.095 233 219 204
126.443 -65.379 980.157 233 219 202
126.443 -64.879 980.240 233 219 202
126.443 -64.379 980.312 233 219 202
126.443 -63.879 980.358 232 218 201
126.443 -63.379 980.365 232 218 201
126.443 -62.879 980.355 232 218 201
126.443 -62.379 980.351 231 217 200
126.443 -61.879 980.374 231 217 200
126.443 -61.379 980.400 231 217 200
126.443 -60.879 980.410 231 217 200
126.943 -68.879 980.251 232 218 202
126.943 -68.379 980.192 233 219 204
126.943 -67.879 980.142 233 219 204
126.943 -67.379 980.120 233 219 204
126.943 -66.879 980.115 233 219 204
126.943 -66.379 980.130 233 219 204
126.943 -65.879 980.170 233 219 204
126.943 -65.379 980.233 232 218 201
126.943 -64.879 980.295 232 218 201
126.943 -64.379 980.344 232 218 201
126.943 -63.879 980.371 232 218 201
126.943 -63.379 980.371 232 218 201
126.943 -62.879 980.362 232 218 201
126.943 -62.379 980.361 232 218 201
126.943 -61.879 980.377 232 218 201
126.943 -61.379 980.405 232 218 201
126.943 -60.879 980.421 232 218 201
127.443 -68.879 980.281 232 218 201
127.443 -68.379 980.230 233 219 204
127.443 -67.879 980.168 233 219 204
127.443 -67.379 980.153 233 219 204
127.443 -66.879 980.154 232 218 202
127.443 -66.379 980.181 232 218 202
127.443 -65.879 980.240 232 218 202
127.443 -65.379 980.299 232 218 201
127.443 -64.879 980.342 232 218 201
127.443 -64.379 980.366 232 218 201
127.443 -63.879 980.372 232 218 201
127.443 -63.379 980.366 232 218 201
127.443 -62.879 980.364 232 218 201
127.443 -62.379 980.365 232 218 201
127.443 -61.879 980.372 232 218 201
127.443 -61.379 980.393 232 218 201
127.443 -60.879 980.411 232 218 201
127.943 -68.879 980.288 232 218 201
127.943 -68.379 980.260 233 219 204
127.943 -67.879 980.222 233 219 204
127.943 -67.379 980.203 233 219 204
127.943 -66.879 980.228 233 219 204
127.943 -66.379 980.271 232 218 202
127.943 -65.879 980.319 232 218 202
127.943 -65.379 980.362 231 217 200
127.943 -64.879 980.371 232 218 201
127.943 -64.379 980.359 232 218 201
127.943 -63.879 980.348 232 218 201
127.943 -63.379 980.349 231 217 200
127.943 -62.879 980.370 232 218 201
127.943 -62.379 980.377 232 218 201
127.943 -61.879 980.369 232 218 201
127.943 -61.379 980.372 231 217 200
127.943 -60.879 980.384 231 217 200
128.443 -68.879 980.283 232 218 201
128.443 -68.379 980.270 232 218 202
128.443 -67.879 980.262 232 218 202
128.443 -67.379 980.255 232 218 202
128.443 -66.879 980.295 232 218 202
128.443 -66.379 980.357 232 218 202
128.443 -65.879 980.391 232 218 202
128.443 -65.379 980.406 231 217 200
128.443 -64.879 980.382 233 219 202
128.443 -64.379 980.346 232 218 201
128.443 -63.879 980.329 232 218 201
128.443 -63.379 980.337 231 217 200
128.443 -62.879 980.370 231 217 200
128.443 -62.379 980.380 232 218 201
128.443 -61.879 980.365 232 218 201
128.443 -61.379 980.352 232 218 201
128.443 -60.879 980.347 231 217 200
128.943 -68.879 980.267 232 218 201
128.943 -68.379 980.266 232 218 202
128.943 -67.879 980.267 231 217 201
128.943 -67.379 980.286 231 217 201
128.943 -66.879 980.336 231 217 201
128.943 -66.379 980.395 231 217 201
128.943 -65.879 980.430 231 217 201
128.943 -65.379 980.416 232 218 201
128.943 -64.879 980.381 233 219 202
128.943 -64.379 980.340 233 219 202
128.943 -63.879 980.323 231 217 200
128.943 -63.379 980.326 231 217 200
128.943 -62.879 980.354 231 217 200
128.943 -62.379 980.367 232 218 201
128.943 -61.879 980.350 232 218 201
128.943 -61.379 980.331 232 218 201
128.943 -60.879 980.312 233 219 202
129.443 -68.879 980.253 232 218 201
129.443 -68.379 980.258 232 218 201
129.443 -67.879 980.262 230 216 199
129.443 -67.379 980.308 230 216 199
129.443 -66.879 980.373 230 216 199
129.443 -66.379 980.421 230 216 199
129.443 -65.879 980.447 230 216 199
129.443 -65.379 980.420 231 217 200
129.443 -64.879 980.380 233 219 202
129.443 -64.379 980.352 233 219 202
129.443 -63.879 980.329 232 218 201
129.443 -63.379 980.322 232 218 201
129.443 -62.879 980.336 232 218 201
129.443 -62.379 980.346 231 218 201
129.443 -61.879 980.332 231 219 201
129.443 -61.379 980.308 231 219 201
129.443 -60.879 980.280 232 220 202
129.943 -68.879 980.260 231 217 200
129.943 -68.379 980.258 230 216 199
129.943 -67.879 980.270 228 215 198
129.943 -67.379 980.324 227 214 197
129.943 -66.879 980.377 227 214 197
129.943 -66.379 980.419 227 214 197
129.943 -65.879 980.442 227 214 197
129.943 -65.379 980.414 228 215 198
129.943 -64.879 980.381 231 217 200
129.943 -64.379 980.364 231 217 200
129.943 -63.879 980.342 232 218 201
129.943 -63.379 980.337 232 218 201
129.943 -62.879 980.336 231 217 200
129.943 -62.379 980.333 231 218 200
129.943 -61.879 980.314 231 219 201
129.943 -61.379 980.281 231 219 201
129.943 -60.879 980.251 231 219 201
130.443 -68.879 980.286 228 215 198
130.443 -68.379 980.273 230 216 199
130.443 -67.879 980.286 228 215 198
130.443 -67.379 980.324 226 213 196
130.443 -66.879 980.351 226 213 196
130.443 -66.379 980.380 226 213 196
130.443 -65.879 980.392 226 213 196
130.443 -65.379 980.384 226 213 196
130.443 -64.879 980.371 228 215 198
130.443 -64.379 980.364 230 216 199
130.443 -63.879 980.356 232 218 201
130.443 -63.379 980.360 231 217 200
130.443 -62.879 980.356 231 217 200
130.443 -62.379 980.341 230 217 200
130.443 -61.879 980.311 231 218 201
130.443 -61.379 980.272 231 218 201
130.443 -60.879 980.248 231 218 201
130.943 -68.879 980.313 227 214 197
130.943 -68.379 980.295 227 214 197
130.943 -67.879 980.290 227 214 197
130.943 -67.379 980.306 226 213 196
130.943 -66.879 980.319 225 212 195
130.943 -66.379 980.338 225 212 195
130.943 -65.879 980.336 226 213 196
130.943 -65.379 980.345 226 213 196
130.943 -64.879 980.335 227 214 197
130.943 -64.379 980.340 227 214 197
130.943 -63.879 980.349 228 215 198
130.943 -63.379 980.363 230 216 199
130.943 -62.879 980.364 231 217 200
130.943 -62.379 980.346 231 217 200
130.943 -61.879 980.316 232 218 201
130.943 -61.379 980.283 232 218 201
130.943 -60.879 980.266 231 217 200
131.443 -68.879 980.334 226 213 196
131.443 -68.379 980.319 226 213 196
131.443 -67.879 980.291 226 213 196
131.443 -67.379 980.288 226 213 196
131.443 -66.879 980.294 225 212 195
131.443 -66.379 980.306 225 212 195
131.443 -65.879 980.295 226 213 196
131.443 -65.379 980.302 230 213 197
131.443 -64.879 980.289 230 213 197
131.443 -64.379 980.301 231 214 198
131.443 -63.879 980.318 231 214 198
131.443 -63.379 980.339 232 215 199
131.443 -62.879 980.347 232 215 199
131.443 -62.379 980.339 230 216 199
131.443 -61.879 980.317 231 217 200
131.443 -61.379 980.295 231 217 200
131.443 -60.879 980.284 230 216 199
131.943 -68.879 980.335 224 211 194
131.943 -68.379 980.332 225 212 195
131.943 -67.879 980.294 225 212 195
131.943 -67.379 980.285 226 213 196
131.943 -66.879 980.292 225 212 195
131.943 -66.379 980.300 226 213 196
131.943 -65.879 980.274 227 214 197
131.943 -65.379 980.264 231 214 198
131.943 -64.879 980.253 231 214 198
131.943 -64.379 980.261 231 214 198
131.943 -63.879 980.280 230 213 197
131.943 -63.379 980.303 228 212 196
131.943 -62.879 980.320 230 213 197
131.943 -62.379 980.323 228 214 198
131.943 -61.879 980.317 230 215 199
131.943 -61.379 980.315 230 215 199
131.943 -60.879 980.316 228 214 197
132.443 -68.879 980.319 224 211 194
132.443 -68.379 980.328 226 211 194
132.443 -67.879 980.307 226 211 195
132.443 -67.379 980.306 226 211 194
132.443 -66.879 980.315 225 210 194
132.443 -66.379 980.309 226 211 195
132.443 -65.879 980.269 227 213 196
132.443 -65.379 980.244 231 214 198
132.443 -64.879 980.228 231 214 198
132.443 -64.379 980.229 230 213 197
132.443 -63.879 980.245 230 213 197
132.443 -63.379 980.268 228 212 196
132.443 -62.879 980.294 228 212 196
132.443 -62.379 980.306 230 213 197
132.443 -61.879 980.315 231 214 198
132.443 -61.379 980.334 231 214 198
132.443 -60.879 980.348 230 213 197
132.943 -68.879 980.300 224 210 194
132.943 -68.379 980.318 226 210 194
132.943 -67.879 980.321 226 210 194
132.943 -67.379 980.333 225 209 193
132.943 -66.879 980.344 226 210 194
132.943 -66.379 980.325 227 211 195
132.943 -65.879 980.281 228 212 196
132.943 -65.379 980.246 230 213 197
132.943 -64.879 980.226 230 213 197
132.943 -64.379 980.226 230 213 197
132.943 -63.879 980.239 228 212 196
132.943 -63.379 980.261 228 212 196
132.943 -62.879 980.281 228 212 196
132.943 -62.379 980.293 230 213 197
132.943 -61.879 980.306 231 214 198
132.943 -61.379 980.337 231 214 198
132.943 -60.879 980.360 230 213 197
133.443 -68.879 980.272 223 209 193
133.443 -68.379 980.305 225 209 193
133.443 -67.879 980.326 225 209 193
133.443 -67.379 980.354 226 210 194
133.443 -66.879 980.365 226 210 194
133.443 -66.379 980.344 227 211 195
133.443 -65.879 980.301 228 212 196
133.443 -65.379 980.267 230 213 197
133.443 -64.879 980.251 228 212 196
133.443 -64.379 980.256 228 212 196
133.443 -63.879 980.266 228 212 196
133.443 -63.379 980.274 228 212 196
133.443 -62.879 980.283 228 212 196
133.443 -62.379 980.293 230 213 197
133.443 -61.879 980.299 231 214 198
133.443 -61.379 980.323 231 214 198
133.443 -60.879 980.356 230 213 197
133.943 -68.879 980.243 223 209 192
133.943 -68.379 980.273 225 209 193
133.943 -67.879 980.312 225 209 193
133.943 -67.379 980.357 226 210 194
133.943 -66.879 980.369 226 210 194
133.943 -66.379 980.359 227 211 195
133.943 -65.879 980.329 228 212 196
133.943 -65.379 980.309 228 212 196
133.943 -64.879 980.302 228 212 196
133.943 -64.379 980.306 228 212 196
133.943 -63.879 980.306 228 212 196
133.943 -63.379 980.294 228 212 196
133.943 -62.879 980.303 231 214 198
133.943 -62.379 980.317 231 214 198
133.943 -61.879 980.318 231 214 198
133.943 -61.379 980.332 231 214 198
133.943 -60.879 980.364 230 213 197
134.443 -68.879 980.222 224 210 194
134.443 -68.379 980.237 226 210 194
134.443 -67.879 980.279 226 210 194
134.443 -67.379 980.340 226 210 194
134.443 -66.879 980.367 227 211 195
134.443 -66.379 980.374 227 211 195
134.443 -65.879 980.367 228 212 196
134.443 -65.379 980.364 228 212 196
134.443 -64.879 980.358 228 212 196
134.443 -64.379 980.353 228 212 196
134.443 -63.879 980.346 228 212 196
134.443 -63.379 980.324 230 213 197
134.443 -62.879 980.331 232 215 199
134.443 -62.379 980.346 232 215 199
134.443 -61.879 980.357 231 214 198
134.443 -61.379 980.371 231 214 198
134.443 -60.879 980.393 230 213 197
134.943 -68.879 980.216 225 211 195
134.943 -68.379 980.223 227 211 195
134.943 -67.879 980.253 225 209 193
134.943 -67.379 980.316 225 209 193
134.943 -66.879 980.355 225 209 193
134.943 -66.379 980.376 226 210 194
134.943 -65.879 980.389 227 211 195
134.943 -65.379 980.400 228 212 196
134.943 -64.879 980.390 230 213 197
134.943 -64.379 980.379 231 214 198
134.943 -63.879 980.369 232 215 199
134.943 -63.379 980.348 231 214 198
134.943 -62.879 980.351 231 214 198
134.943 -62.379 980.368 231 214 198
134.943 -61.879 980.390 231 214 198
134.943 -61.379 980.410 231 214 198
134.943 -60.879 980.424 230 213 197
135.443 -68.879 980.220 226 212 195
135.443 -68.379 980.224 227 211 195
135.443 -67.879 980.244 225 209 193
135.443 -67.379 980.295 224 208 192
135.443 -66.879 980.338 224 208 192
135.443 -66.379 980.358 225 209 193
135.443 -65.879 980.379 226 210 194
135.443 -65.379 980.399 227 211 195
135.443 -64.879 980.395 228 212 196
135.443 -64.379 980.382 231 214 198
135.443 -63.879 980.368 231 214 198
135.443 -63.379 980.357 231 214 198
135.443 -62.879 980.363 228 212 196
135.443 -62.379 980.390 230 213 197
135.443 -61.879 980.420 231 214 198
135.443 -61.379 980.445 231 214 198
135.443 -60.879 980.454 232 215 199
135.943 -68.879 980.224 225 212 195
135.943 -68.379 980.229 225 212 195
135.943 -67.879 980.247 224 211 194
135.943 -67.379 980.283 224 211 194
135.943 -66.879 980.320 224 211 194
135.943 -66.379 980.334 223 210 193
135.943 -65.879 980.346 223 210 193
135.943 -65.379 980.370 225 212 195
135.943 -64.879 980.385 226 213 196
135.943 -64.379 980.381 226 213 196
135.943 -63.879 980.366 227 214 197
135.943 -63.379 980.362 227 214 197
135.943 -62.879 980.377 227 214 197
135.943 -62.379 980.411 227 214 197
135.943 -61.879 980.446 227 214 197
135.943 -61.379 980.471 228 215 198
135.943 -60.879 980.469 228 215 198
136.443 -68.879 980.230 226 213 196
136.443 -68.379 980.231 226 213 196
136.443 -67.879 980.242 225 212 195
136.443 -67.379 980.260 225 212 195
136.443 -66.879 980.290 226 213 196
136.443 -66.379 980.308 225 212 195
136.443 -65.879 980.316 225 212 195
136.443 -65.379 980.344 225 212 195
136.443 -64.879 980.374 225 212 195
136.443 -64.379 980.380 225 212 195
136.443 -63.879 980.369 227 214 197
136.443 -63.379 980.372 227 214 197
136.443 -62.879 980.393 227 214 197
136.443 -62.379 980.430 227 214 197
136.443 -61.879 980.463 227 214 197
136.443 -61.379 980.480 228 215 198
136.443 -60.879 980.470 228 215 198
136.943 -68.879 980.239 227 214 197
136.943 -68.379 980.228 226 213 196
136.943 -67.879 980.229 226 213 196
136.943 -67.379 980.237 226 213 196
136.943 -66.879 980.260 226 213 196
136.943 -66.379 980.282 226 213 196
136.943 -65.879 980.308 225 212 195
136.943 -65.379 980.343 225 212 195
136.943 -64.879 980.369 226 213 196
136.943 -64.379 980.373 227 214 197
136.943 -63.879 980.368 228 215 198
136.943 -63.379 980.379 228 215 198
136.943 -62.879 980.406 228 215 198
136.943 -62.379 980.443 227 214 197
136.943 -61.879 980.468 227 214 197
136.943 -61.379 980.475 228 215 198
136.943 -60.879 980.465 228 215 198
137.443 -68.879 980.247 227 214 197
137.443 -68.379 980.230 227 214 197
137.443 -67.879 980.224 226 213 196
137.443 -67.379 980.229 226 213 196
137.443 -66.879 980.250 226 213 196
137.443 -66.379 980.273 225 212 195
137.443 -65.879 980.318 225 212 195
137.443 -65.379 980.360 225 212 195
137.443 -64.879 980.371 227 214 197
137.443 -64.379 980.370 228 215 198
137.443 -63.879 980.369 228 215 198
137.443 -63.379 980.386 228 215 198
137.443 -62.879 980.418 228 215 198
137.443 -62.379 980.448 228 215 198
137.443 -61.879 980.460 228 215 198
137.443 -61.379 980.466 228 215 198
137.443 -60.879 980.457 228 215 198
137.943 -68.879 980.266 226 213 196
137.943 -68.379 980.251 226 213 196
137.943 -67.879 980.239 226 213 196
137.943 -67.379 980.240 226 213 196
137.943 -66.879 980.259 225 212 195
137.943 -66.379 980.286 224 211 194
137.943 -65.879 980.349 225 212 195
137.943 -65.379 980.383 225 212 195
137.943 -64.879 980.390 227 214 197
137.943 -64.379 980.390 228 215 198
137.943 -63.879 980.389 228 215 198
137.943 -63.379 980.401 228 215 198
137.943 -62.879 980.428 228 215 198
137.943 -62.379 980.445 228 215 198
137.943 -61.879 980.450 228 215 198
137.943 -61.379 980.449 228 215 198
137.943 -60.879 980.436 228 215 198
138.443 -68.879 980.309 225 212 195
138.443 -68.379 980.288 226 213 196
138.443 -67.879 980.273 226 213 196
138.443 -67.379 980.264 226 213 196
138.443 -66.879 980.274 225 212 195
138.443 -66.379 980.308 225 212 195
138.443 -65.879 980.388 225 212 195
138.443 -65.379 980.408 226 213 196
138.443 -64.879 980.418 227 214 197
138.443 -64.379 980.426 228 215 198
138.443 -63.879 980.423 228 215 198
138.443 -63.379 980.418 228 215 198
138.443 -62.879 980.418 228 215 198
138.443 -62.379 980.424 228 215 198
138.443 -61.879 980.430 228 215 198
138.443 -61.379 980.424 228 215 198
138.443 -60.879 980.414 228 215 198
138.943 -68.879 980.360 224 211 194
138.943 -68.379 980.333 225 212 195
138.943 -67.879 980.318 225 212 195
138.943 -67.379 980.300 226 213 196
138.943 -66.879 980.299 225 212 195
138.943 -66.379 980.333 225 212 195
138.943 -65.879 980.409 225 212 195
138.943 -65.379 980.431 225 212 195
138.943 -64.879 980.450 226 213 196
138.943 -64.379 980.455 227 214 197
138.943 -63.879 980.444 228 215 198
138.943 -63.379 980.421 227 214 197
138.943 -62.879 980.401 228 215 198
138.943 -62.379 980.395 228 215 198
138.943 -61.879 980.395 228 215 198
138.943 -61.379 980.396 228 215 198
138.943 -60.879 980.396 228 215 198
139.443 -68.879 980.400 223 210 193
139.443 -68.379 980.385 224 211 194
139.443 -67.879 980.369 225 212 195
139.443 -67.379 980.346 226 213 196
139.443 -66.879 980.340 225 212 195
139.443 -66.379 980.365 225 212 195
139.443 -65.879 980.421 225 212 195
139.443 -65.379 980.452 225 212 195
139.443 -64.879 980.479 226 213 196
139.443 -64.379 980.471 227 214 197
139.443 -63.879 980.442 228 215 198
139.443 -63.379 980.405 228 215 198
139.443 -62.879 980.385 228 215 198
139.443 -62.379 980.376 228 215 198
139.443 -61.879 980.368 228 215 198
139.443 -61.379 980.370 228 215 198
139.443 -60.879 980.374 228 215 198
139.943 -68.879 980.422 223 210 193
139.943 -68.379 980.421 224 211 194
139.943 -67.879 980.401 225 212 195
139.943 -67.379 980.380 225 212 195
139.943 -66.879 980.377 225 212 195
139.943 -66.379 980.391 225 212 195
139.943 -65.879 980.440 225 212 195
139.943 -65.379 980.472 226 213 196
139.943 -64.879 980.490 227 214 197
139.943 -64.379 980.464 228 215 198
139.943 -63.879 980.422 228 215 198
