54.943 -16.379 981.431 226 213 197
54.943 -15.879 981.503 228 215 199
54.943 -15.379 981.591 225 209 194
54.943 -14.879 981.655 213 197 182
54.943 -14.379 981.718 209 196 180
54.943 -13.879 981.765 214 201 185
54.943 -13.379 981.851 218 205 189
54.943 -12.879 981.901 220 206 193
54.943 -12.379 981.869 219 205 192
54.943 -11.879 981.748 192 179 165
54.943 -11.379 981.586 167 152 140
54.943 -10.879 981.330 137 123 114
54.943 -10.379 980.982 139 125 116
55.443 -17.879 981.342 225 212 196
55.443 -17.379 981.362 226 213 197
55.443 -16.879 981.381 227 214 198
55.443 -16.379 981.408 231 215 200
55.443 -15.879 981.464 231 214 199
55.443 -15.379 981.544 233 217 202
55.443 -14.879 981.611 230 213 198
55.443 -14.379 981.684 225 209 194
55.443 -13.879 981.745 222 206 191
55.443 -13.379 981.832 228 212 197
55.443 -12.879 981.889 228 212 198
55.443 -12.379 981.891 230 213 200
55.443 -11.879 981.835 222 206 193
55.443 -11.379 981.724 196 180 168
55.443 -10.879 981.507 153 139 130
55.443 -10.379 981.163 141 127 118
55.943 -17.879 981.335 220 207 191
55.943 -17.379 981.336 226 213 197
55.943 -16.879 981.344 228 215 199
55.943 -16.379 981.373 231 217 201
55.943 -15.879 981.414 231 217 201
55.943 -15.379 981.476 230 216 200
55.943 -14.879 981.556 233 219 204
55.943 -14.379 981.629 231 217 201
55.943 -13.879 981.720 225 212 196
55.943 -13.379 981.815 228 215 199
55.943 -12.879 981.877 226 213 197
55.943 -12.379 981.901 227 214 198
55.943 -11.879 981.887 230 216 200
55.943 -11.379 981.800 212 199 183
55.943 -10.879 981.620 167 152 141
55.943 -10.379 981.330 151 134 124
56.443 -17.879 981.322 226 213 197
56.443 -17.379 981.321 226 213 197
56.443 -16.879 981.321 228 215 199
56.443 -16.379 981.342 231 217 201
56.443 -15.879 981.376 232 218 202
56.443 -15.379 981.429 228 215 199
56.443 -14.879 981.507 232 218 202
56.443 -14.379 981.572 233 219 204
56.443 -13.879 981.678 231 217 201
56.443 -13.379 981.792 228 215 199
56.443 -12.879 981.860 230 216 200
56.443 -12.379 981.901 226 213 197
56.443 -11.879 981.906 227 214 198
56.443 -11.379 981.855 223 210 194
56.443 -10.879 981.726 194 180 168
56.443 -10.379 981.514 187 172 159
56.943 -17.879 981.297 228 215 199
56.943 -17.379 981.298 228 215 199
56.943 -16.879 981.301 227 214 198
56.943 -16.379 981.314 228 215 199
56.943 -15.879 981.352 231 217 201
56.943 -15.379 981.418 228 215 199
56.943 -14.879 981.479 228 215 199
56.943 -14.379 981.527 232 218 202
56.943 -13.879 981.614 232 218 202
56.943 -13.379 981.752 230 216 200
56.943 -12.879 981.830 228 215 199
56.943 -12.379 981.887 226 213 197
56.943 -11.879 981.905 225 212 196
56.943 -11.379 981.894 221 208 192
56.943 -10.879 981.806 205 191 178
56.943 -10.379 981.643 172 156 143
57.443 -17.879 981.264 226 213 197
57.443 -17.379 981.270 225 212 196
57.443 -16.879 981.277 226 213 197
57.443 -16.379 981.282 227 214 198
57.443 -15.879 981.326 227 214 198
57.443 -15.379 981.404 228 215 199
57.443 -14.879 981.456 227 214 198
57.443 -14.379 981.495 230 216 200
57.443 -13.879 981.560 233 220 205
57.443 -13.379 981.711 233 219 204
57.443 -12.879 981.799 231 217 201
57.443 -12.379 981.870 226 213 197
57.443 -11.879 981.911 224 211 195
57.443 -11.379 981.930 218 205 189
57.443 -10.879 981.870 200 187 171
57.443 -10.379 981.740 169 154 138
57.943 -17.879 981.227 228 212 197
57.943 -17.379 981.237 228 215 199
57.943 -16.879 981.256 227 214 198
57.943 -16.379 981.256 226 213 197
57.943 -15.879 981.283 227 214 198
57.943 -15.379 981.344 228 215 199
57.943 -14.879 981.407 228 215 199
57.943 -14.379 981.451 231 217 201
57.943 -13.879 981.517 233 220 205
57.943 -13.379 981.666 235 222 206
57.943 -12.879 981.765 236 223 207
57.943 -12.379 981.865 232 218 202
57.943 -11.879 981.925 226 213 197
57.943 -11.379 981.955 218 205 189
57.943 -10.879 981.919 204 191 175
57.943 -10.379 981.818 180 164 149
58.443 -17.879 981.188 233 216 201
58.443 -17.379 981.190 231 217 201
58.443 -16.879 981.220 232 218 202
58.443 -16.379 981.228 230 216 200
58.443 -15.879 981.234 227 214 198
58.443 -15.379 981.274 227 214 198
58.443 -14.879 981.332 230 216 200
58.443 -14.379 981.381 228 215 199
58.443 -13.879 981.454 233 219 204
58.443 -13.379 981.595 234 221 205
58.443 -12.879 981.710 234 221 205
58.443 -12.379 981.826 231 217 201
58.443 -11.879 981.907 221 208 192
58.443 -11.379 981.948 220 207 191
58.443 -10.879 981.934 216 203 186
58.443 -10.379 981.866 201 186 171
58.943 -17.379 981.145 230 216 200
58.943 -16.879 981.170 232 218 202
58.943 -16.379 981.186 232 218 202
58.943 -15.879 981.199 228 215 199
58.943 -15.379 981.234 227 214 198
58.943 -14.879 981.280 228 215 199
58.943 -14.379 981.327 231 217 200
58.943 -13.879 981.393 230 216 199
58.943 -13.379 981.510 233 219 202
58.943 -12.879 981.634 233 219 202
58.943 -12.379 981.727 218 205 188
58.943 -11.879 981.822 215 202 185
58.943 -11.379 981.885 222 209 192
58.943 -10.879 981.902 222 209 193
58.943 -10.379 981.872 221 205 190
59.443 -16.879 981.142 231 217 201
59.443 -16.379 981.158 232 218 202
59.443 -15.879 981.184 230 216 200
59.443 -15.379 981.222 230 216 200
59.443 -14.879 981.264 230 216 200
59.443 -14.379 981.304 230 216 199
59.443 -13.879 981.364 228 215 198
59.443 -13.379 981.455 227 214 197
59.443 -12.879 981.564 231 217 200
59.443 -12.379 981.633 228 215 198
59.443 -11.879 981.714 227 214 197
59.443 -11.379 981.781 223 210 193
59.443 -10.879 981.826 226 213 197
59.443 -10.379 981.844 227 214 198
59.943 -16.879 981.128 230 216 200
59.943 -16.379 981.156 232 218 201
59.943 -15.879 981.187 231 217 201
59.943 -15.379 981.231 231 217 201
59.943 -14.879 981.268 230 216 200
59.943 -14.379 981.304 226 213 196
59.943 -13.879 981.364 231 217 200
59.943 -13.379 981.437 230 216 199
59.943 -12.879 981.516 228 215 198
59.943 -12.379 981.573 231 217 200
59.943 -11.879 981.640 232 218 201
59.943 -11.379 981.706 230 216 199
59.943 -10.879 981.761 226 213 197
59.943 -10.379 981.799 230 216 200
60.443 -16.879 981.114 230 216 199
60.443 -16.379 981.172 232 218 201
60.443 -15.879 981.211 231 217 200
60.443 -15.379 981.254 231 217 200
60.443 -14.879 981.280 230 216 199
60.443 -14.379 981.319 228 215 198
60.443 -13.879 981.373 228 215 198
60.443 -13.379 981.435 231 217 200
60.443 -12.879 981.487 232 218 201
60.443 -12.379 981.526 231 217 200
60.443 -11.879 981.585 231 217 200
60.443 -11.379 981.659 231 217 200
60.443 -10.879 981.719 224 212 196
60.443 -10.379 981.757 231 217 201
60.943 -16.879 981.112 232 218 201
60.943 -16.379 981.190 230 216 199
60.943 -15.879 981.248 230 216 199
60.943 -15.379 981.280 230 216 199
60.943 -14.879 981.306 231 217 200
60.943 -14.379 981.341 231 217 200
60.943 -13.879 981.377 231 217 200
60.943 -13.379 981.430 231 217 200
60.943 -12.879 981.463 232 218 201
60.943 -12.379 981.487 231 217 200
60.943 -11.879 981.533 231 217 200
60.943 -11.379 981.603 232 218 201
60.943 -10.879 981.672 228 216 200
60.943 -10.379 981.716 230 217 201
61.443 -16.879 981.124 231 217 200
61.443 -16.379 981.197 228 215 198
61.443 -15.879 981.262 227 214 197
61.443 -15.379 981.304 228 215 198
61.443 -14.879 981.331 230 216 199
61.443 -14.379 981.351 231 217 200
61.443 -13.879 981.373 231 217 200
61.443 -13.379 981.411 231 217 200
61.443 -12.879 981.432 232 218 201
61.443 -12.379 981.447 232 218 201
61.443 -11.879 981.484 231 217 200
61.443 -11.379 981.539 231 217 200
61.443 -10.879 981.606 233 220 205
61.443 -10.379 981.654 233 221 205
61.943 -16.879 981.131 230 216 197
61.943 -16.379 981.193 230 216 197
61.943 -15.879 981.253 227 214 195
61.943 -15.379 981.306 226 212 194
61.943 -14.879 981.330 227 214 195
61.943 -14.379 981.342 231 217 200
61.943 -13.879 981.364 232 218 201
61.943 -13.379 981.387 233 219 202
61.943 -12.879 981.399 232 218 201
61.943 -12.379 981.412 232 218 201
61.943 -11.879 981.440 232 218 201
61.943 -11.379 981.483 230 216 199
61.943 -10.879 981.539 228 216 200
61.943 -10.379 981.584 230 217 201
62.443 -16.379 981.183 232 215 199
62.443 -15.879 981.232 232 215 199
62.443 -15.379 981.278 228 212 196
62.443 -14.879 981.299 228 212 196
62.443 -14.379 981.315 227 214 197
62.443 -13.879 981.342 230 216 199
62.443 -13.379 981.355 232 218 201
62.443 -12.879 981.368 233 219 202
62.443 -12.379 981.384 233 219 202
62.443 -11.879 981.399 233 219 202
62.443 -11.379 981.433 232 218 201
62.443 -10.879 981.479 230 216 199
62.443 -10.379 981.513 228 215 198
62.943 -15.879 981.219 232 215 199
62.943 -15.379 981.251 233 216 200
62.943 -14.879 981.266 232 215 199
62.943 -14.379 981.286 228 214 198
62.943 -13.879 981.307 230 216 199
62.943 -13.379 981.320 228 215 198
62.943 -12.879 981.340 230 216 199
62.943 -12.379 981.354 231 217 200
62.943 -11.879 981.360 233 219 202
62.943 -11.379 981.382 233 219 202
62.943 -10.879 981.418 232 218 201
62.943 -10.379 981.442 228 215 198
63.443 -15.879 981.232 226 210 194
63.443 -15.379 981.249 232 215 199
63.443 -14.879 981.259 233 217 201
63.443 -14.379 981.272 231 216 199
63.443 -13.879 981.281 231 217 200
63.443 -13.379 981.298 228 215 198
63.443 -12.879 981.327 227 214 197
63.443 -12.379 981.334 228 215 198
63.443 -11.879 981.335 232 218 201
63.443 -11.379 981.350 233 220 204
63.443 -10.879 981.374 231 217 200
63.443 -10.379 981.404 230 216 199
63.943 -15.379 981.270 225 209 193
63.943 -14.879 981.272 230 213 197
63.943 -14.379 981.274 231 214 198
63.943 -13.879 981.275 233 216 200
63.943 -13.379 981.285 233 217 201
63.943 -12.879 981.312 233 216 200
63.943 -12.379 981.319 228 212 196
63.943 -11.879 981.321 233 216 200
63.943 -11.379 981.335 233 217 201
63.943 -10.879 981.353 232 218 201
63.943 -10.379 981.380 228 215 198
64.443 -15.379 981.303 230 213 197
64.443 -14.879 981.296 224 208 192
64.443 -14.379 981.292 226 210 194
64.443 -13.879 981.285 228 212 196
64.443 -13.379 981.281 231 214 198
64.443 -12.879 981.293 233 216 200
64.443 -12.379 981.300 232 215 199
64.443 -11.879 981.309 231 214 198
64.443 -11.379 981.329 230 213 197
64.443 -10.879 981.344 227 214 197
64.443 -10.379 981.364 227 214 197
64.943 -14.879 981.324 231 214 198
64.943 -14.379 981.317 230 213 197
64.943 -13.879 981.308 225 209 193
64.943 -13.379 981.294 230 213 197
64.943 -12.879 981.286 227 211 195
64.943 -12.379 981.290 227 211 195
64.943 -11.879 981.303 230 213 197
64.943 -11.379 981.326 230 213 197
64.943 -10.879 981.350 225 212 195
64.943 -10.379 981.369 222 209 192
65.443 -14.379 981.359 225 212 195
65.443 -13.879 981.347 205 192 175
65.443 -13.379 981.319 215 199 183
65.443 -12.879 981.301 216 200 184
65.443 -12.379 981.299 214 199 180
65.443 -11.879 981.312 217 200 182
65.443 -11.379 981.331 221 204 186
65.443 -10.879 981.359 218 201 183
65.443 -10.379 981.379 211 194 176
65.943 -13.879 981.385 212 199 183
65.943 -13.379 981.355 195 179 163
65.943 -12.879 981.334 201 185 170
65.943 -12.379 981.323 202 186 171
65.943 -11.879 981.334 208 191 173
65.943 -11.379 981.351 209 192 174
65.943 -10.879 981.375 219 202 184
65.943 -10.379 981.385 225 208 190
66.443 -13.379 981.393 217 201 186
66.443 -12.879 981.371 225 209 193
66.443 -12.379 981.355 224 208 192
66.443 -11.879 981.349 225 208 192
66.443 -11.379 981.359 218 201 184
66.443 -10.879 981.382 221 204 186
66.443 -10.379 981.383 227 210 192
66.943 -12.879 981.410 223 207 192
66.943 -12.379 981.390 226 210 195
66.943 -11.879 981.373 223 206 190
66.943 -11.379 981.373 219 202 186
66.943 -10.879 981.385 219 202 184
66.943 -10.379 981.386 225 208 190
67.443 -11.879 981.408 221 204 188
67.443 -11.379 981.398 222 205 189
67.443 -10.879 981.397 222 205 187
67.443 -10.379 981.391 225 208 190
67.943 -11.879 981.438 223 205 190
67.943 -11.379 981.425 218 201 185
67.943 -10.879 981.420 224 207 189
67.943 -10.379 981.409 227 210 192
47.443 -9.879 978.378 131 123 121
47.443 -9.379 978.068 130 122 120
47.443 -8.879 977.820 128 120 118
47.443 -8.379 977.573 128 120 118
47.443 -7.879 977.280 119 111 109
47.443 -7.379 977.004 117 108 106
47.443 -6.879 976.727 124 117 114
47.443 -6.379 976.466 129 121 119
47.443 -5.879 976.229 128 120 118
47.443 -5.379 976.001 133 125 123
47.443 -4.879 975.738 128 120 118
47.443 -4.379 975.530 128 120 118
47.443 -3.879 975.200 131 123 121
47.943 -9.879 978.406 133 125 123
47.943 -9.379 978.118 135 127 125
47.943 -8.879 977.860 130 122 120
47.943 -8.379 977.581 130 122 120
47.943 -7.879 977.327 118 109 107
47.943 -7.379 977.085 112 104 103
47.943 -6.879 976.795 119 111 109
47.943 -6.379 976.458 127 119 117
47.943 -5.879 976.191 126 119 116
47.943 -5.379 975.962 125 118 116
47.943 -4.879 975.660 126 119 116
47.943 -4.379 975.439 128 120 118
48.443 -9.879 978.492 125 118 116
48.443 -9.379 978.187 122 115 112
48.443 -8.879 977.895 121 113 111
48.443 -8.379 977.616 123 116 113
48.443 -7.879 977.354 123 116 113
48.443 -7.379 977.096 122 115 112
48.443 -6.879 976.806 119 111 109
48.443 -6.379 976.459 128 120 118
48.443 -5.879 976.179 124 117 114
48.443 -5.379 975.932 124 117 114
48.443 -4.879 975.579 127 119 117
48.443 -4.379 975.283 129 121 119
48.943 -9.879 978.598 126 119 116
48.943 -9.379 978.235 116 107 105
48.943 -8.879 977.920 113 105 103
48.943 -8.379 977.653 120 112 110
48.943 -7.879 977.383 133 125 123
48.943 -7.379 977.100 135 127 125
48.943 -6.879 976.773 121 113 111
48.943 -6.379 976.443 119 111 109
48.943 -5.879 976.176 119 111 109
48.943 -5.379 975.901 125 118 116
48.943 -4.879 975.538 132 124 121
48.943 -4.379 975.177 131 123 121
49.443 -9.879 978.703 126 119 116
49.443 -9.379 978.337 117 108 106
49.443 -8.879 978.010 115 106 104
49.443 -8.379 977.724 123 116 112
49.443 -7.879 977.434 134 124 123
49.443 -7.379 977.102 138 128 126
49.443 -6.879 976.775 128 119 116
49.443 -6.379 976.480 119 109 107
49.443 -5.879 976.179 122 111 108
49.443 -5.379 975.877 129 119 116
49.443 -4.879 975.508 134 124 121
49.443 -4.379 975.178 136 127 123
49.943 -9.879 978.793 127 119 117
49.943 -9.379 978.451 124 117 113
49.943 -8.879 978.116 126 119 116
49.943 -8.379 977.833 129 121 118
49.943 -7.879 977.547 134 125 122
49.943 -7.379 977.133 138 129 124
49.943 -6.879 976.793 132 122 117
49.943 -6.379 976.520 129 119 114
49.943 -5.879 976.168 134 123 117
49.943 -5.379 975.825 142 130 124
49.943 -4.879 975.468 146 135 129
49.943 -4.379 975.180 138 127 121
50.443 -9.879 978.901 131 121 118
50.443 -9.379 978.572 134 123 118
50.443 -8.879 978.216 132 122 117
50.443 -8.379 977.938 132 122 116
50.443 -7.879 977.640 136 126 118
50.443 -7.379 977.182 145 134 126
50.443 -6.879 976.838 145 133 125
50.443 -6.379 976.571 148 136 127
50.443 -5.879 976.198 151 138 129
50.443 -5.379 975.849 163 150 141
50.443 -4.879 975.498 172 159 150
50.443 -4.379 975.188 154 141 132
50.943 -9.879 979.082 138 127 121
50.943 -9.379 978.727 146 133 125
50.943 -8.879 978.384 147 134 126
50.943 -8.379 978.075 144 131 122
50.943 -7.879 977.721 155 142 133
50.943 -7.379 977.318 167 154 142
50.943 -6.879 976.964 156 142 131
50.943 -6.379 976.664 161 147 136
50.943 -5.879 976.305 166 151 139
50.943 -5.379 975.967 175 159 146
50.943 -4.879 975.580 181 164 153
50.943 -4.379 975.208 171 156 145
51.443 -9.879 979.270 156 143 134
51.443 -9.379 978.903 158 145 136
51.443 -8.879 978.580 154 140 129
51.443 -8.379 978.239 161 147 136
51.443 -7.879 977.891 179 164 153
51.443 -7.379 977.554 175 161 150
51.443 -6.879 977.206 157 143 131
51.443 -6.379 976.829 168 151 138
51.443 -5.879 976.443 170 154 141
51.443 -5.379 976.070 175 159 146
51.443 -4.879 975.670 181 166 152
51.443 -4.379 975.273 172 157 146
51.943 -9.879 979.448 173 160 151
51.943 -9.379 979.084 167 152 141
51.943 -8.879 978.771 161 145 132
51.943 -8.379 978.443 184 168 154
51.943 -7.879 978.121 190 173 163
51.943 -7.379 977.786 174 157 147
51.943 -6.879 977.432 159 142 131
51.943 -6.379 976.970 167 150 137
51.943 -5.879 976.538 175 157 145
51.943 -5.379 976.179 184 166 153
51.943 -4.879 975.854 174 158 146
51.943 -4.379 975.461 168 153 142
52.443 -9.879 979.580 183 168 154
52.443 -9.379 979.199 170 155 141
52.443 -8.879 978.927 174 157 142
52.443 -8.379 978.647 188 171 156
52.443 -7.879 978.332 184 168 155
52.443 -7.379 977.969 163 147 135
52.443 -6.879 977.578 152 136 122
52.443 -6.379 977.113 169 152 138
52.443 -5.879 976.669 184 167 153
52.443 -5.379 976.360 168 152 139
52.443 -4.879 976.057 154 139 129
52.443 -4.379 975.619 143 130 120
52.443 -3.879 975.229 144 130 121
52.943 -9.879 979.699 180 164 149
52.943 -9.379 979.337 183 167 150
52.943 -8.879 979.087 184 168 151
52.943 -8.379 978.818 193 176 160
52.943 -7.879 978.498 184 168 155
52.943 -7.379 978.089 159 143 130
52.943 -6.879 977.729 166 149 134
52.943 -6.379 977.372 179 163 148
52.943 -5.879 976.931 185 172 156
52.943 -5.379 976.566 174 160 147
52.943 -4.879 976.182 156 141 133
52.943 -4.379 975.694 135 120 113
52.943 -3.879 975.366 124 111 103
53.443 -9.879 979.930 176 160 145
53.443 -9.379 979.575 183 167 151
53.443 -8.879 979.299 188 171 155
53.443 -8.379 978.987 194 177 161
53.443 -7.879 978.598 174 158 145
53.443 -7.379 978.158 168 151 138
53.443 -6.879 977.843 179 163 150
53.443 -6.379 977.548 175 159 144
53.443 -5.879 977.153 168 153 140
53.443 -5.379 976.720 172 158 145
53.443 -4.879 976.324 162 148 137
53.443 -4.379 975.886 147 133 124
53.443 -3.879 975.482 134 119 112
53.443 -3.379 975.134 141 128 120
53.943 -9.879 980.185 167 150 137
53.943 -9.379 979.849 174 158 143
53.943 -8.879 979.512 187 169 155
53.943 -8.379 979.102 195 179 162
53.943 -7.879 978.671 173 157 142
53.943 -7.379 978.251 171 155 142
53.943 -6.879 977.940 181 166 152
53.943 -6.379 977.644 170 154 141
53.943 -5.879 977.292 147 133 120
53.943 -5.379 976.891 158 144 133
53.943 -4.879 976.507 166 151 141
53.943 -4.379 976.099 162 148 139
53.943 -3.879 975.640 146 132 123
53.943 -3.379 975.338 149 136 127
54.443 -9.879 980.385 158 141 131
54.443 -9.379 980.073 170 154 141
54.443 -8.879 979.693 188 170 156
54.443 -8.379 979.204 193 176 160
54.443 -7.879 978.821 184 168 152
54.443 -7.379 978.455 176 160 146
54.443 -6.879 978.124 151 134 122
54.443 -6.379 977.840 146 129 120
54.443 -5.879 977.484 148 134 124
54.443 -5.379 977.098 158 144 134
54.443 -4.879 976.665 159 144 134
54.443 -4.379 976.266 160 146 135
54.443 -3.879 975.867 154 140 130
54.443 -3.379 975.482 155 141 131
54.943 -9.879 980.599 145 128 120
54.943 -9.379 980.242 161 144 134
54.943 -8.879 979.814 184 167 151
54.943 -8.379 979.356 201 184 168
54.943 -7.879 979.013 200 184 168
54.943 -7.379 978.675 195 179 164
54.943 -6.879 978.337 166 148 137
54.943 -6.379 978.045 134 118 109
54.943 -5.879 977.704 140 126 117
54.943 -5.379 977.313 153 139 130
54.943 -4.879 976.839 163 148 137
54.943 -4.379 976.464 160 144 131
54.943 -3.879 976.069 157 143 132
54.943 -3.379 975.614 158 144 133
54.943 -2.879 975.281 163 149 138
55.443 -9.879 980.809 154 137 128
55.443 -9.379 980.422 171 154 143
55.443 -8.879 979.960 174 156 142
55.443 -8.379 979.555 200 184 165
55.443 -7.879 979.177 201 185 170
55.443 -7.379 978.848 194 179 164
55.443 -6.879 978.509 176 159 150
55.443 -6.379 978.210 136 119 112
55.443 -5.879 977.908 139 125 116
55.443 -5.379 977.498 160 146 137
55.443 -4.879 977.059 161 146 136
55.443 -4.379 976.679 163 147 134
55.443 -3.879 976.211 162 146 133
55.443 -3.379 975.786 158 144 133
55.443 -2.879 975.480 162 148 137
55.443 -2.379 975.165 175 161 150
55.943 -9.879 981.021 153 137 124
55.943 -9.379 980.634 170 154 139
55.943 -8.879 980.156 184 168 152
55.943 -8.379 979.759 199 183 166
55.943 -7.879 979.396 199 184 168
55.943 -7.379 979.030 192 176 163
55.943 -6.879 978.624 168 150 141
55.943 -6.379 978.341 140 123 116
55.943 -5.879 978.057 148 131 123
55.943 -5.379 977.668 166 148 138
55.943 -4.879 977.301 166 149 139
55.943 -4.379 976.897 160 146 135
55.943 -3.879 976.424 157 143 132
55.943 -3.379 976.035 158 144 133
55.943 -2.879 975.723 161 147 136
55.943 -2.379 975.403 173 159 148
55.943 -1.879 975.127 168 154 145
56.443 -9.879 981.261 152 136 122
56.443 -9.379 980.870 180 164 149
56.443 -8.879 980.388 187 170 155
56.443 -8.379 980.019 195 179 162
56.443 -7.879 979.693 184 168 153
56.443 -7.379 979.215 176 160 147
56.443 -6.879 978.733 155 138 128
56.443 -6.379 978.464 143 126 117
56.443 -5.879 978.203 155 138 129
56.443 -5.379 977.873 168 150 140
56.443 -4.879 977.510 174 158 147
56.443 -4.379 977.105 160 145 133
56.443 -3.879 976.677 141 127 116
56.443 -3.379 976.319 159 145 134
56.443 -2.879 976.013 160 146 135
56.443 -2.379 975.608 157 144 135
56.443 -1.879 975.304 156 143 134
56.943 -9.879 981.455 167 150 135
56.943 -9.379 981.111 196 180 165
56.943 -8.879 980.669 186 169 153
56.943 -8.379 980.302 188 171 155
56.943 -7.879 979.967 184 168 152
56.943 -7.379 979.416 177 161 148
56.943 -6.879 978.894 164 148 136
56.943 -6.379 978.629 139 122 112
56.943 -5.879 978.381 149 132 122
56.943 -5.379 978.053 169 152 142
56.943 -4.879 977.657 185 169 156
56.943 -4.379 977.293 179 162 149
56.943 -3.879 976.892 153 137 124
56.943 -3.379 976.564 164 150 139
56.943 -2.879 976.264 156 143 132
56.943 -2.379 975.842 152 139 130
56.943 -1.879 975.501 154 141 132
57.443 -9.879 981.583 175 159 144
57.443 -9.379 981.313 192 176 161
57.443 -8.879 980.913 188 172 156
57.443 -8.379 980.512 188 171 155
57.443 -7.879 980.157 188 172 157
57.443 -7.379 979.636 177 161 146
57.443 -6.879 979.102 156 139 127
57.443 -6.379 978.800 142 125 116
57.443 -5.879 978.552 151 134 124
57.443 -5.379 978.181 172 156 143
57.443 -4.879 977.812 183 167 153
57.443 -4.379 977.479 176 160 147
57.443 -3.879 977.073 168 151 138
57.443 -3.379 976.747 168 153 142
57.443 -2.879 976.467 158 144 134
57.443 -2.379 976.121 157 144 135
57.443 -1.879 975.754 152 142 133
57.943 -9.879 981.681 179 163 148
57.943 -9.379 981.451 189 173 157
57.943 -8.879 981.089 188 171 155
57.943 -8.379 980.655 179 162 146
57.943 -7.879 980.264 181 166 149
57.943 -7.379 979.813 168 152 137
57.943 -6.879 979.314 155 138 126
57.943 -6.379 978.987 154 137 127
57.943 -5.879 978.738 147 130 120
57.943 -5.379 978.344 170 154 141
57.943 -4.879 977.993 180 164 150
57.943 -4.379 977.687 179 160 146
57.943 -3.879 977.313 173 157 144
57.943 -3.379 976.974 176 162 151
57.943 -2.879 976.671 160 147 138
57.943 -2.379 976.359 154 144 135
57.943 -1.879 975.975 152 142 133
58.443 -9.879 981.750 188 172 156
58.443 -9.379 981.543 191 175 159
58.443 -8.879 981.242 190 174 158
58.443 -8.379 980.793 177 160 144
58.443 -7.879 980.361 170 154 138
58.443 -7.379 980.000 179 163 148
58.443 -6.879 979.583 169 153 140
58.443 -6.379 979.246 164 148 137
58.443 -5.879 978.931 162 146 134
58.443 -5.379 978.582 179 162 149
58.443 -4.879 978.228 179 161 148
58.443 -4.379 977.919 174 156 142
58.443 -3.879 977.581 174 158 145
58.443 -3.379 977.254 169 155 144
58.443 -2.879 976.872 154 141 132
58.443 -2.379 976.511 145 134 125
58.443 -1.879 976.160 144 134 125
58.943 -9.879 981.789 199 184 168
58.943 -9.379 981.609 192 176 161
58.943 -8.879 981.347 187 171 156
58.943 -8.379 980.981 174 156 142
58.943 -7.879 980.543 156 138 125
58.943 -7.379 980.209 166 147 135
58.943 -6.879 979.874 173 155 143
58.943 -6.379 979.514 184 168 155
58.943 -5.879 979.141 181 166 152
58.943 -5.379 978.826 179 163 150
58.943 -4.879 978.488 171 154 142
58.943 -4.379 978.150 169 153 140
58.943 -3.879 977.820 168 152 137
58.943 -3.379 977.518 183 168 154
58.943 -2.879 977.075 173 160 149
58.943 -2.379 976.650 150 137 129
58.943 -1.879 976.371 137 126 120
59.443 -9.879 981.807 204 188 173
59.443 -9.379 981.657 185 169 154
59.443 -8.879 981.416 176 160 145
59.443 -8.379 981.172 171 154 139
59.443 -7.879 980.786 170 152 138
59.443 -7.379 980.413 176 158 144
59.443 -6.879 980.117 189 171 157
59.443 -6.379 979.750 183 166 153
59.443 -5.879 979.377 174 158 145
59.443 -5.379 979.071 172 155 145
59.443 -4.879 978.742 169 151 141
59.443 -4.379 978.375 174 158 145
59.443 -3.879 978.069 167 150 135
59.443 -3.379 977.765 175 162 146
59.443 -2.879 977.321 168 153 141
59.443 -2.379 976.893 146 133 124
59.443 -1.879 976.601 135 123 118
59.943 -9.879 981.791 217 202 187
59.943 -9.379 981.693 192 176 161
59.943 -8.879 981.493 173 157 142
59.943 -8.379 981.282 184 168 152
59.943 -7.879 980.976 185 168 152
59.943 -7.379 980.629 184 167 150
59.943 -6.879 980.362 186 168 154
59.943 -6.379 979.995 171 155 142
59.943 -5.879 979.596 139 122 112
59.943 -5.379 979.298 140 123 113
59.943 -4.879 978.988 151 134 123
59.943 -4.379 978.641 168 152 139
59.943 -3.879 978.313 163 147 132
59.943 -3.379 977.968 168 154 138
59.943 -2.879 977.578 163 149 137
59.943 -2.379 977.176 146 132 123
59.943 -1.879 976.830 138 125 118
60.443 -9.879 981.762 223 210 194
60.443 -9.379 981.710 209 195 179
60.443 -8.879 981.555 198 183 167
60.443 -8.379 981.352 198 183 167
60.443 -7.879 981.131 201 184 167
60.443 -7.379 980.845 203 186 168
60.443 -6.879 980.574 201 184 170
60.443 -6.379 980.232 166 149 136
60.443 -5.879 979.838 150 133 123
60.443 -5.379 979.515 141 124 114
60.443 -4.879 979.208 149 132 123
60.443 -4.379 978.919 167 150 137
60.443 -3.879 978.551 171 155 140
60.443 -3.379 978.123 175 159 144
60.443 -2.879 977.786 179 166 152
60.443 -2.379 977.392 161 147 137
60.443 -1.879 977.041 145 130 122
60.943 -9.879 981.726 226 213 197
60.943 -9.379 981.691 222 209 193
60.943 -8.879 981.567 209 196 180
60.943 -8.379 981.419 200 184 170
60.943 -7.879 981.271 197 180 164
60.943 -7.379 981.037 210 193 175
60.943 -6.879 980.746 202 185 170
60.943 -6.379 980.458 181 164 149
60.943 -5.879 980.112 168 152 139
60.943 -5.379 979.760 148 131 120
60.943 -4.879 979.458 163 146 135
60.943 -4.379 979.138 177 161 146
60.943 -3.879 978.770 186 170 155
60.943 -3.379 978.307 176 160 147
60.943 -2.879 977.959 172 156 143
60.943 -2.379 977.596 160 144 133
60.943 -1.879 977.277 143 126 116
61.443 -9.879 981.668 233 219 204
61.443 -9.379 981.638 230 216 200
61.443 -8.879 981.546 217 204 188
61.443 -8.379 981.456 203 190 174
61.443 -7.879 981.351 205 188 172
61.443 -7.379 981.186 218 201 185
61.443 -6.879 980.930 198 181 165
61.443 -6.379 980.671 188 172 157
61.443 -5.879 980.346 168 152 137
61.443 -5.379 980.005 150 134 119
61.443 -4.879 979.707 174 158 145
61.443 -4.379 979.335 180 164 149
61.443 -3.879 978.947 180 164 151
61.443 -3.379 978.531 154 138 125
61.443 -2.879 978.185 154 138 125
61.443 -2.379 977.860 163 147 134
61.443 -1.879 977.552 155 139 126
61.943 -9.879 981.601 231 218 202
61.943 -9.379 981.587 227 214 197
61.943 -8.879 981.542 219 206 190
61.943 -8.379 981.484 212 199 183
61.943 -7.879 981.398 223 207 191
61.943 -7.379 981.282 219 202 186
61.943 -6.879 981.110 209 192 176
61.943 -6.379 980.885 200 184 170
61.943 -5.879 980.553 177 161 146
61.943 -5.379 980.220 156 140 125
61.943 -4.879 979.916 177 161 146
61.943 -4.379 979.562 189 173 158
61.943 -3.879 979.173 177 161 148
61.943 -3.379 978.783 143 127 114
61.943 -2.879 978.461 152 136 123
61.943 -2.379 978.117 167 148 134
61.943 -1.879 977.828 168 149 135
62.443 -9.879 981.534 228 215 198
62.443 -9.379 981.545 227 214 197
62.443 -8.879 981.542 218 205 188
62.443 -8.379 981.512 219 206 189
62.443 -7.879 981.449 227 212 193
62.443 -7.379 981.356 219 204 185
62.443 -6.879 981.245 214 199 180
62.443 -6.379 981.062 197 181 165
62.443 -5.879 980.720 185 169 153
62.443 -5.379 980.399 170 154 138
62.443 -4.879 980.111 185 169 154
62.443 -4.379 979.771 185 168 154
62.443 -3.879 979.398 168 150 136
62.443 -3.379 979.032 164 146 132
62.443 -2.879 978.727 170 152 137
62.443 -2.379 978.331 171 152 137
62.443 -1.879 978.052 173 154 139
62.943 -9.879 981.479 230 216 199
62.943 -9.379 981.517 232 218 201
62.943 -8.879 981.531 232 218 201
62.943 -8.379 981.526 228 215 198
62.943 -7.879 981.495 223 208 189
62.943 -7.379 981.425 216 201 182
62.943 -6.879 981.318 211 196 178
62.943 -6.379 981.163 197 181 165
62.943 -5.879 980.852 187 171 155
62.943 -5.379 980.566 183 167 150
62.943 -4.879 980.285 188 172 157
62.943 -4.379 979.969 181 163 149
62.943 -3.879 979.621 173 155 141
62.943 -3.379 979.275 185 168 153
62.943 -2.879 978.982 180 163 147
62.943 -2.379 978.609 179 159 144
62.943 -1.879 978.271 176 157 142
63.443 -9.879 981.461 228 215 198
63.443 -9.379 981.504 231 217 200
63.443 -8.879 981.517 233 219 202
63.443 -8.379 981.525 232 218 201
63.443 -7.879 981.520 230 214 195
63.443 -7.379 981.469 225 210 191
63.443 -6.879 981.353 214 198 182
63.443 -6.379 981.233 201 185 170
63.443 -5.879 981.013 191 175 159
63.443 -5.379 980.714 184 168 153
63.443 -4.879 980.407 166 149 134
63.443 -4.379 980.166 169 151 137
63.443 -3.879 979.846 177 159 145
63.443 -3.379 979.480 189 172 156
63.443 -2.879 979.195 183 166 149
63.443 -2.379 978.887 179 160 145
63.443 -1.879 978.520 179 159 144
63.943 -9.879 981.438 230 216 199
63.943 -9.379 981.478 231 217 200
63.943 -8.879 981.493 233 219 202
63.943 -8.379 981.515 233 219 202
63.943 -7.879 981.534 233 217 201
63.943 -7.379 981.504 233 216 200
63.943 -6.879 981.402 222 206 190
63.943 -6.379 981.293 207 191 175
63.943 -5.879 981.148 186 170 155
63.943 -5.379 980.858 175 159 144
63.943 -4.879 980.537 164 148 133
63.943 -4.379 980.308 160 142 128
63.943 -3.879 979.965 167 149 133
63.943 -3.379 979.636 171 154 138
63.943 -2.879 979.367 177 159 143
63.943 -2.379 979.051 179 160 144
63.943 -1.879 978.737 180 161 144
64.443 -9.879 981.404 227 214 197
64.443 -9.379 981.443 227 214 197
64.443 -8.879 981.470 230 216 199
64.443 -8.379 981.499 232 218 201
64.443 -7.879 981.530 234 218 202
64.443 -7.379 981.523 234 218 202
64.443 -6.879 981.454 227 211 195
64.443 -6.379 981.350 216 200 185
64.443 -5.879 981.227 196 180 165
64.443 -5.379 980.996 183 167 151
64.443 -4.879 980.711 167 150 135
64.443 -4.379 980.422 170 153 137
64.443 -3.879 980.064 173 156 140
64.443 -3.379 979.799 170 153 137
64.443 -2.879 979.573 174 157 139
64.443 -2.379 979.245 179 159 142
64.443 -1.879 978.947 177 158 141
64.943 -9.879 981.391 222 209 192
64.943 -9.379 981.425 225 212 195
64.943 -8.879 981.458 228 215 198
64.943 -8.379 981.477 225 212 195
64.943 -7.879 981.500 228 212 196
64.943 -7.379 981.503 233 217 201
64.943 -6.879 981.467 227 211 195
64.943 -6.379 981.392 217 201 186
64.943 -5.879 981.296 205 189 174
64.943 -5.379 981.140 197 181 166
64.943 -4.879 980.906 167 150 134
64.943 -4.379 980.615 184 168 151
64.943 -3.879 980.275 186 169 153
64.943 -3.379 980.032 180 163 147
64.943 -2.879 979.825 176 158 140
64.943 -2.379 979.541 175 156 139
64.943 -1.879 979.215 175 156 139
65.443 -9.879 981.399 210 193 175
65.443 -9.379 981.425 211 196 177
65.443 -8.879 981.449 216 201 182
65.443 -8.379 981.456 219 204 185
65.443 -7.879 981.466 227 211 195
65.443 -7.379 981.469 233 217 201
65.443 -6.879 981.450 222 206 190
65.443 -6.379 981.415 219 203 187
65.443 -5.879 981.360 208 192 176
65.443 -5.379 981.277 197 181 165
65.443 -4.879 981.120 177 161 146
65.443 -4.379 980.841 179 163 148
65.443 -3.879 980.539 179 160 146
65.443 -3.379 980.303 179 160 146
65.443 -2.879 980.091 181 163 149
65.443 -2.379 979.875 183 163 149
65.443 -1.879 979.565 179 159 145
65.943 -9.879 981.404 224 207 189
65.943 -9.379 981.422 220 205 186
65.943 -8.879 981.431 226 211 192
65.943 -8.379 981.427 231 215 196
65.943 -7.879 981.427 231 214 198
65.943 -7.379 981.435 230 213 197
65.943 -6.879 981.428 230 213 197
65.943 -6.379 981.419 228 212 196
65.943 -5.879 981.402 228 212 196
65.943 -5.379 981.357 215 199 183
65.943 -4.879 981.262 197 181 165
65.943 -4.379 981.050 162 146 131
65.943 -3.879 980.800 159 141 127
65.943 -3.379 980.569 177 159 145
65.943 -2.879 980.338 184 166 151
65.943 -2.379 980.160 179 160 146
65.943 -1.879 979.941 179 160 146
66.443 -9.879 981.391 227 210 192
66.443 -9.379 981.395 223 208 189
66.443 -8.879 981.390 223 208 189
66.443 -8.379 981.379 231 215 196
66.443 -7.879 981.379 230 213 197
66.443 -7.379 981.394 228 212 196
66.443 -6.879 981.408 225 209 193
66.443 -6.379 981.421 232 215 199
66.443 -5.879 981.424 232 215 199
66.443 -5.379 981.408 225 209 193
66.443 -4.879 981.341 210 194 178
66.443 -4.379 981.232 176 160 145
66.443 -3.879 981.045 168 152 137
66.443 -3.379 980.810 184 168 152
66.443 -2.879 980.589 185 168 153
66.443 -2.379 980.392 175 157 143
66.443 -1.879 980.238 168 149 135
66.943 -9.879 981.377 230 212 194
66.943 -9.379 981.360 228 213 194
66.943 -8.879 981.354 226 211 192
66.943 -8.379 981.351 230 214 195
66.943 -7.879 981.351 232 215 199
66.943 -7.379 981.363 228 212 196
66.943 -6.879 981.384 220 204 188
66.943 -6.379 981.413 221 205 189
66.943 -5.879 981.431 233 216 200
66.943 -5.379 981.432 232 215 199
66.943 -4.879 981.416 220 204 188
66.943 -4.379 981.324 191 175 160
66.943 -3.879 981.214 184 168 152
66.943 -3.379 980.972 194 179 163
66.943 -2.879 980.803 203 186 172
66.943 -2.379 980.633 193 175 161
66.943 -1.879 980.508 179 161 147
67.443 -9.879 981.373 230 212 194
67.443 -9.379 981.353 231 215 196
67.443 -8.879 981.351 231 215 196
67.443 -8.379 981.347 232 216 197
67.443 -7.879 981.346 232 215 199
67.443 -7.379 981.358 231 214 198
67.443 -6.879 981.374 219 203 187
67.443 -6.379 981.400 217 201 185
67.443 -5.879 981.425 230 213 197
67.443 -5.379 981.440 233 217 201
67.443 -4.879 981.456 230 214 198
67.443 -4.379 981.407 213 200 184
67.443 -3.879 981.342 194 179 163
67.443 -3.379 981.159 187 171 156
67.443 -2.879 981.005 196 180 165
67.443 -2.379 980.878 195 179 164
67.443 -1.879 980.815 184 166 151
67.943 -9.879 981.389 226 209 191
67.943 -9.379 981.372 225 210 191
67.943 -8.879 981.367 225 210 191
67.943 -8.379 981.360 228 213 194
67.943 -7.879 981.355 231 214 198
67.943 -7.379 981.366 232 215 199
67.943 -6.879 981.388 226 210 194
67.943 -6.379 981.408 223 207 191
67.943 -5.879 981.427 228 212 196
67.943 -5.379 981.453 231 214 198
67.943 -4.879 981.473 232 216 200
67.943 -4.379 981.466 228 215 199
67.943 -3.879 981.423 208 195 179
67.943 -3.379 981.311 201 185 171
67.943 -2.879 981.181 190 174 159
67.943 -2.379 981.073 179 162 147
67.943 -1.879 981.046 185 169 154
68.443 -9.879 981.414 218 201 183
68.443 -9.379 981.392 216 200 182
68.443 -8.879 981.388 220 204 185
68.443 -8.379 981.383 226 209 190
68.443 -7.879 981.374 228 213 197
68.443 -7.379 981.376 230 215 199
68.443 -6.879 981.400 225 211 194
68.443 -6.379 981.418 226 211 195
68.443 -5.879 981.434 227 213 196
68.443 -5.379 981.465 226 212 195
68.443 -4.879 981.485 228 214 198
68.443 -4.379 981.484 233 220 204
68.443 -3.879 981.459 224 211 194
68.443 -3.379 981.386 209 194 178
68.443 -2.879 981.304 198 184 167
68.443 -2.379 981.223 189 174 158
68.443 -1.879 981.194 190 176 160
68.943 -9.379 981.418 218 201 183
68.943 -8.879 981.411 215 198 179
68.943 -8.379 981.399 226 208 188
68.943 -7.879 981.390 228 213 196
68.943 -7.379 981.390 230 216 199
68.943 -6.879 981.400 224 211 194
68.943 -6.379 981.412 226 213 196
68.943 -5.879 981.433 228 215 198
68.943 -5.379 981.457 227 214 197
68.943 -4.879 981.485 226 213 196
68.943 -4.379 981.499 232 218 201
68.943 -3.879 981.490 232 218 201
68.943 -3.379 981.453 223 210 193
68.943 -2.879 981.429 206 193 176
68.943 -2.379 981.363 201 188 171
68.943 -1.879 981.303 206 193 176
69.443 -8.879 981.430 222 205 187
69.443 -8.379 981.415 225 208 190
69.443 -7.879 981.401 231 216 199
69.443 -7.379 981.398 230 216 199
69.443 -6.879 981.395 228 215 198
69.443 -6.379 981.402 228 215 198
69.443 -5.879 981.419 227 214 197
69.443 -5.379 981.429 228 215 198
69.443 -4.879 981.461 226 213 196
69.443 -4.379 981.499 226 213 196
69.443 -3.879 981.513 231 217 200
69.443 -3.379 981.507 233 219 202
69.443 -2.879 981.506 219 206 189
69.443 -2.379 981.470 206 193 176
69.443 -1.879 981.398 220 207 190
69.943 -7.879 981.412 226 213 196
69.943 -7.379 981.402 226 213 196
69.943 -6.879 981.395 230 216 199
69.943 -6.379 981.396 230 216 199
69.943 -5.879 981.399 226 213 196
69.943 -5.379 981.401 227 214 197
69.943 -4.879 981.426 227 214 197
69.943 -4.379 981.473 227 214 197
69.943 -3.879 981.499 228 215 198
69.943 -3.379 981.520 231 217 200
69.943 -2.879 981.541 232 218 201
69.943 -2.379 981.534 208 195 178
69.943 -1.879 981.486 219 206 189
70.443 -7.379 981.418 225 212 195
70.443 -6.879 981.406 227 214 197
70.443 -6.379 981.393 230 216 199
70.443 -5.879 981.387 230 216 199
70.443 -5.379 981.387 225 212 195
70.443 -4.879 981.400 226 213 196
70.443 -4.379 981.433 228 215 198
70.443 -3.879 981.465 227 214 197
70.443 -3.379 981.511 230 216 199
70.443 -2.879 981.551 231 217 200
70.443 -2.379 981.558 226 213 196
70.443 -1.879 981.523 215 202 185
70.943 -6.379 981.386 228 215 198
70.943 -5.879 981.372 231 217 200
70.943 -5.379 981.368 232 218 201
70.943 -4.879 981.370 231 217 200
70.943 -4.379 981.386 228 215 198
70.943 -3.879 981.419 222 209 192
70.943 -3.379 981.476 227 214 197
70.943 -2.879 981.546 228 215 198
70.943 -2.379 981.569 231 217 200
70.943 -1.879 981.535 227 214 197
71.443 -4.879 981.337 233 220 204
71.443 -4.379 981.345 232 218 201
71.443 -3.879 981.369 221 208 191
71.443 -3.379 981.429 225 212 195
71.443 -2.879 981.521 227 214 197
71.443 -2.379 981.562 230 216 199
71.443 -1.879 981.536 230 216 199
71.943 -3.379 981.421 227 214 197
71.943 -2.879 981.498 228 215 198
71.943 -2.379 981.534 228 215 198
71.943 -1.879 981.520 230 216 199
72.443 -2.379 981.518 230 216 199
72.443 -1.879 981.516 231 217 200
72.943 -1.879 981.513 231 217 200
56.943 -1.379 975.282 148 135 127
57.443 -1.379 975.476 151 140 134
57.943 -1.379 975.665 144 133 127
57.943 -0.879 975.287 146 137 133
58.443 -1.379 975.838 133 123 118
58.443 -0.879 975.505 128 119 116
58.443 -0.379 975.208 119 111 109
58.943 -1.379 976.068 129 122 114
58.943 -0.879 975.751 129 120 116
58.943 -0.379 975.437 120 109 105
59.443 -1.379 976.326 130 121 116
59.443 -0.879 976.033 133 123 117
59.443 -0.379 975.709 126 116 109
59.443 0.121 975.440 128 118 112
59.443 0.621 975.237 137 126 123
59.943 -1.379 976.566 135 125 120
59.943 -0.879 976.311 129 119 112
59.943 -0.379 976.026 133 120 113
59.943 0.121 975.836 149 136 128
59.943 0.621 975.614 153 142 136
59.943 1.121 975.411 136 127 122
59.943 1.621 975.287 135 125 122
59.943 2.121 975.117 134 124 122
60.443 -1.379 976.791 133 121 114
60.443 -0.879 976.552 129 117 108
60.443 -0.379 976.315 159 145 137
60.443 0.121 976.141 169 156 147
60.443 0.621 975.938 160 147 139
60.443 1.121 975.778 144 134 127
60.443 1.621 975.683 135 125 121
60.443 2.121 975.582 135 125 123
60.443 2.621 975.389 133 123 121
60.443 3.121 975.343 129 119 117
60.443 3.621 975.268 127 118 116
60.443 4.121 975.265 129 119 117
60.443 4.621 975.229 133 123 121
60.443 5.121 975.278 134 123 119
60.443 5.621 975.328 137 126 122
60.443 6.121 975.332 139 128 124
60.443 6.621 975.406 146 133 127
60.943 -1.379 977.035 136 122 112
60.943 -0.879 976.798 141 126 116
60.943 -0.379 976.556 171 154 144
60.943 0.121 976.356 174 160 149
60.943 0.621 976.168 155 142 133
60.943 1.121 975.993 134 124 116
60.943 1.621 975.897 132 123 120
60.943 2.121 975.822 132 122 120
60.943 2.621 975.718 134 124 122
60.943 3.121 975.711 131 121 119
60.943 3.621 975.597 125 116 113
60.943 4.121 975.514 126 117 114
60.943 4.621 975.509 131 121 119
60.943 5.121 975.539 136 125 121
60.943 5.621 975.601 139 128 122
60.943 6.121 975.674 146 135 129
60.943 6.621 975.767 159 146 140
61.443 -1.379 977.319 157 141 127
61.443 -0.879 977.088 169 153 139
61.443 -0.379 976.822 174 158 145
61.443 0.121 976.603 167 152 141
61.443 0.621 976.450 149 136 128
61.443 1.121 976.204 133 122 117
61.443 1.621 976.071 130 120 117
61.443 2.121 976.011 129 119 117
61.443 2.621 975.984 132 122 120
61.443 3.121 976.027 135 125 123
61.443 3.621 975.987 126 117 114
61.443 4.121 975.849 128 119 116
61.443 4.621 975.807 131 122 118
61.443 5.121 975.851 134 123 117
61.443 5.621 975.890 140 129 123
61.443 6.121 976.012 141 130 124
61.443 6.621 976.054 146 133 125
61.943 -1.379 977.589 169 152 137
61.943 -0.879 977.354 173 156 141
61.943 -0.379 977.111 175 159 144
61.943 0.121 976.938 166 150 138
61.943 0.621 976.776 142 129 120
61.943 1.121 976.520 134 123 117
61.943 1.621 976.396 130 120 118
61.943 2.121 976.367 130 120 118
61.943 2.621 976.258 133 123 121
61.943 3.121 976.265 138 128 126
61.943 3.621 976.271 130 120 118
61.943 4.121 976.184 132 122 120
61.943 4.621 976.090 133 122 118
61.943 5.121 976.092 150 139 130
61.943 5.621 976.105 177 168 158
61.943 6.121 976.260 159 148 138
61.943 6.621 976.369 147 134 125
62.443 -1.379 977.860 174 155 141
62.443 -0.879 977.597 176 158 143
62.443 -0.379 977.357 173 156 141
62.443 0.121 977.246 157 143 132
62.443 0.621 977.048 141 129 121
62.443 1.121 976.897 133 122 119
62.443 1.621 976.802 131 120 118
62.443 2.121 976.782 134 123 121
62.443 2.621 976.640 137 126 124
62.443 3.121 976.546 137 126 123
62.443 3.621 976.526 132 121 117
62.443 4.121 976.492 129 119 114
62.443 4.621 976.348 136 124 118
62.443 5.121 976.392 179 164 155
62.443 5.621 976.432 194 180 168
62.443 6.121 976.568 193 179 166
62.443 6.621 976.714 181 168 154
62.943 -1.379 978.103 177 158 143
62.943 -0.879 977.867 176 158 144
62.943 -0.379 977.603 169 152 139
62.943 0.121 977.504 155 141 130
62.943 0.621 977.376 144 131 123
62.943 1.121 977.294 135 124 119
62.943 1.621 977.232 133 122 118
62.943 2.121 977.140 134 123 119
62.943 2.621 977.088 137 126 122
62.943 3.121 976.961 131 120 116
62.943 3.621 976.865 132 121 116
62.943 4.121 976.842 130 119 113
62.943 4.621 976.724 140 127 120
62.943 5.121 976.812 171 157 146
62.943 5.621 976.825 203 189 177
62.943 6.121 976.942 213 199 186
62.943 6.621 976.993 207 193 180
63.443 -1.379 978.280 180 161 146
63.443 -0.879 978.102 184 166 151
63.443 -0.379 977.882 167 150 137
63.443 0.121 977.775 149 135 125
63.443 0.621 977.693 139 126 118
63.443 1.121 977.629 135 124 118
63.443 1.621 977.599 135 123 117
63.443 2.121 977.453 136 123 117
63.443 2.621 977.352 135 122 116
63.443 3.121 977.292 131 119 112
63.443 3.621 977.185 133 120 113
63.443 4.121 977.174 136 123 116
63.443 4.621 977.144 152 139 130
63.443 5.121 977.160 189 175 164
63.443 5.621 977.093 204 190 177
63.443 6.121 977.180 215 202 186
63.443 6.621 977.266 216 203 187
63.943 -1.379 978.475 180 163 147
63.943 -0.879 978.312 184 166 152
63.943 -0.379 978.139 163 146 136
63.943 0.121 978.052 144 130 121
63.943 0.621 977.987 138 125 117
63.943 1.121 977.924 132 120 111
63.943 1.621 977.890 132 119 113
63.943 2.121 977.821 138 125 119
63.943 2.621 977.699 137 124 116
63.943 3.121 977.575 137 124 116
63.943 3.621 977.508 137 124 116
63.943 4.121 977.502 137 124 116
63.943 4.621 977.491 176 162 152
63.943 5.121 977.468 192 176 163
63.943 5.621 977.396 205 189 174
63.943 6.121 977.443 216 200 185
63.943 6.621 977.567 221 205 190
64.443 -1.379 978.688 179 162 146
64.443 -0.879 978.538 170 154 140
64.443 -0.379 978.405 152 135 125
64.443 0.121 978.355 150 136 127
64.443 0.621 978.336 142 128 121
64.443 1.121 978.293 141 128 119
64.443 1.621 978.221 144 130 121
64.443 2.121 978.201 156 142 134
64.443 2.621 978.170 169 154 146
64.443 3.121 977.990 160 146 137
64.443 3.621 977.875 144 130 120
64.443 4.121 977.864 164 150 140
64.443 4.621 977.832 184 170 159
64.443 5.121 977.830 186 170 156
64.443 5.621 977.792 190 174 158
64.443 6.121 977.837 212 196 180
64.443 6.621 977.873 222 206 190
64.943 -1.379 978.914 173 156 140
64.943 -0.879 978.768 171 155 141
64.943 -0.379 978.693 152 137 128
64.943 0.121 978.684 151 136 129
64.943 0.621 978.647 158 143 136
64.943 1.121 978.633 163 150 141
64.943 1.621 978.559 180 167 157
64.943 2.121 978.541 179 162 154
64.943 2.621 978.529 192 175 167
64.943 3.121 978.433 177 160 150
64.943 3.621 978.328 157 140 130
64.943 4.121 978.313 161 144 134
64.943 4.621 978.276 184 167 156
64.943 5.121 978.169 168 152 137
64.943 5.621 978.145 186 170 154
64.943 6.121 978.171 212 197 178
64.943 6.621 978.196 219 204 185
65.443 -1.379 979.228 169 151 137
65.443 -0.879 979.090 164 146 133
65.443 -0.379 979.051 159 142 129
65.443 0.121 979.070 173 156 146
65.443 0.621 979.030 185 168 159
65.443 1.121 979.027 183 166 157
65.443 1.621 978.935 193 176 166
65.443 2.121 978.909 180 167 154
65.443 2.621 978.887 190 176 163
65.443 3.121 978.774 187 173 160
65.443 3.621 978.729 176 162 149
65.443 4.121 978.754 177 163 152
65.443 4.621 978.742 179 166 154
65.443 5.121 978.551 164 148 135
65.443 5.621 978.501 196 180 167
65.443 6.121 978.501 214 198 183
65.443 6.621 978.497 220 204 189
65.943 -1.379 979.665 175 157 143
65.943 -0.879 979.540 163 145 132
65.943 -0.379 979.463 176 160 147
65.943 0.121 979.472 185 168 158
65.943 0.621 979.477 175 158 148
65.943 1.121 979.480 179 163 155
65.943 1.621 979.357 185 171 161
65.943 2.121 979.303 184 169 159
65.943 2.621 979.286 174 160 150
65.943 3.121 979.106 180 167 155
65.943 3.621 979.065 167 152 141
65.943 4.121 979.103 191 177 166
65.943 4.621 979.038 200 186 175
65.943 5.121 978.945 170 154 141
65.943 5.621 978.940 197 181 166
65.943 6.121 978.938 213 197 182
65.943 6.621 978.886 222 206 191
66.443 -1.379 980.086 169 152 137
66.443 -0.879 980.007 172 155 141
66.443 -0.379 979.943 168 152 139
66.443 0.121 979.935 170 153 143
66.443 0.621 979.934 170 155 144
66.443 1.121 979.917 159 145 136
66.443 1.621 979.766 157 143 134
66.443 2.121 979.700 168 154 145
66.443 2.621 979.657 171 157 148
66.443 3.121 979.543 167 152 142
66.443 3.621 979.468 167 150 141
66.443 4.121 979.452 166 149 140
66.443 4.621 979.327 151 136 125
66.443 5.121 979.255 160 144 130
66.443 5.621 979.262 179 162 147
66.443 6.121 979.266 206 190 175
66.443 6.621 979.293 221 205 190
66.943 -1.379 980.439 174 158 143
66.943 -0.879 980.413 188 172 158
66.943 -0.379 980.423 180 164 151
66.943 0.121 980.418 184 170 159
66.943 0.621 980.408 188 174 163
66.943 1.121 980.367 171 157 148
66.943 1.621 980.235 147 133 125
66.943 2.121 980.111 146 133 125
66.943 2.621 980.023 160 146 137
66.943 3.121 979.990 160 146 137
66.943 3.621 979.897 169 153 143
66.943 4.121 979.771 160 143 133
66.943 4.621 979.688 146 129 119
66.943 5.121 979.621 160 144 129
66.943 5.621 979.562 188 172 157
66.943 6.121 979.535 183 167 150
66.943 6.621 979.594 212 196 180
67.443 -1.379 980.799 195 179 164
67.443 -0.879 980.730 204 188 174
67.443 -0.379 980.717 185 171 158
67.443 0.121 980.718 181 168 156
67.443 0.621 980.720 190 176 165
67.443 1.121 980.681 180 167 157
67.443 1.621 980.662 163 150 141
67.443 2.121 980.534 148 135 127
67.443 2.621 980.385 147 133 124
67.443 3.121 980.315 151 137 128
67.443 3.621 980.249 170 154 144
67.443 4.121 980.072 169 153 140
67.443 4.621 980.020 189 173 160
67.443 5.121 979.997 211 195 180
67.443 5.621 979.952 208 192 177
67.443 6.121 979.919 185 169 153
67.443 6.621 979.936 201 185 170
67.943 -1.379 981.032 200 184 170
67.943 -0.879 980.964 192 177 162
67.943 -0.379 980.939 164 150 137
67.943 0.121 980.926 150 136 125
67.943 0.621 980.937 172 158 147
67.943 1.121 980.911 170 157 148
67.943 1.621 980.880 145 132 123
67.943 2.121 980.807 139 126 117
67.943 2.621 980.680 138 125 116
67.943 3.121 980.523 144 129 118
67.943 3.621 980.471 164 148 135
67.943 4.121 980.357 198 180 166
67.943 4.621 980.327 223 205 191
67.943 5.121 980.334 221 205 190
67.943 5.621 980.337 213 197 181
67.943 6.121 980.331 184 168 152
67.943 6.621 980.285 197 181 165
68.443 -1.379 981.171 180 167 151
68.443 -0.879 981.153 155 141 126
68.443 -0.379 981.137 162 149 134
68.443 0.121 981.118 168 154 141
68.443 0.621 981.116 184 170 158
68.443 1.121 981.097 180 168 156
68.443 1.621 981.038 171 157 147
68.443 2.121 980.946 158 143 133
68.443 2.621 980.892 155 140 128
68.443 3.121 980.751 164 148 134
68.443 3.621 980.665 163 147 132
68.443 4.121 980.605 187 170 155
68.443 4.621 980.626 208 191 176
68.443 5.121 980.654 222 206 190
68.443 5.621 980.626 213 197 181
68.443 6.121 980.663 195 179 162
68.443 6.621 980.599 199 184 167
68.943 -1.379 981.282 197 184 168
68.943 -0.879 981.278 176 163 147
68.943 -0.379 981.256 191 179 162
68.943 0.121 981.241 204 190 177
68.943 0.621 981.217 193 179 166
68.943 1.121 981.201 196 183 170
68.943 1.621 981.170 194 179 167
68.943 2.121 981.108 186 170 157
68.943 2.621 981.032 180 164 151
68.943 3.121 980.972 184 168 152
68.943 3.621 980.897 190 174 158
68.943 4.121 980.858 204 188 172
68.943 4.621 980.890 202 186 171
68.943 5.121 980.973 215 199 183
68.943 5.621 980.933 214 198 182
68.943 6.121 980.963 206 190 174
68.943 6.621 980.929 196 179 163
69.443 -1.379 981.364 214 201 185
69.443 -0.879 981.346 198 185 170
69.443 -0.379 981.325 199 186 171
69.443 0.121 981.309 214 201 185
69.443 0.621 981.290 209 195 182
69.443 1.121 981.279 209 195 182
69.443 1.621 981.266 210 194 181
