62.443 28.621 981.830 180 168 159
62.443 29.121 981.765 152 142 133
62.443 29.621 981.738 135 125 116
62.443 30.121 981.801 147 138 127
62.443 30.621 981.863 160 150 140
62.443 31.121 982.036 171 161 153
62.443 31.621 982.177 160 149 143
62.443 32.121 982.394 153 142 138
62.943 24.121 982.203 217 204 188
62.943 24.621 982.257 214 201 185
62.943 25.121 982.314 218 205 188
62.943 25.621 982.348 220 207 190
62.943 26.121 982.325 210 197 181
62.943 26.621 982.277 192 179 165
62.943 27.121 982.173 177 164 151
62.943 27.621 982.031 177 166 153
62.943 28.121 981.881 149 136 127
62.943 28.621 981.795 137 127 118
62.943 29.121 981.755 132 122 113
62.943 29.621 981.747 150 140 131
62.943 30.121 981.929 183 172 162
62.943 30.621 982.037 173 163 153
62.943 31.121 982.193 168 157 149
62.943 31.621 982.402 157 146 140
62.943 32.121 982.693 157 146 142
63.443 24.121 982.150 215 202 186
63.443 24.621 982.197 213 200 184
63.443 25.121 982.263 214 201 184
63.443 25.621 982.308 220 207 190
63.443 26.121 982.284 214 201 185
63.443 26.621 982.238 195 181 168
63.443 27.121 982.115 173 159 148
63.443 27.621 981.974 146 133 124
63.443 28.121 981.862 132 122 113
63.443 28.621 981.780 120 110 102
63.443 29.121 981.756 125 116 106
63.443 29.621 981.820 169 159 149
63.443 30.121 982.022 194 184 174
63.443 30.621 982.150 168 158 148
63.443 31.121 982.376 154 144 136
63.443 31.621 982.630 156 145 139
63.443 32.121 982.985 160 149 145
63.943 24.121 982.100 213 199 186
63.943 24.621 982.149 215 202 186
63.943 25.121 982.203 219 206 190
63.943 25.621 982.249 219 206 190
63.943 26.121 982.234 216 203 187
63.943 26.621 982.174 200 186 173
63.943 27.121 982.053 180 168 157
63.943 27.621 981.941 139 129 120
63.943 28.121 981.860 136 126 117
63.943 28.621 981.800 124 113 107
63.943 29.121 981.793 137 126 119
63.943 29.621 981.964 175 163 154
63.943 30.121 982.147 203 190 181
63.943 30.621 982.347 186 176 166
63.943 31.121 982.569 158 147 139
63.943 31.621 982.863 152 141 135
63.943 32.121 983.207 149 138 134
64.443 24.121 982.055 209 197 183
64.443 24.621 982.112 209 197 182
64.443 25.121 982.158 216 204 188
64.443 25.621 982.188 220 208 192
64.443 26.121 982.183 216 204 190
64.443 26.621 982.096 192 180 168
64.443 27.121 981.997 166 153 143
64.443 27.621 981.915 133 122 116
64.443 28.121 981.865 134 123 117
64.443 28.621 981.849 130 119 113
64.443 29.121 981.916 152 139 133
64.443 29.621 982.101 176 163 155
64.443 30.121 982.282 187 174 165
64.443 30.621 982.557 176 167 156
64.443 31.121 982.799 163 153 145
64.443 31.621 983.097 145 134 128
64.443 32.121 983.390 162 151 147
64.943 24.121 982.031 210 198 184
64.943 24.621 982.072 214 202 188
64.943 25.121 982.116 211 199 183
64.943 25.621 982.142 221 209 193
64.943 26.121 982.125 203 191 177
64.943 26.621 982.039 163 151 139
64.943 27.121 981.972 135 123 114
64.943 27.621 981.911 124 113 107
64.943 28.121 981.877 127 117 110
64.943 28.621 981.884 139 128 122
64.943 29.121 982.034 167 153 146
64.943 29.621 982.201 181 168 159
64.943 30.121 982.361 153 140 131
64.943 30.621 982.654 151 141 131
64.943 31.121 983.030 179 169 161
64.943 31.621 983.279 173 162 156
64.943 32.121 983.626 166 154 150
65.443 24.121 982.012 215 203 187
65.443 24.621 982.036 214 202 186
65.443 25.121 982.073 204 192 177
65.443 25.621 982.095 219 207 194
65.443 26.121 982.062 188 179 166
65.443 26.621 982.003 150 140 130
65.443 27.121 981.963 141 130 122
65.443 27.621 981.918 134 123 119
65.443 28.121 981.889 139 126 120
65.443 28.621 981.900 159 146 138
65.443 29.121 982.054 185 172 163
65.443 29.621 982.241 197 186 177
65.443 30.121 982.463 158 148 139
65.443 30.621 982.730 144 133 127
65.443 31.121 983.148 175 164 158
65.443 31.621 983.432 177 167 160
65.443 32.121 983.930 161 150 144
65.943 24.121 981.993 221 209 193
65.943 24.621 982.020 199 187 171
65.943 25.121 982.048 203 191 177
65.943 25.621 982.060 210 198 185
65.943 26.121 982.027 183 172 162
65.943 26.621 981.990 144 134 124
65.943 27.121 981.964 139 128 120
65.943 27.621 981.935 147 136 130
65.943 28.121 981.899 156 143 135
65.943 28.621 981.940 180 167 158
65.943 29.121 982.115 203 190 181
65.943 29.621 982.300 190 179 171
65.943 30.121 982.597 155 144 138
65.943 30.621 982.852 146 135 129
65.943 31.121 983.229 170 159 153
65.943 31.621 983.603 173 162 156
65.943 32.121 984.149 155 144 138
66.443 24.121 981.985 223 211 195
66.443 24.621 982.017 219 207 191
66.443 25.121 982.041 217 205 192
66.443 25.621 982.053 196 184 173
66.443 26.121 982.025 166 155 145
66.443 26.621 982.001 131 120 113
66.443 27.121 981.973 125 116 106
66.443 27.621 981.951 143 132 123
66.443 28.121 981.919 172 159 150
66.443 28.621 982.004 201 187 178
66.443 29.121 982.242 192 179 170
66.443 29.621 982.438 149 137 130
66.443 30.121 982.697 140 129 125
66.443 30.621 982.987 143 132 126
66.443 31.121 983.349 179 168 161
66.443 31.621 983.808 181 170 164
66.943 24.121 981.973 224 212 196
66.943 24.621 982.018 223 211 197
66.943 25.121 982.047 220 208 195
66.943 25.621 982.056 184 171 162
66.943 26.121 982.035 155 144 138
66.943 26.621 982.020 122 111 107
66.943 27.121 981.990 119 108 102
66.943 27.621 981.973 133 120 111
66.943 28.121 981.965 166 151 140
66.943 28.621 982.082 197 184 172
66.943 29.121 982.328 184 168 160
66.943 29.621 982.592 142 129 123
66.943 30.121 982.842 142 131 125
66.943 30.621 983.133 152 139 131
66.943 31.121 983.486 181 168 160
66.943 31.621 984.009 184 170 162
67.443 24.121 981.968 222 210 194
67.443 24.621 982.028 222 210 196
67.443 25.121 982.057 204 192 181
67.443 25.621 982.061 188 175 166
67.443 26.121 982.042 156 145 140
67.443 26.621 982.038 125 115 110
67.443 27.121 982.024 123 111 107
67.443 27.621 982.014 133 120 111
67.443 28.121 982.030 163 149 140
67.443 28.621 982.138 192 179 167
67.443 29.121 982.367 184 169 160
67.443 29.621 982.697 152 138 130
67.443 30.121 983.003 162 149 142
67.443 30.621 983.321 170 157 149
67.443 31.121 983.697 177 164 156
67.943 24.121 981.994 221 209 193
67.943 24.621 982.040 213 201 187
67.943 25.121 982.056 185 173 162
67.943 25.621 982.063 177 164 158
67.943 26.121 982.042 137 126 122
67.943 26.621 982.035 121 110 108
67.943 27.121 982.036 123 111 108
67.943 27.621 982.041 142 129 121
67.943 28.121 982.083 168 154 145
67.943 28.621 982.164 195 179 168
67.943 29.121 982.440 180 164 154
67.943 29.621 982.746 175 161 152
67.943 30.121 983.063 177 164 155
67.943 30.621 983.431 171 158 150
67.943 31.121 983.921 168 155 147
68.443 24.121 982.040 215 203 190
68.443 24.621 982.063 185 174 163
68.443 25.121 982.057 176 167 157
68.443 25.621 982.060 159 149 143
68.443 26.121 982.035 130 120 116
68.443 26.621 982.019 116 105 102
68.443 27.121 982.024 119 106 103
68.443 27.621 982.046 146 133 127
68.443 28.121 982.109 186 172 163
68.443 28.621 982.255 204 188 177
68.443 29.121 982.567 174 159 146
68.443 29.621 982.867 177 162 150
68.443 30.121 983.133 181 166 155
68.443 30.621 983.525 173 159 149
68.443 31.121 983.978 170 156 147
68.943 24.121 982.095 172 160 148
68.943 24.621 982.109 163 153 143
68.943 25.121 982.064 159 150 142
68.943 25.621 982.043 139 131 128
68.943 26.121 982.014 122 112 110
68.943 26.621 981.997 110 100 98
68.943 27.121 981.990 119 107 105
68.943 27.621 982.028 146 133 128
68.943 28.121 982.141 191 179 170
68.943 28.621 982.345 204 190 175
68.943 29.121 982.629 185 169 154
68.943 29.621 982.990 200 183 170
68.943 30.121 983.211 203 185 173
68.943 30.621 983.618 194 180 167
68.943 31.121 983.993 191 177 167
69.443 24.121 982.133 162 149 140
69.443 24.621 982.134 158 148 139
69.443 25.121 982.061 135 126 121
69.443 25.621 982.012 122 113 111
69.443 26.121 981.976 111 101 100
69.443 26.621 981.949 103 93 93
69.443 27.121 981.943 122 111 109
69.443 27.621 981.984 163 150 142
69.443 28.121 982.148 191 179 168
69.443 28.621 982.344 191 177 164
69.443 29.121 982.557 199 185 170
69.443 29.621 982.999 210 194 181
69.443 30.121 983.222 209 194 181
69.443 30.621 983.628 191 177 166
69.443 31.121 984.026 189 176 165
69.943 24.121 982.152 168 155 147
69.943 24.621 982.132 151 140 134
69.943 25.121 982.062 131 122 118
69.943 25.621 981.990 120 112 110
69.943 26.121 981.936 109 99 98
69.943 26.621 981.896 103 93 94
69.943 27.121 981.897 127 117 114
69.943 27.621 981.975 172 160 152
69.943 28.121 982.166 201 188 179
69.943 28.621 982.334 172 160 146
69.943 29.121 982.543 183 168 155
69.943 29.621 983.013 200 186 174
69.943 30.121 983.277 196 184 171
69.943 30.621 983.619 184 172 160
69.943 31.121 984.042 162 149 140
70.443 24.121 982.194 174 161 153
70.443 24.621 982.140 148 137 131
70.443 25.121 982.068 129 119 116
70.443 25.621 981.977 119 110 108
70.443 26.121 981.900 111 101 103
70.443 26.621 981.854 106 96 96
70.443 27.121 981.845 120 109 107
70.443 27.621 981.962 164 154 147
70.443 28.121 982.168 174 162 153
70.443 28.621 982.349 146 134 125
70.443 29.121 982.606 156 145 135
70.443 29.621 983.028 174 164 153
70.443 30.121 983.338 183 171 160
70.443 30.621 983.609 180 169 159
70.443 31.121 983.992 172 160 152
70.943 24.121 982.229 184 170 162
70.943 24.621 982.175 156 145 138
70.943 25.121 982.097 134 125 121
70.943 25.621 981.976 122 113 111
70.943 26.121 981.871 118 107 106
70.943 26.621 981.825 110 100 99
70.943 27.121 981.818 132 122 119
70.943 27.621 981.933 152 141 137
70.943 28.121 982.126 139 128 124
70.943 28.621 982.356 136 125 120
70.943 29.121 982.594 140 129 123
70.943 29.621 983.002 141 130 124
70.943 30.121 983.336 176 166 158
70.943 30.621 983.572 198 188 179
70.943 31.121 983.837 175 166 157
70.943 31.621 984.141 148 137 133
71.443 24.121 982.231 187 174 166
71.443 24.621 982.206 169 158 151
71.443 25.121 982.113 144 134 130
71.443 25.621 981.973 124 117 113
71.443 26.121 981.857 115 104 103
71.443 26.621 981.815 122 112 111
71.443 27.121 981.821 152 142 138
71.443 27.621 981.944 152 141 137
71.443 28.121 982.099 139 128 124
71.443 28.621 982.381 130 120 118
71.443 29.121 982.603 129 119 114
71.443 29.621 982.978 140 129 125
71.443 30.121 983.264 170 161 155
71.443 30.621 983.507 195 186 177
71.443 31.121 983.722 183 173 164
71.443 31.621 984.052 151 140 134
71.943 24.121 982.214 172 161 155
71.943 24.621 982.194 159 148 144
71.943 25.121 982.103 145 135 133
71.943 25.621 981.981 125 118 116
71.943 26.121 981.869 113 103 102
71.943 26.621 981.818 131 122 117
71.943 27.121 981.836 148 138 132
71.943 27.621 981.948 136 127 122
71.943 28.121 982.093 134 126 123
71.943 28.621 982.357 131 123 121
71.943 29.121 982.652 129 120 119
71.943 29.621 982.967 134 124 123
71.943 30.121 983.165 163 152 149
71.943 30.621 983.474 189 179 171
71.943 31.121 983.697 179 169 160
71.943 31.621 984.050 153 143 134
72.443 24.121 982.195 144 133 127
72.443 24.621 982.165 134 124 119
72.443 25.121 982.087 128 119 117
72.443 25.621 981.949 116 107 105
72.443 26.121 981.854 115 104 103
72.443 26.621 981.817 135 125 120
72.443 27.121 981.839 149 138 132
72.443 27.621 981.947 134 125 120
72.443 28.121 982.095 131 122 119
72.443 28.621 982.297 129 121 119
72.443 29.121 982.682 132 124 122
72.443 29.621 982.928 132 122 120
72.443 30.121 983.109 150 139 136
72.443 30.621 983.442 184 173 166
72.443 31.121 983.645 179 168 160
72.443 31.621 984.042 169 158 152
72.943 24.121 982.193 151 140 134
72.943 24.621 982.128 138 129 124
72.943 25.121 982.011 129 119 118
72.943 25.621 981.878 115 105 104
72.943 26.121 981.831 113 103 102
72.943 26.621 981.826 140 129 125
72.943 27.121 981.886 173 161 155
72.943 27.621 982.018 145 134 130
72.943 28.121 982.116 134 124 122
72.943 28.621 982.363 130 122 120
72.943 29.121 982.680 131 123 121
72.943 29.621 982.864 132 122 121
72.943 30.121 983.071 142 132 130
72.943 30.621 983.411 162 151 146
72.943 31.121 983.613 172 161 155
72.943 31.621 983.985 169 158 152
72.943 32.121 984.141 179 168 162
73.443 24.121 982.196 170 161 155
73.443 24.621 982.074 147 137 135
73.443 25.121 981.932 129 121 119
73.443 25.621 981.852 117 106 105
73.443 26.121 981.841 113 103 102
73.443 26.621 981.848 143 132 126
73.443 27.121 981.933 188 175 168
73.443 27.621 982.096 170 159 153
73.443 28.121 982.190 144 134 130
73.443 28.621 982.445 129 121 118
73.443 29.121 982.645 130 122 120
73.443 29.621 982.815 134 126 124
73.443 30.121 983.044 133 123 122
73.443 30.621 983.379 148 137 133
73.443 31.121 983.607 156 145 141
73.443 31.621 983.895 140 129 124
73.443 32.121 984.083 175 164 158
73.943 24.121 982.187 162 153 148
73.943 24.621 982.021 137 127 125
73.943 25.121 981.899 121 112 111
73.943 25.621 981.850 113 103 103
73.943 26.121 981.845 117 105 103
73.943 26.621 981.864 155 142 136
73.943 27.121 981.963 198 185 177
73.943 27.621 982.104 164 153 146
73.943 28.121 982.229 135 126 121
73.943 28.621 982.439 130 122 119
73.943 29.121 982.611 129 121 119
73.943 29.621 982.803 131 123 121
73.943 30.121 983.022 124 117 114
73.943 30.621 983.304 142 131 129
73.943 31.121 983.567 147 136 133
73.943 31.621 983.813 128 118 113
73.943 32.121 984.056 161 150 144
74.443 24.121 982.179 144 135 131
74.443 24.621 981.999 124 117 113
74.443 25.121 981.896 119 110 109
74.443 25.621 981.861 113 103 103
74.443 26.121 981.862 116 104 102
74.443 26.621 981.895 169 156 150
74.443 27.121 982.007 205 191 182
74.443 27.621 982.119 161 148 141
74.443 28.121 982.253 137 126 122
74.443 28.621 982.432 142 134 131
74.443 29.121 982.626 132 123 122
74.443 29.621 982.765 128 119 120
74.443 30.121 982.987 131 122 122
74.443 30.621 983.249 136 125 123
74.443 31.121 983.499 140 129 127
74.443 31.621 983.758 128 118 113
74.443 32.121 984.065 153 142 137
74.943 24.121 982.186 127 118 116
74.943 24.621 982.007 120 112 110
74.943 25.121 981.918 116 107 108
74.943 25.621 981.886 116 107 106
74.943 26.121 981.885 113 103 100
74.943 26.621 981.932 156 143 137
74.943 27.121 982.040 192 179 172
74.943 27.621 982.132 155 144 140
74.943 28.121 982.276 153 144 139
74.943 28.621 982.471 159 150 145
74.943 29.121 982.629 140 130 128
74.943 29.621 982.728 130 122 120
74.943 30.121 982.923 144 136 134
74.943 30.621 983.225 130 120 120
74.943 31.121 983.441 139 129 128
74.943 31.621 983.743 141 131 129
74.943 32.121 984.081 162 153 148
75.443 24.121 982.145 120 112 110
75.443 24.621 981.994 119 110 108
75.443 25.121 981.931 120 112 112
75.443 25.621 981.912 113 105 103
75.443 26.121 981.913 119 109 105
75.443 26.621 981.976 153 142 136
75.443 27.121 982.084 171 159 152
75.443 27.621 982.170 145 136 131
75.443 28.121 982.310 145 136 131
75.443 28.621 982.522 148 139 134
75.443 29.121 982.642 155 146 142
75.443 29.621 982.771 169 161 158
75.443 30.121 982.906 154 146 143
75.443 30.621 983.198 134 125 126
75.443 31.121 983.415 129 121 121
75.443 31.621 983.734 145 137 134
75.443 32.121 984.074 167 159 153
75.943 24.121 982.105 120 112 110
75.943 24.621 981.992 117 108 106
75.943 25.121 981.955 113 105 103
75.943 25.621 981.943 117 106 104
75.943 26.121 981.961 142 133 128
75.943 26.621 982.038 167 155 149
75.943 27.121 982.132 162 149 144
75.943 27.621 982.224 144 134 130
75.943 28.121 982.360 130 121 116
75.943 28.621 982.549 144 135 130
75.943 29.121 982.669 154 145 141
75.943 29.621 982.853 160 152 149
75.943 30.121 982.983 153 145 142
75.943 30.621 983.212 125 117 116
75.943 31.121 983.425 125 118 116
75.943 31.621 983.737 137 129 126
75.943 32.121 984.053 160 153 147
76.443 24.121 982.106 122 116 116
76.443 24.621 982.004 117 107 108
76.443 25.121 981.966 103 95 94
76.443 25.621 981.959 121 112 110
76.443 26.121 982.011 174 163 159
76.443 26.621 982.090 177 167 160
76.443 27.121 982.182 154 143 138
76.443 27.621 982.281 144 135 130
76.443 28.121 982.451 136 127 122
76.443 28.621 982.608 152 143 138
76.443 29.121 982.766 142 133 129
76.443 29.621 982.966 139 131 128
76.443 30.121 983.116 143 135 132
76.443 30.621 983.270 144 136 134
76.443 31.121 983.495 134 126 124
76.443 31.621 983.760 135 127 124
76.443 32.121 984.053 148 141 135
76.943 24.121 982.127 122 117 117
76.943 24.621 982.016 115 108 108
76.943 25.121 981.966 108 100 98
76.943 25.621 981.967 127 117 113
76.943 26.121 982.040 171 160 156
76.943 26.621 982.118 183 171 167
76.943 27.121 982.244 151 140 136
76.943 27.621 982.380 145 136 131
76.943 28.121 982.569 148 139 134
76.943 28.621 982.738 174 166 160
76.943 29.121 982.912 162 153 149
76.943 29.621 983.108 133 125 122
76.943 30.121 983.246 126 119 116
76.943 30.621 983.392 148 140 137
76.943 31.121 983.612 149 141 138
76.943 31.621 983.844 137 129 126
76.943 32.121 984.164 138 131 125
77.443 24.121 982.143 121 116 117
77.443 24.621 982.023 109 103 103
77.443 25.121 981.969 121 111 109
77.443 25.621 982.002 151 140 136
77.443 26.121 982.076 188 177 171
77.443 26.621 982.154 176 166 161
77.443 27.121 982.343 144 135 130
77.443 27.621 982.504 167 156 152
77.443 28.121 982.637 167 157 152
77.443 28.621 982.854 168 158 153
77.443 29.121 983.039 160 151 147
77.443 29.621 983.249 137 129 126
77.443 30.121 983.396 129 121 118
77.443 30.621 983.571 141 133 130
77.443 31.121 983.783 146 138 135
77.443 31.621 984.080 150 142 139
77.943 24.121 982.133 118 111 111
77.943 24.621 982.035 115 106 104
77.943 25.121 981.990 130 121 118
77.943 25.621 982.060 173 162 156
77.943 26.121 982.129 171 160 154
77.943 26.621 982.222 148 138 133
77.943 27.121 982.437 139 130 125
77.943 27.621 982.600 174 166 160
77.943 28.121 982.721 184 174 170
77.943 28.621 982.967 163 154 149
77.943 29.121 983.199 156 147 143
77.943 29.621 983.392 147 139 135
77.943 30.121 983.590 133 125 121
77.943 30.621 983.790 128 120 117
77.943 31.121 984.065 142 134 131
78.443 24.121 982.112 112 103 105
78.443 24.621 982.048 115 106 104
78.443 25.121 982.029 148 140 134
78.443 25.621 982.109 179 170 162
78.443 26.121 982.169 151 142 135
78.443 26.621 982.297 141 132 127
78.443 27.121 982.509 143 132 129
78.443 27.621 982.679 171 160 154
78.443 28.121 982.892 170 159 153
78.443 28.621 983.124 170 161 154
78.443 29.121 983.381 161 152 147
78.443 29.621 983.543 144 135 130
78.443 30.121 983.831 135 126 121
78.443 30.621 984.083 136 127 122
78.943 24.121 982.104 116 106 107
78.943 24.621 982.051 124 117 114
78.943 25.121 982.065 157 150 143
78.943 25.621 982.142 175 167 159
78.943 26.121 982.207 136 127 120
78.943 26.621 982.388 134 125 120
78.943 27.121 982.623 149 138 133
78.943 27.621 982.806 172 161 155
78.943 28.121 983.064 163 152 146
78.943 28.621 983.266 156 147 140
78.943 29.121 983.534 164 155 150
78.943 29.621 983.754 155 146 141
78.943 30.121 984.113 150 141 136
79.443 24.121 982.117 115 105 106
79.443 24.621 982.070 131 123 121
79.443 25.121 982.098 151 143 138
79.443 25.621 982.175 149 140 133
79.443 26.121 982.279 131 122 116
79.443 26.621 982.521 135 126 121
79.443 27.121 982.772 150 139 134
79.443 27.621 982.948 169 158 152
79.443 28.121 983.206 161 150 144
79.443 28.621 983.467 147 138 131
79.443 29.121 983.748 148 139 134
79.443 29.621 984.041 160 151 146
79.943 24.121 982.121 119 110 108
79.943 24.621 982.084 143 135 133
79.943 25.121 982.131 164 155 152
79.943 25.621 982.230 140 131 124
79.943 26.121 982.415 129 120 113
79.943 26.621 982.678 143 134 127
79.943 27.121 982.917 153 142 136
79.943 27.621 983.113 158 147 141
79.943 28.121 983.455 168 157 151
79.943 28.621 983.744 162 153 146
79.943 29.121 984.034 156 147 142
80.443 24.121 982.101 132 124 122
80.443 24.621 982.083 148 140 137
80.443 25.121 982.187 168 159 156
80.443 25.621 982.313 154 145 140
80.443 26.121 982.527 139 130 124
80.443 26.621 982.818 147 138 131
80.443 27.121 983.079 158 147 141
80.443 27.621 983.379 160 149 143
80.443 28.121 983.755 184 172 166
80.443 28.621 984.024 177 168 161
80.943 24.121 982.077 137 129 126
80.943 24.621 982.088 146 138 135
80.943 25.121 982.246 149 140 138
80.943 25.621 982.405 142 133 128
80.943 26.121 982.597 151 142 137
80.943 26.621 982.956 156 147 140
80.943 27.121 983.283 172 161 155
80.943 27.621 983.621 184 173 167
80.943 28.121 983.987 179 168 162
81.443 24.121 982.084 136 126 122
81.443 24.621 982.144 155 146 141
81.443 25.121 982.300 152 143 138
81.443 25.621 982.513 142 133 128
81.443 26.121 982.735 157 148 143
81.443 26.621 983.141 162 153 148
81.443 27.121 983.532 163 153 146
81.443 27.621 983.861 174 166 158
81.943 24.121 982.130 142 133 128
81.943 24.621 982.253 168 158 153
81.943 25.121 982.404 155 146 141
81.943 25.621 982.631 143 134 129
81.943 26.121 982.907 153 144 139
81.943 26.621 983.372 152 143 138
81.943 27.121 983.784 158 149 142
81.943 27.621 984.184 161 152 145
82.443 24.121 982.172 148 139 132
82.443 24.621 982.341 167 157 151
82.443 25.121 982.541 153 144 138
82.443 25.621 982.782 152 143 137
82.443 26.121 983.133 146 137 130
82.443 26.621 983.667 143 134 128
82.443 27.121 984.012 159 150 142
82.943 24.121 982.194 159 148 141
82.943 24.621 982.380 157 147 138
82.943 25.121 982.645 157 147 138
82.943 25.621 982.997 163 153 144
82.943 26.121 983.460 151 141 132
82.943 26.621 983.935 146 136 127
83.443 24.121 982.243 168 158 149
83.443 24.621 982.436 160 150 141
83.443 25.121 982.715 184 173 164
83.443 25.621 983.131 188 179 170
83.443 26.121 983.714 166 155 146
83.443 26.621 984.105 177 168 158
83.943 24.121 982.323 168 158 149
83.943 24.621 982.521 168 158 149
83.943 25.121 982.794 199 189 180
83.943 25.621 983.158 200 190 181
83.943 26.121 983.790 181 171 162
84.443 24.121 982.366 176 167 157
84.443 24.621 982.575 173 163 154
84.443 25.121 982.876 170 160 150
84.443 25.621 983.245 193 184 173
84.443 26.121 983.838 184 174 165
84.943 24.121 982.366 176 167 157
84.943 24.621 982.615 191 181 172
84.943 25.121 982.938 184 174 165
84.943 25.621 983.364 195 185 176
84.943 26.121 983.892 196 186 177
85.443 24.121 982.363 173 163 154
85.443 24.621 982.657 179 168 159
85.443 25.121 982.986 168 157 148
85.443 25.621 983.417 197 187 178
85.443 26.121 983.875 190 180 171
85.943 24.121 982.338 168 157 148
85.943 24.621 982.665 168 158 149
85.943 25.121 983.026 166 155 146
85.943 25.621 983.451 188 179 170
85.943 26.121 983.850 176 167 157
86.443 24.121 982.318 168 158 149
86.443 24.621 982.650 168 157 148
86.443 25.121 983.039 164 154 145
86.443 25.621 983.481 193 184 174
86.443 26.121 983.870 184 174 165
86.943 24.121 982.319 156 146 137
86.943 24.621 982.652 172 162 153
86.943 25.121 983.047 167 156 147
86.943 25.621 983.504 192 183 173
86.943 26.121 983.918 187 177 168
87.443 24.121 982.349 157 147 138
87.443 24.621 982.722 155 145 136
87.443 25.121 983.098 167 156 147
87.443 25.621 983.552 185 175 166
87.443 26.121 983.996 186 176 167
87.943 24.121 982.415 174 161 153
87.943 24.621 982.820 168 154 145
87.943 25.121 983.185 170 157 148
87.943 25.621 983.612 188 175 166
87.943 26.121 984.045 188 176 164
88.443 24.121 982.402 179 166 157
88.443 24.621 982.839 174 161 152
88.443 25.121 983.259 176 163 154
88.443 25.621 983.612 202 189 180
88.443 26.121 984.029 209 197 185
88.943 24.121 982.333 170 157 149
88.943 24.621 982.751 169 156 147
88.943 25.121 983.255 164 151 142
88.943 25.621 983.555 202 189 180
88.943 26.121 983.977 224 212 200
89.443 24.121 982.311 177 164 156
89.443 24.621 982.653 163 150 141
89.443 25.121 983.165 161 148 139
89.443 25.621 983.496 201 188 179
89.443 26.121 983.900 217 205 193
89.943 24.121 982.336 176 163 155
89.943 24.621 982.639 159 146 137
89.943 25.121 983.032 155 142 133
89.943 25.621 983.407 183 169 160
89.943 26.121 983.751 208 196 184
89.943 26.621 984.113 198 186 174
90.443 24.121 982.352 189 176 168
90.443 24.621 982.631 172 159 150
90.443 25.121 982.919 153 140 131
90.443 25.621 983.244 158 145 136
90.443 26.121 983.564 193 181 170
90.443 26.621 983.919 191 179 167
90.943 24.121 982.243 206 193 184
90.943 24.621 982.515 191 179 170
90.943 25.121 982.771 175 162 153
90.943 25.621 983.053 171 158 149
90.943 26.121 983.447 166 152 143
90.943 26.621 983.764 184 171 162
91.443 24.121 982.109 193 180 171
91.443 24.621 982.379 184 170 161
91.443 25.121 982.612 167 153 144
91.443 25.621 982.880 180 168 158
91.443 26.121 983.262 161 148 139
91.443 26.621 983.590 172 159 150
91.443 27.121 984.001 180 168 158
91.943 24.121 982.041 145 132 124
91.943 24.621 982.276 152 139 131
91.943 25.121 982.528 152 139 131
91.943 25.621 982.708 179 166 158
91.943 26.121 982.954 171 158 151
91.943 26.621 983.303 168 155 147
91.943 27.121 983.640 156 143 135
91.943 27.621 984.018 193 181 170
92.443 24.121 981.941 140 129 123
92.443 24.621 982.128 143 131 125
92.443 25.121 982.377 171 159 153
92.443 25.621 982.571 177 166 159
92.443 26.121 982.755 153 141 135
92.443 26.621 982.985 149 137 131
92.443 27.121 983.305 137 126 119
92.443 27.621 983.637 153 140 131
92.443 28.121 983.919 195 183 173
92.943 24.121 981.851 136 125 119
92.943 24.621 982.011 150 139 133
92.943 25.121 982.205 185 174 168
92.943 25.621 982.400 170 159 153
92.943 26.121 982.622 151 140 134
92.943 26.621 982.784 144 133 127
92.943 27.121 982.984 147 136 129
92.943 27.621 983.308 144 134 125
92.943 28.121 983.589 161 148 140
92.943 28.621 983.866 168 155 146
92.943 29.121 984.162 197 184 172
93.443 24.121 981.828 145 134 128
93.443 24.621 981.931 154 143 137
93.443 25.121 982.083 175 164 158
93.443 25.621 982.196 186 175 170
93.443 26.121 982.398 158 147 141
93.443 26.621 982.598 149 138 132
93.443 27.121 982.747 154 143 137
93.443 27.621 982.976 147 137 128
93.443 28.121 983.278 150 137 129
93.443 28.621 983.565 155 142 133
93.443 29.121 983.828 167 151 140
93.443 29.621 984.103 199 184 171
93.943 24.121 981.817 152 141 134
93.943 24.621 981.863 168 157 148
93.943 25.121 981.970 160 150 141
93.943 25.621 982.063 163 153 144
93.943 26.121 982.176 174 164 155
93.943 26.621 982.358 170 160 151
93.943 27.121 982.542 153 143 135
93.943 27.621 982.731 150 139 133
93.943 28.121 983.028 153 141 133
93.943 28.621 983.329 172 158 149
93.943 29.121 983.583 179 164 153
93.943 29.621 983.787 189 175 162
93.943 30.121 984.038 197 184 167
94.443 24.121 981.790 133 122 118
94.443 24.621 981.837 145 134 130
94.443 25.121 981.904 144 133 129
94.443 25.621 982.010 134 123 118
94.443 26.121 982.074 152 141 135
94.443 26.621 982.199 171 160 154
94.443 27.121 982.352 174 163 157
94.443 27.621 982.573 159 148 142
94.443 28.121 982.843 158 147 141
94.443 28.621 983.050 180 170 161
94.443 29.121 983.340 179 166 156
94.443 29.621 983.581 183 170 158
94.443 30.121 983.782 177 166 153
94.443 30.621 984.092 170 156 145
94.943 24.121 981.767 137 126 122
94.943 24.621 981.818 150 139 135
94.943 25.121 981.868 151 140 136
94.943 25.621 981.963 137 126 120
94.943 26.121 982.040 157 146 140
94.943 26.621 982.141 162 151 145
94.943 27.121 982.235 159 149 141
94.943 27.621 982.450 161 150 144
94.943 28.121 982.667 155 144 138
94.943 28.621 982.847 155 145 136
94.943 29.121 983.114 156 143 135
94.943 29.621 983.456 161 148 139
94.943 30.121 983.611 174 161 152
94.943 30.621 983.837 171 157 148
94.943 31.121 984.134 158 144 134
95.443 24.121 981.758 154 143 139
95.443 24.621 981.814 155 144 138
95.443 25.121 981.859 151 140 134
95.443 25.621 981.914 145 134 128
95.443 26.121 982.016 153 143 134
95.443 26.621 982.105 177 168 158
95.443 27.121 982.175 145 135 127
95.443 27.621 982.349 146 135 129
95.443 28.121 982.512 153 142 136
95.443 28.621 982.675 153 143 134
95.443 29.121 982.963 151 138 130
95.443 29.621 983.290 161 148 139
95.443 30.121 983.533 167 153 144
95.443 30.621 983.674 172 157 150
95.443 31.121 984.008 168 154 146
95.943 24.121 981.771 156 144 138
95.943 24.621 981.825 159 146 140
95.943 25.121 981.861 150 137 131
95.943 25.621 981.896 159 146 139
95.943 26.121 982.000 154 141 133
95.943 26.621 982.094 162 149 141
95.943 27.121 982.141 144 132 124
95.943 27.621 982.284 141 130 124
95.943 28.121 982.403 147 136 130
95.943 28.621 982.543 144 133 127
95.943 29.121 982.730 144 131 123
95.943 29.621 983.143 152 139 131
95.943 30.121 983.442 168 155 147
95.943 30.621 983.563 170 155 148
95.943 31.121 983.906 173 158 151
95.943 31.621 984.112 164 150 141
96.443 24.121 981.792 155 142 136
96.443 24.621 981.822 168 155 149
96.443 25.121 981.853 184 170 164
96.443 25.621 981.905 180 168 159
96.443 26.121 982.003 168 154 146
96.443 26.621 982.087 156 143 135
96.443 27.121 982.144 156 143 136
96.443 27.621 982.257 143 132 126
96.443 28.121 982.353 153 142 136
96.443 28.621 982.454 147 136 130
96.443 29.121 982.566 153 140 134
96.443 29.621 982.969 150 137 131
96.443 30.121 983.292 158 145 139
96.443 30.621 983.503 170 155 147
96.443 31.121 983.727 173 159 150
96.443 31.621 984.003 174 160 150
96.943 24.121 981.804 143 130 124
96.943 24.621 981.825 184 170 164
96.943 25.121 981.845 191 179 171
96.943 25.621 981.915 193 180 172
96.943 26.121 982.005 185 172 164
96.943 26.621 982.080 168 155 146
96.943 27.121 982.154 162 150 142
96.943 27.621 982.259 156 145 139
96.943 28.121 982.330 166 154 148
96.943 28.621 982.393 150 139 133
96.943 29.121 982.548 159 146 140
96.943 29.621 982.812 154 141 135
96.943 30.121 983.124 152 139 133
96.943 30.621 983.398 166 151 142
96.943 31.121 983.563 172 158 148
96.943 31.621 983.895 176 162 151
96.943 32.121 984.133 184 169 156
97.443 24.121 981.820 137 124 116
97.443 24.621 981.837 176 163 155
97.443 25.121 981.862 166 152 144
97.443 25.621 981.927 150 137 129
97.443 26.121 982.004 158 145 136
97.443 26.621 982.092 167 153 144
97.443 27.121 982.161 169 157 148
97.443 27.621 982.245 163 150 142
97.443 28.121 982.333 157 144 136
97.443 28.621 982.391 159 146 138
97.443 29.121 982.627 156 143 135
97.443 29.621 982.805 156 141 134
97.443 30.121 983.058 164 149 142
97.443 30.621 983.303 173 156 145
97.443 31.121 983.463 184 168 155
97.443 31.621 983.792 190 174 161
97.443 32.121 984.077 192 176 161
97.943 24.121 981.836 145 132 124
97.943 24.621 981.848 155 142 134
97.943 25.121 981.892 181 168 160
97.943 25.621 981.944 164 151 143
97.943 26.121 982.002 163 150 142
97.943 26.621 982.090 167 153 145
97.943 27.121 982.161 167 154 146
97.943 27.621 982.237 164 151 143
97.943 28.121 982.338 155 142 134
97.943 28.621 982.475 146 133 125
97.943 29.121 982.671 153 139 132
97.943 29.621 982.823 163 149 140
97.943 30.121 983.058 177 163 153
97.943 30.621 983.280 189 173 160
97.943 31.121 983.483 214 198 185
97.943 31.621 983.791 216 200 186
97.943 32.121 984.070 219 203 188
98.443 24.121 981.845 194 181 172
98.443 24.621 981.857 190 177 168
98.443 25.121 981.905 192 179 171
98.443 25.621 981.960 186 173 165
98.443 26.121 982.007 160 147 139
98.443 26.621 982.095 145 132 124
98.443 27.121 982.160 151 138 131
98.443 27.621 982.261 144 131 123
98.443 28.121 982.352 153 140 132
98.443 28.621 982.549 158 145 137
98.443 29.121 982.658 161 148 139
98.443 29.621 982.871 162 148 138
98.443 30.121 983.046 184 169 158
98.443 30.621 983.253 204 188 175
98.443 31.121 983.564 215 199 186
98.443 31.621 983.805 219 203 188
98.443 32.121 984.064 223 207 192
98.943 24.121 981.853 192 179 171
98.943 24.621 981.873 192 179 171
98.943 25.121 981.917 197 184 175
98.943 25.621 981.973 166 152 144
98.943 26.121 982.018 144 131 123
98.943 26.621 982.108 168 154 146
98.943 27.121 982.183 186 173 167
98.943 27.621 982.302 176 163 156
98.943 28.121 982.407 166 152 144
98.943 28.621 982.550 181 168 159
98.943 29.121 982.658 174 161 151
98.943 29.621 982.918 158 144 133
98.943 30.121 983.034 152 138 127
98.943 30.621 983.254 171 155 141
98.943 31.121 983.578 202 186 171
98.943 31.621 983.833 214 198 183
98.943 32.121 984.067 206 190 175
99.443 24.121 981.852 160 148 136
99.443 24.621 981.887 158 145 136
99.443 25.121 981.933 194 181 172
99.443 25.621 981.984 151 138 130
99.443 26.121 982.025 138 125 117
99.443 26.621 982.116 152 139 133
99.443 27.121 982.209 164 151 145
99.443 27.621 982.335 166 152 146
99.443 28.121 982.438 171 158 150
99.443 28.621 982.557 168 155 146
99.443 29.121 982.692 188 176 164
99.443 29.621 982.951 179 166 152
99.443 30.121 983.114 160 146 133
99.443 30.621 983.352 175 159 144
99.443 31.121 983.603 189 173 158
99.443 31.621 983.914 202 186 171
99.443 32.121 984.067 200 184 168
99.943 24.121 981.853 191 179 167
99.943 24.621 981.889 168 155 143
99.943 25.121 981.942 163 150 141
99.943 25.621 982.005 147 134 126
99.943 26.121 982.059 141 128 122
99.943 26.621 982.141 145 132 126
99.943 27.121 982.220 142 130 124
99.943 27.621 982.352 148 135 129
99.943 28.121 982.477 151 138 130
99.943 28.621 982.597 161 148 139
99.943 29.121 982.753 184 171 158
99.943 29.621 982.989 186 172 159
99.943 30.121 983.217 200 187 171
99.943 30.621 983.485 212 196 181
99.943 31.121 983.661 218 202 187
99.943 31.621 983.987 222 206 190
99.943 32.121 984.142 215 199 183
100.443 24.121 981.850 209 197 183
100.443 24.621 981.891 167 154 142
100.443 25.121 981.961 144 131 122
100.443 25.621 982.045 138 126 119
100.443 26.121 982.111 142 130 124
100.443 26.621 982.191 155 143 137
100.443 27.121 982.253 152 141 135
100.443 27.621 982.384 144 134 127
100.443 28.121 982.540 136 124 118
100.443 28.621 982.633 144 133 124
100.443 29.121 982.811 179 167 154
100.443 29.621 983.009 171 158 143
100.443 30.121 983.239 179 166 149
100.443 30.621 983.500 207 191 176
100.443 31.121 983.704 221 205 190
100.443 31.621 984.005 221 206 190
100.943 24.121 981.854 213 200 186
100.943 24.621 981.909 188 176 164
100.943 25.121 982.000 174 161 153
100.943 25.621 982.096 161 150 143
100.943 26.121 982.161 156 145 139
100.943 26.621 982.231 155 144 138
100.943 27.121 982.286 158 147 141
100.943 27.621 982.415 144 135 130
100.943 28.121 982.578 133 122 116
100.943 28.621 982.661 135 125 117
100.943 29.121 982.875 181 168 158
100.943 29.621 983.061 188 175 160
100.943 30.121 983.252 180 168 150
100.943 30.621 983.510 201 185 171
100.943 31.121 983.757 208 192 177
100.943 31.621 984.028 211 197 182
101.443 24.121 981.889 196 184 171
101.443 24.621 981.946 172 160 148
101.443 25.121 982.035 160 147 138
101.443 25.621 982.129 159 146 140
101.443 26.121 982.210 142 131 125
101.443 26.621 982.270 139 128 122
101.443 27.121 982.318 137 126 120
101.443 27.621 982.457 147 136 132
101.443 28.121 982.601 136 125 121
101.443 28.621 982.724 130 118 111
101.443 29.121 982.946 175 162 153
101.443 29.621 983.125 191 179 167
101.443 30.121 983.321 186 172 159
101.443 30.621 983.620 174 158 145
101.443 31.121 983.885 171 155 140
101.443 31.621 984.089 194 181 165
101.943 24.121 981.912 187 173 161
101.943 24.621 981.971 154 140 129
101.943 25.121 982.057 144 130 122
101.943 25.621 982.146 146 133 126
101.943 26.121 982.240 143 130 124
101.943 26.621 982.296 133 121 116
101.943 27.121 982.358 135 124 118
101.943 27.621 982.502 140 129 124
101.943 28.121 982.628 136 125 121
101.943 28.621 982.783 131 118 114
101.943 29.121 982.994 149 136 129
101.943 29.621 983.180 168 154 145
101.943 30.121 983.457 172 158 147
101.943 30.621 983.743 176 162 149
101.943 31.121 984.015 172 158 145
101.943 31.621 984.187 183 168 153
102.443 24.121 981.933 190 176 163
102.443 24.621 981.991 179 164 153
102.443 25.121 982.078 162 148 139
102.443 25.621 982.167 166 151 143
102.443 26.121 982.254 184 171 163
102.443 26.621 982.320 179 167 157
102.443 27.121 982.460 168 155 147
102.443 27.621 982.568 152 140 133
102.443 28.121 982.689 141 129 122
102.443 28.621 982.846 135 122 116
102.443 29.121 983.041 137 124 117
102.443 29.621 983.219 154 141 132
102.443 30.121 983.596 173 160 151
102.443 30.621 983.833 190 176 163
102.443 31.121 984.085 183 168 155
102.943 24.121 981.951 206 193 177
102.943 24.621 981.998 191 177 164
102.943 25.121 982.081 189 175 164
102.943 25.621 982.181 191 177 166
102.943 26.121 982.272 195 184 171
102.943 26.621 982.370 203 191 179
102.943 27.121 982.561 212 200 188
102.943 27.621 982.648 196 184 174
102.943 28.121 982.749 152 139 130
102.943 28.621 982.925 138 125 117
102.943 29.121 983.133 140 127 119
102.943 29.621 983.290 158 145 137
102.943 30.121 983.671 201 188 179
102.943 30.621 983.931 201 189 177
102.943 31.121 984.137 184 169 156
103.443 24.121 981.959 220 204 188
103.443 24.621 982.004 215 202 186
103.443 25.121 982.076 212 198 185
103.443 25.621 982.180 201 187 175
103.443 26.121 982.287 184 171 157
103.443 26.621 982.429 197 185 171
103.443 27.121 982.582 207 195 181
103.443 27.621 982.700 215 203 191
103.443 28.121 982.810 201 189 179
103.443 28.621 983.013 158 145 136
103.443 29.121 983.204 143 130 121
103.443 29.621 983.434 155 142 132
103.443 30.121 983.709 203 191 179
103.443 30.621 983.989 210 198 186
103.943 24.121 981.944 207 194 178
103.943 24.621 982.018 216 203 187
103.943 25.121 982.090 217 204 188
103.943 25.621 982.195 209 196 180
103.943 26.121 982.300 203 190 174
103.943 26.621 982.449 201 188 172
103.943 27.121 982.579 207 194 179
103.943 27.621 982.730 214 200 187
103.943 28.121 982.896 215 201 188
103.943 28.621 983.119 192 179 165
103.943 29.121 983.253 159 145 132
103.943 29.621 983.534 153 139 126
103.943 30.121 983.758 176 162 149
103.943 30.621 984.014 216 202 191
104.443 24.121 981.936 183 169 153
104.443 24.621 982.037 216 203 187
104.443 25.121 982.106 219 206 190
104.443 25.621 982.209 218 205 189
104.443 26.121 982.312 210 197 181
104.443 26.621 982.451 208 195 179
104.443 27.121 982.583 217 203 188
104.443 27.621 982.745 218 204 191
104.443 28.121 982.955 219 205 192
104.443 28.621 983.181 214 200 187
104.443 29.121 983.318 201 187 174
104.443 29.621 983.600 187 173 160
104.443 30.121 983.866 180 167 153
104.443 30.621 984.068 194 180 168
104.943 24.121 981.970 202 189 173
104.943 24.621 982.057 218 205 189
104.943 25.121 982.120 221 208 192
104.943 25.621 982.215 221 208 192
104.943 26.121 982.321 219 206 190
104.943 26.621 982.481 214 201 185
104.943 27.121 982.620 216 203 187
104.943 27.621 982.776 220 207 191
104.943 28.121 983.016 222 209 193
104.943 28.621 983.252 220 207 191
104.943 29.121 983.439 223 210 194
104.943 29.621 983.705 220 207 191
104.943 30.121 983.980 208 195 179
104.943 30.621 984.166 195 181 168
105.443 24.121 982.012 216 203 187
105.443 24.621 982.084 220 207 191
105.443 25.121 982.145 222 209 193
105.443 25.621 982.241 221 208 192
105.443 26.121 982.368 222 209 193
105.443 26.621 982.532 221 208 192
105.443 27.121 982.688 221 208 192
105.443 27.621 982.868 217 204 188
105.443 28.121 983.136 208 195 179
105.443 28.621 983.388 199 186 171
105.443 29.121 983.590 221 208 192
105.443 29.621 983.819 225 212 196
105.443 30.121 984.032 223 210 194
105.943 24.121 982.044 220 207 191
105.943 24.621 982.108 220 207 191
105.943 25.121 982.180 218 205 189
105.943 25.621 982.309 219 206 190
105.943 26.121 982.459 220 207 191
105.943 26.621 982.602 221 208 192
105.943 27.121 982.775 220 207 191
105.943 27.621 982.994 215 202 186
105.943 28.121 983.297 194 181 165
105.943 28.621 983.521 195 183 166
105.943 29.121 983.691 219 206 190
105.943 29.621 983.918 224 211 195
105.943 30.121 984.098 226 213 197
106.443 24.121 982.074 214 201 185
106.443 24.621 982.124 216 203 187
106.443 25.121 982.208 215 202 186
106.443 25.621 982.382 213 200 184
106.443 26.121 982.540 218 205 189
106.443 26.621 982.674 218 205 189
106.443 27.121 982.877 220 207 191
106.443 27.621 983.118 219 206 190
106.443 28.121 983.428 214 201 185
106.443 28.621 983.622 217 204 188
106.443 29.121 983.794 223 210 194
106.443 29.621 983.997 227 214 198
106.943 24.121 982.108 214 201 185
106.943 24.621 982.152 212 199 183
106.943 25.121 982.278 202 189 173
106.943 25.621 982.483 201 188 172
106.943 26.121 982.630 215 202 186
106.943 26.621 982.799 217 204 188
106.943 27.121 983.008 217 204 188
106.943 27.621 983.306 219 206 190
106.943 28.121 983.585 219 206 190
106.943 28.621 983.739 223 210 194
106.943 29.121 983.921 225 212 196
106.943 29.621 984.106 226 213 197
107.443 24.121 982.156 212 199 183
107.443 24.621 982.216 217 204 188
107.443 25.121 982.403 216 203 187
107.443 25.621 982.629 206 193 177
107.443 26.121 982.771 206 193 177
107.443 26.621 982.968 204 191 175
107.443 27.121 983.154 211 198 182
107.443 27.621 983.483 214 201 185
107.443 28.121 983.765 216 203 187
107.443 28.621 983.901 223 210 194
107.443 29.121 984.063 226 213 197
107.943 24.121 982.228 212 199 183
107.943 24.621 982.316 216 203 187
107.943 25.121 982.512 217 204 188
107.943 25.621 982.740 214 201 185
107.943 26.121 982.931 213 200 184
107.943 26.621 983.114 201 188 172
107.943 27.121 983.342 211 198 182
107.943 27.621 983.627 221 208 192
107.943 28.121 983.902 209 196 180
107.943 28.621 984.066 217 204 188
108.443 24.121 982.302 209 196 181
108.443 24.621 982.437 210 197 181
108.443 25.121 982.586 212 199 183
108.443 25.621 982.812 214 201 185
108.443 26.121 983.061 210 197 181
108.443 26.621 983.273 193 180 164
108.443 27.121 983.545 217 204 188
108.443 27.621 983.821 224 211 195
108.443 28.121 984.063 211 198 182
108.943 24.121 982.355 201 188 172
108.943 24.621 982.522 205 192 176
108.943 25.121 982.659 203 190 174
108.943 25.621 982.922 210 197 181
108.943 26.121 983.178 209 196 180
108.943 26.621 983.437 209 196 180
108.943 27.121 983.721 218 205 189
108.943 27.621 983.991 220 207 191
109.443 24.121 982.395 206 193 177
109.443 24.621 982.563 210 197 181
109.443 25.121 982.744 208 195 179
109.443 25.621 983.065 211 198 182
109.443 26.121 983.322 207 194 178
109.443 26.621 983.594 207 194 178
109.443 27.121 983.865 212 199 183
109.443 27.621 984.116 213 200 184
109.943 24.121 982.437 204 191 175
109.943 24.621 982.620 204 191 175
109.943 25.121 982.838 208 195 179
109.943 25.621 983.160 197 184 168
109.943 26.121 983.484 210 197 181
109.943 26.621 983.773 204 191 175
109.943 27.121 983.992 209 196 180
110.443 24.121 982.452 208 194 178
110.443 24.621 982.677 209 194 179
110.443 25.121 982.937 211 196 181
110.443 25.621 983.213 204 190 175
110.443 26.121 983.605 181 168 152
110.443 26.621 983.887 194 179 164
110.443 27.121 984.081 214 200 184
110.943 24.121 982.433 211 198 182
110.943 24.621 982.719 211 198 182
110.943 25.121 983.008 213 200 184
110.943 25.621 983.273 209 196 180
110.943 26.121 983.654 193 180 164
110.943 26.621 983.925 209 196 180
110.943 27.121 984.161 209 196 180
111.443 24.121 982.413 206 193 177
111.443 24.621 982.753 210 197 181
111.443 25.121 983.050 215 202 186
111.443 25.621 983.366 214 201 185
111.443 26.121 983.703 205 192 176
111.443 26.621 983.989 207 194 178
111.943 24.121 982.388 202 188 175
111.943 24.621 982.765 209 196 182
111.943 25.121 983.083 218 204 191
111.943 25.621 983.435 218 204 191
111.943 26.121 983.758 203 189 176
111.943 26.621 984.057 207 193 180
112.443 24.121 982.365 196 184 171
112.443 24.621 982.767 184 172 158
112.443 25.121 983.095 218 206 192
112.443 25.621 983.450 222 210 196
112.443 26.121 983.777 211 199 185
112.443 26.621 984.081 205 193 179
112.943 24.121 982.358 198 186 172
112.943 24.621 982.768 187 175 161
112.943 25.121 983.082 218 206 192
112.943 25.621 983.464 230 218 205
112.943 26.121 983.780 221 209 195
112.943 26.621 984.097 215 203 189
113.443 24.121 982.344 204 190 177
113.443 24.621 982.738 204 192 178
113.443 25.121 983.050 222 213 199
113.443 25.621 983.489 233 223 211
113.443 26.121 983.795 225 216 205
113.443 26.621 984.132 219 209 197
113.943 24.121 982.300 205 191 178
113.943 24.621 982.668 203 191 177
113.943 25.121 983.042 223 215 200
113.943 25.621 983.510 231 222 209
113.943 26.121 983.846 227 219 206
113.943 26.621 984.177 215 205 193
114.443 24.121 982.239 203 190 175
114.443 24.621 982.594 206 194 180
114.443 25.121 983.060 224 213 199
114.443 25.621 983.515 233 222 208
114.443 26.121 983.902 223 213 201
114.443 26.621 984.177 212 202 190
114.943 24.121 982.195 203 191 175
114.943 24.621 982.550 195 184 167
114.943 25.121 983.026 208 196 181
114.943 25.621 983.435 234 222 208
114.943 26.121 983.884 225 213 199
114.943 26.621 984.115 201 192 177
115.443 24.121 982.202 208 196 180
115.443 24.621 982.521 198 186 171
115.443 25.121 982.947 202 189 173
115.443 25.621 983.316 216 202 189
115.443 26.121 983.777 233 220 206
115.443 26.621 984.040 216 207 192
115.943 24.121 982.229 211 199 183
115.943 24.621 982.498 209 196 180
115.943 25.121 982.864 206 193 177
115.943 25.621 983.206 203 189 176
115.943 26.121 983.609 214 202 188
115.943 26.621 983.936 232 222 207
115.943 27.121 984.116 233 222 207
116.443 24.121 982.232 216 203 187
116.443 24.621 982.477 213 200 184
116.443 25.121 982.733 208 194 178
116.443 25.621 983.057 209 195 179
116.443 26.121 983.463 211 198 183
116.443 26.621 983.785 217 206 190
116.443 27.121 984.007 231 217 202
116.943 24.121 982.232 222 209 193
116.943 24.621 982.451 217 204 188
116.943 25.121 982.623 211 198 182
116.943 25.621 982.958 211 198 182
116.943 26.121 983.375 213 200 184
116.943 26.621 983.627 218 205 189
116.943 27.121 983.862 223 210 194
116.943 27.621 984.117 226 213 197
117.443 24.121 982.236 221 208 192
117.443 24.621 982.421 219 206 190
117.443 25.121 982.584 218 205 189
117.443 25.621 982.902 216 203 187
117.443 26.121 983.242 209 196 180
117.443 26.621 983.492 215 202 186
117.443 27.121 983.692 218 205 189
117.443 27.621 983.982 227 214 198
117.943 24.121 982.238 216 203 187
117.943 24.621 982.394 216 203 187
117.943 25.121 982.559 215 202 186
117.943 25.621 982.849 205 192 176
117.943 26.121 983.092 207 194 178
117.943 26.621 983.341 206 193 177
117.943 27.121 983.593 189 176 160
117.943 27.621 983.860 220 207 191
117.943 28.121 984.089 227 214 198
118.443 24.121 982.238 214 201 185
118.443 24.621 982.387 224 211 195
118.443 25.121 982.544 221 208 192
118.443 25.621 982.802 219 206 190
118.443 26.121 983.010 218 205 189
118.443 26.621 983.212 218 205 189
118.443 27.121 983.521 210 197 181
118.443 27.621 983.714 219 206 190
118.443 28.121 983.999 223 210 194
118.943 24.121 982.217 218 205 189
118.943 24.621 982.360 226 213 197
118.943 25.121 982.533 223 210 194
118.943 25.621 982.760 221 208 192
118.943 26.121 982.976 219 206 190
118.943 26.621 983.145 218 205 189
118.943 27.121 983.434 223 210 194
118.943 27.621 983.601 221 208 192
118.943 28.121 983.870 216 203 187
118.943 28.621 984.157 219 206 190
119.443 24.121 982.187 220 207 191
119.443 24.621 982.304 221 208 192
119.443 25.121 982.498 220 207 191
119.443 25.621 982.723 222 209 193
119.443 26.121 982.947 220 207 191
119.443 26.621 983.098 218 205 189
119.443 27.121 983.327 219 206 190
119.443 27.621 983.519 220 207 191
119.443 28.121 983.725 220 207 191
119.443 28.621 984.061 219 206 190
119.943 24.121 982.149 219 206 189
119.943 24.621 982.262 217 204 187
119.943 25.121 982.466 214 201 184
119.943 25.621 982.675 218 205 188
119.943 26.121 982.878 219 206 189
119.943 26.621 983.065 219 206 190
119.943 27.121 983.260 218 205 189
119.943 27.621 983.483 218 205 188
119.943 28.121 983.665 218 205 188
119.943 28.621 984.002 208 195 178
119.943 29.121 984.151 214 201 184
120.443 24.121 982.058 214 201 185
120.443 24.621 982.188 213 200 183
120.443 25.121 982.414 209 196 179
120.443 25.621 982.627 211 198 182
120.443 26.121 982.797 214 201 185
120.443 26.621 983.017 218 205 189
120.443 27.121 983.234 219 206 190
120.443 27.621 983.448 218 205 188
120.443 28.121 983.609 218 205 188
120.443 28.621 983.941 212 199 182
120.443 29.121 984.127 209 196 179
120.943 24.121 981.977 205 193 179
120.943 24.621 982.092 204 192 178
120.943 25.121 982.318 214 200 186
120.943 25.621 982.567 213 200 184
120.943 26.121 982.723 212 199 183
120.943 26.621 982.957 213 200 184
120.943 27.121 983.201 214 201 185
120.943 27.621 983.398 218 205 189
120.943 28.121 983.566 216 203 187
120.943 28.621 983.901 217 204 188
120.943 29.121 984.109 215 202 186
121.443 24.121 981.920 194 183 171
121.443 24.621 982.037 193 181 170
121.443 25.121 982.224 198 186 172
121.443 25.621 982.502 202 188 175
121.443 26.121 982.661 213 200 184
121.443 26.621 982.894 214 198 183
121.443 27.121 983.150 212 196 181
121.443 27.621 983.350 217 201 186
121.443 28.121 983.535 218 202 187
121.443 28.621 983.870 208 192 177
121.443 29.121 984.082 205 189 174
121.943 24.121 981.853 194 181 172
121.943 24.621 981.950 183 170 159
121.943 25.121 982.109 186 173 162
121.943 25.621 982.401 194 180 167
121.943 26.121 982.586 210 194 181
121.943 26.621 982.832 205 189 174
121.943 27.121 983.100 181 166 150
121.943 27.621 983.274 177 161 146
121.943 28.121 983.496 197 181 166
121.943 28.621 983.820 187 171 156
121.943 29.121 984.032 176 160 145
122.443 24.121 981.818 170 160 151
122.443 24.621 981.864 156 145 135
122.443 25.121 982.012 151 138 128
122.443 25.621 982.333 188 174 163
122.443 26.121 982.525 196 180 167
