223.312 55.491 960.162 191 191 183
220.312 60.991 960.822 206 198 195
220.312 61.491 961.164 208 200 197
220.812 60.491 960.536 202 197 193
220.812 60.991 960.733 204 199 195
220.812 61.491 960.951 203 199 196
220.812 61.991 961.203 200 198 194
221.312 58.991 960.238 194 191 186
221.312 59.491 960.300 195 191 188
221.312 59.991 960.371 199 195 193
221.312 60.491 960.500 201 199 199
221.312 60.991 960.668 201 199 200
221.312 61.491 960.862 200 200 201
221.312 61.991 961.101 197 198 198
221.312 62.491 961.254 191 191 188
221.812 58.491 960.185 196 192 189
221.812 58.991 960.234 193 192 189
221.812 59.491 960.315 194 194 193
221.812 59.991 960.409 199 200 202
221.812 60.491 960.533 203 206 210
221.812 60.991 960.677 202 206 212
221.812 61.491 960.836 198 204 210
221.812 61.991 961.041 193 199 205
221.812 62.491 961.155 184 186 188
222.312 56.991 960.099 188 184 180
222.312 57.491 960.155 191 186 186
222.312 57.991 960.198 194 190 191
222.312 58.491 960.220 193 191 194
222.312 58.991 960.268 195 196 199
222.312 59.491 960.384 197 200 205
222.312 59.991 960.500 199 208 214
222.312 60.491 960.633 198 211 219
222.312 60.991 960.800 194 210 220
222.312 61.491 960.936 188 204 217
222.312 61.991 961.039 191 205 217
222.312 62.491 961.070 179 189 197
222.312 62.991 961.084 162 163 167
222.812 55.991 960.082 185 181 174
222.812 56.491 960.148 189 184 181
222.812 56.991 960.174 190 189 187
222.812 57.491 960.227 193 192 194
222.812 57.991 960.281 197 196 200
222.812 58.491 960.303 196 200 207
222.812 58.991 960.402 197 205 214
222.812 59.491 960.541 194 204 215
222.812 59.991 960.631 188 205 217
222.812 60.491 960.761 185 206 221
222.812 60.991 960.955 187 211 227
222.812 61.491 961.085 187 213 231
222.812 61.991 961.106 188 209 228
222.812 62.491 961.057 188 202 216
222.812 62.991 961.020 156 163 172
222.812 63.491 961.013 141 140 146
223.312 55.991 960.247 190 189 183
223.312 56.491 960.297 192 192 190
223.312 56.991 960.310 193 196 198
223.312 57.491 960.370 197 202 207
223.312 57.991 960.457 202 208 214
223.312 58.491 960.505 201 213 227
223.312 58.991 960.646 195 210 226
223.312 59.491 960.788 188 206 223
223.312 59.991 960.866 186 209 227
223.312 60.491 960.984 184 211 230
223.312 60.991 961.105 184 214 234
223.312 61.491 961.155 184 214 235
223.312 61.991 961.153 185 211 233
223.312 62.491 961.128 192 210 227
223.312 62.991 961.064 160 170 183
223.312 63.491 961.022 134 134 144
228.312 44.491 959.893 184 176 171
228.812 43.991 959.941 188 184 180
228.812 44.491 960.000 185 184 180
229.312 42.991 959.976 204 198 191
229.312 43.491 960.036 200 195 192
229.312 43.991 960.076 196 194 194
229.312 44.491 960.147 192 193 197
229.812 41.991 959.839 212 210 207
229.812 42.491 959.995 208 205 204
229.812 42.991 960.103 207 203 202
229.812 43.491 960.184 203 203 206
229.812 43.991 960.260 199 203 210
229.812 44.491 960.366 196 205 215
230.312 40.991 959.519 216 216 214
230.312 41.491 959.763 214 214 212
230.312 41.991 959.978 210 210 210
230.312 42.491 960.122 207 209 210
230.312 42.991 960.235 206 211 214
230.312 43.491 960.319 206 212 221
230.312 43.991 960.438 202 215 227
230.312 44.491 960.579 191 209 225
230.812 39.491 959.153 218 218 214
230.812 39.991 959.301 217 218 215
230.812 40.491 959.504 217 218 216
230.812 40.991 959.723 213 215 217
230.812 41.491 959.943 208 212 215
230.812 41.991 960.166 207 211 216
230.812 42.491 960.314 202 212 219
230.812 42.991 960.418 200 213 222
230.812 43.491 960.512 195 212 224
230.812 43.991 960.656 188 211 228
230.812 44.491 960.795 180 209 229
231.312 38.991 959.201 221 219 221
231.312 39.491 959.321 216 219 220
231.312 39.991 959.513 212 216 217
231.312 40.491 959.723 209 216 216
231.312 40.991 959.938 206 215 217
231.312 41.491 960.126 204 213 220
231.312 41.991 960.315 199 208 219
231.312 42.491 960.465 189 205 221
231.312 42.991 960.585 184 203 221
231.312 43.491 960.697 181 206 226
231.312 43.991 960.810 183 212 233
231.312 44.491 960.971 177 212 235
231.812 37.491 959.005 218 219 217
231.812 37.991 959.108 219 220 221
231.812 38.491 959.192 217 218 222
231.812 38.991 959.359 215 217 221
231.812 39.491 959.552 210 214 219
231.812 39.991 959.747 208 214 218
231.812 40.491 959.963 206 216 222
231.812 40.991 960.196 205 220 229
231.812 41.491 960.353 198 216 229
231.812 41.991 960.458 188 207 223
231.812 42.491 960.599 184 206 226
231.812 42.991 960.740 183 209 230
231.812 43.491 960.841 181 211 232
231.812 43.991 960.975 180 213 235
231.812 44.491 961.158 179 212 237
232.312 36.991 958.969 216 215 211
232.312 37.491 959.137 217 218 218
232.312 37.991 959.233 214 218 221
232.312 38.491 959.331 211 216 221
232.312 38.991 959.557 208 215 222
232.312 39.491 959.793 206 215 224
232.312 39.991 960.084 204 215 225
232.312 40.491 960.361 200 216 229
232.312 40.991 960.539 195 215 231
232.312 41.491 960.644 187 212 230
232.312 41.991 960.721 179 209 229
232.312 42.491 960.831 179 210 233
232.312 42.991 960.958 179 211 236
232.312 43.491 961.084 179 212 237
232.312 43.991 961.202 179 212 237
232.312 44.491 961.335 179 214 238
232.812 36.491 958.876 219 217 213
232.812 36.991 959.098 216 216 214
232.812 37.491 959.258 215 216 218
232.812 37.991 959.362 209 216 221
232.812 38.491 959.595 206 216 224
232.812 38.991 959.895 201 213 223
232.812 39.491 960.137 196 211 225
232.812 39.991 960.381 190 208 224
232.812 40.491 960.613 184 206 224
232.812 40.991 960.719 184 211 232
232.812 41.491 960.811 181 213 234
232.812 41.991 960.967 179 212 235
232.812 42.491 961.064 176 213 239
232.812 42.991 961.132 177 213 239
232.812 43.491 961.220 177 213 239
232.812 43.991 961.343 177 213 239
232.812 44.491 961.452 177 214 240
233.312 36.491 958.871 219 218 214
233.312 36.991 959.111 216 216 215
233.312 37.491 959.297 210 215 218
233.312 37.991 959.539 208 217 223
233.312 38.491 959.865 204 218 227
233.312 38.991 960.152 190 208 221
233.312 39.491 960.374 183 205 223
233.312 39.991 960.606 181 208 228
233.312 40.491 960.763 184 211 234
233.312 40.991 960.841 181 212 237
233.312 41.491 960.983 180 213 237
233.312 41.991 961.114 177 212 237
233.312 42.491 961.206 176 213 239
233.312 42.991 961.262 177 213 239
233.312 43.491 961.337 177 213 239
233.312 43.991 961.417 177 213 239
233.312 44.491 961.500 177 214 240
233.812 36.991 959.104 217 217 218
233.812 37.491 959.297 211 215 220
233.812 37.991 959.600 212 222 230
233.812 38.491 959.953 205 223 233
233.812 38.991 960.298 193 214 228
233.812 39.491 960.604 184 212 234
233.812 39.991 960.798 183 212 234
233.812 40.491 960.962 183 212 237
233.812 40.991 961.072 181 212 240
233.812 41.491 961.140 181 213 240
233.812 41.991 961.231 179 212 237
233.812 42.491 961.338 176 214 237
233.812 42.991 961.396 176 213 237
233.812 43.491 961.443 179 212 239
233.812 43.991 961.499 177 212 239
233.812 44.491 961.554 177 214 240
234.312 36.991 959.124 221 220 216
234.312 37.491 959.356 215 217 217
234.312 37.991 959.706 212 220 227
234.312 38.491 960.014 210 224 235
234.312 38.991 960.311 199 218 233
234.312 39.491 960.683 187 213 236
234.312 39.991 960.933 183 214 235
234.312 40.491 961.065 180 214 237
234.312 40.991 961.180 183 214 237
234.312 41.491 961.288 179 213 239
234.312 41.991 961.366 177 214 240
234.312 42.491 961.413 174 214 237
234.312 42.991 961.448 174 212 235
234.312 43.491 961.493 175 212 236
234.312 43.991 961.538 179 214 240
234.312 44.491 961.577 179 214 240
223.812 53.991 959.985 196 192 189
223.812 54.491 960.104 196 192 189
223.812 54.991 960.226 197 194 192
223.812 55.491 960.329 196 196 196
224.312 53.491 959.992 204 200 199
224.312 53.991 960.107 203 202 200
224.312 54.491 960.234 200 200 200
224.312 54.991 960.350 202 203 205
224.312 55.491 960.470 202 206 212
224.812 51.991 959.746 193 191 188
224.812 52.491 959.862 198 196 193
224.812 52.991 960.014 202 200 199
224.812 53.491 960.140 203 203 206
224.812 53.991 960.256 205 207 212
224.812 54.491 960.384 203 210 215
224.812 54.991 960.511 200 212 219
224.812 55.491 960.657 197 213 222
225.312 51.491 959.738 186 184 185
225.312 51.991 959.842 191 191 192
225.312 52.491 960.007 198 199 201
225.312 52.991 960.169 202 205 209
225.312 53.491 960.313 201 208 216
225.312 53.991 960.469 199 210 221
225.312 54.491 960.598 193 209 221
225.312 54.991 960.708 188 208 220
225.312 55.491 960.835 187 209 223
225.812 49.991 959.542 179 175 174
225.812 50.491 959.660 181 180 182
225.812 50.991 959.755 185 186 189
225.812 51.491 959.855 189 191 196
225.812 51.991 960.011 197 202 209
225.812 52.491 960.188 202 210 219
225.812 52.991 960.356 201 213 223
225.812 53.491 960.536 195 211 225
225.812 53.991 960.687 186 207 222
225.812 54.491 960.806 184 208 226
225.812 54.991 960.893 183 211 229
225.812 55.491 961.012 184 213 232
226.312 48.991 959.487 172 171 171
226.312 49.491 959.549 176 176 178
226.312 49.991 959.649 179 181 185
226.312 50.491 959.773 181 186 190
226.312 50.991 959.896 186 194 201
226.312 51.491 960.039 194 204 213
226.312 51.991 960.214 199 212 224
226.312 52.491 960.394 199 216 231
226.312 52.991 960.584 194 214 230
226.312 53.491 960.779 186 211 229
226.312 53.991 960.933 181 211 231
226.312 54.491 961.048 180 212 233
226.312 54.991 961.127 179 214 234
226.312 55.491 961.213 180 213 235
226.812 47.991 959.504 166 166 166
226.812 48.491 959.534 172 173 175
226.812 48.991 959.586 174 179 181
226.812 49.491 959.680 179 185 190
226.812 49.991 959.800 184 193 200
226.812 50.491 959.941 186 198 208
226.812 50.991 960.091 188 203 216
226.812 51.491 960.239 190 208 222
226.812 51.991 960.398 186 208 226
226.812 52.491 960.592 186 210 230
226.812 52.991 960.804 186 213 233
226.812 53.491 960.985 184 214 234
226.812 53.991 961.129 184 215 235
226.812 54.491 961.224 184 214 237
226.812 54.991 961.322 184 215 237
226.812 55.491 961.414 183 215 238
227.312 46.491 959.781 171 167 162
227.312 46.991 959.703 169 168 165
227.312 47.491 959.657 171 171 174
227.312 47.991 959.635 175 176 181
227.312 48.491 959.655 181 185 191
227.312 48.991 959.730 185 193 200
227.312 49.491 959.859 193 204 210
227.312 49.991 960.015 194 208 217
227.312 50.491 960.157 188 206 218
227.312 50.991 960.308 180 202 217
227.312 51.491 960.445 179 204 221
227.312 51.991 960.604 181 208 228
227.312 52.491 960.822 184 212 233
227.312 52.991 961.025 184 214 235
227.312 53.491 961.171 183 214 235
227.312 53.991 961.284 184 215 236
227.312 54.491 961.357 187 216 237
227.312 54.991 961.437 187 215 236
227.312 55.491 961.518 184 215 239
227.812 45.991 959.911 177 171 168
227.812 46.491 959.874 179 176 173
227.812 46.991 959.844 179 179 181
227.812 47.491 959.829 179 184 188
227.812 47.991 959.817 181 190 196
227.812 48.491 959.867 187 198 206
227.812 48.991 960.005 192 207 220
227.812 49.491 960.164 195 212 227
227.812 49.991 960.297 188 212 228
227.812 50.491 960.424 181 208 227
227.812 50.991 960.591 179 207 228
227.812 51.491 960.725 179 210 232
227.812 51.991 960.863 180 211 235
227.812 52.491 961.042 181 213 236
227.812 52.991 961.198 183 214 237
227.812 53.491 961.310 184 215 236
227.812 53.991 961.387 185 216 237
227.812 54.491 961.462 186 214 236
227.812 54.991 961.533 184 210 231
227.812 55.491 961.577 185 213 235
228.312 44.991 959.962 180 175 171
228.312 45.491 960.014 179 175 172
228.312 45.991 960.037 180 179 179
228.312 46.491 960.044 185 185 188
228.312 46.991 960.065 187 191 196
228.312 47.491 960.099 186 197 204
228.312 47.991 960.127 186 200 210
228.312 48.491 960.173 187 205 217
228.312 48.991 960.266 183 202 220
228.312 49.491 960.414 183 205 223
228.312 49.991 960.559 183 210 228
228.312 50.491 960.701 180 210 230
228.312 50.991 960.855 179 210 231
228.312 51.491 960.968 180 212 235
228.312 51.991 961.073 181 213 237
228.312 52.491 961.197 183 214 237
228.312 52.991 961.309 181 216 238
228.312 53.491 961.386 183 216 236
228.312 53.991 961.445 184 215 236
228.312 54.491 961.511 179 207 229
228.312 54.991 961.569 157 184 206
228.312 55.491 961.602 174 202 224
228.812 44.991 960.049 184 184 183
228.812 45.491 960.106 185 188 188
228.812 45.991 960.173 188 193 198
228.812 46.491 960.245 191 200 207
228.812 46.991 960.336 192 205 215
228.812 47.491 960.431 185 202 216
228.812 47.991 960.482 179 201 216
228.812 48.491 960.513 176 201 218
228.812 48.991 960.578 179 205 227
228.812 49.491 960.702 180 209 231
228.812 49.991 960.841 180 211 233
228.812 50.491 960.948 179 212 233
228.812 50.991 961.037 179 212 235
228.812 51.491 961.117 179 212 235
228.812 51.991 961.198 181 214 237
228.812 52.491 961.287 181 215 237
228.812 52.991 961.361 181 216 238
228.812 53.491 961.420 181 216 238
228.812 53.991 961.472 184 215 236
228.812 54.491 961.518 184 212 234
228.812 54.991 961.564 173 200 222
228.812 55.491 961.600 184 211 232
229.312 44.991 960.213 191 196 201
229.312 45.491 960.290 193 203 210
229.312 45.991 960.414 190 205 217
229.312 46.491 960.510 191 208 222
229.312 46.991 960.603 184 205 221
229.312 47.491 960.694 179 203 223
229.312 47.991 960.765 176 205 227
229.312 48.491 960.848 175 207 230
229.312 48.991 960.948 176 209 235
229.312 49.491 961.028 179 211 238
229.312 49.991 961.102 179 212 237
229.312 50.491 961.155 179 213 237
229.312 50.991 961.202 179 213 237
229.312 51.491 961.254 179 214 236
229.312 51.991 961.294 180 214 238
229.312 52.491 961.334 180 214 238
229.312 52.991 961.374 180 215 237
229.312 53.491 961.417 181 215 237
229.312 53.991 961.467 184 215 237
229.312 54.491 961.512 184 214 236
229.312 54.991 961.555 185 213 235
229.312 55.491 961.586 187 215 236
229.812 44.991 960.496 190 204 217
229.812 45.491 960.589 187 204 220
229.812 45.991 960.684 179 203 221
229.812 46.491 960.764 176 202 221
229.812 46.991 960.847 177 206 226
229.812 47.491 960.943 176 208 230
229.812 47.991 961.035 174 209 233
229.812 48.491 961.109 175 211 237
229.812 48.991 961.159 174 211 237
229.812 49.491 961.194 177 213 239
229.812 49.991 961.232 179 213 240
229.812 50.491 961.270 179 213 238
229.812 50.991 961.309 179 214 238
229.812 51.491 961.348 179 214 238
229.812 51.991 961.362 179 214 238
229.812 52.491 961.364 180 214 239
229.812 52.991 961.371 179 215 239
229.812 53.491 961.394 180 215 237
229.812 53.991 961.438 183 215 238
229.812 54.491 961.497 185 215 239
229.812 54.991 961.547 187 215 237
229.812 55.491 961.575 187 215 236
230.312 44.991 960.687 177 203 221
230.312 45.491 960.750 175 202 223
230.312 45.991 960.828 174 205 226
230.312 46.491 960.933 176 207 230
230.312 46.991 961.069 176 210 232
230.312 47.491 961.173 174 209 234
230.312 47.991 961.264 173 209 234
230.312 48.491 961.325 174 211 237
230.312 48.991 961.339 174 211 237
230.312 49.491 961.352 177 213 239
230.312 49.991 961.380 179 213 239
230.312 50.491 961.401 179 213 238
230.312 50.991 961.413 179 214 238
230.312 51.491 961.413 177 215 238
230.312 51.991 961.402 177 214 238
230.312 52.491 961.388 179 213 238
230.312 52.991 961.380 179 215 239
230.312 53.491 961.388 179 215 238
230.312 53.991 961.424 183 215 238
230.312 54.491 961.483 185 215 239
230.312 54.991 961.532 187 215 237
230.312 55.491 961.558 185 216 236
230.812 44.991 960.915 175 207 229
230.812 45.491 960.999 174 209 232
230.812 45.991 961.099 175 210 235
230.812 46.491 961.193 175 209 235
230.812 46.991 961.274 176 212 237
230.812 47.491 961.334 175 211 236
230.812 47.991 961.402 174 210 236
230.812 48.491 961.479 173 211 237
230.812 48.991 961.514 174 212 235
230.812 49.491 961.513 177 213 237
230.812 49.991 961.501 179 214 239
230.812 50.491 961.481 180 213 239
230.812 50.991 961.465 179 214 239
230.812 51.491 961.457 177 214 238
230.812 51.991 961.436 177 213 238
230.812 52.491 961.411 179 214 238
230.812 52.991 961.393 179 215 239
230.812 53.491 961.395 179 215 237
230.812 53.991 961.428 181 214 237
230.812 54.491 961.465 184 214 237
230.812 54.991 961.494 184 215 237
230.812 55.491 961.513 186 216 236
231.312 44.991 961.123 176 210 236
231.312 45.491 961.205 175 210 237
231.312 45.991 961.286 175 211 237
231.312 46.491 961.344 175 211 237
231.312 46.991 961.371 176 212 238
231.312 47.491 961.421 175 212 238
231.312 47.991 961.500 174 211 237
231.312 48.491 961.551 173 211 237
231.312 48.991 961.564 174 212 237
231.312 49.491 961.557 176 213 238
231.312 49.991 961.543 179 213 239
231.312 50.491 961.524 179 212 239
231.312 50.991 961.494 179 213 239
231.312 51.491 961.467 177 213 239
231.312 51.991 961.439 176 213 238
231.312 52.491 961.412 176 214 237
231.312 52.991 961.397 179 214 238
231.312 53.491 961.397 179 213 237
231.312 53.991 961.409 181 214 237
231.312 54.491 961.429 184 215 238
231.312 54.991 961.453 185 216 237
231.312 55.491 961.464 188 214 234
231.812 44.991 961.299 176 212 236
231.812 45.491 961.354 175 211 237
231.812 45.991 961.390 175 211 237
231.812 46.491 961.424 176 212 238
231.812 46.991 961.460 175 212 238
231.812 47.491 961.526 175 212 238
231.812 47.991 961.570 175 212 238
231.812 48.491 961.591 174 211 237
231.812 48.991 961.599 175 212 239
231.812 49.491 961.585 175 211 239
231.812 49.991 961.562 176 211 239
231.812 50.491 961.543 175 211 237
231.812 50.991 961.505 175 212 238
231.812 51.491 961.459 175 213 239
231.812 51.991 961.422 174 214 239
231.812 52.491 961.399 174 213 239
231.812 52.991 961.391 177 213 239
231.812 53.491 961.385 179 213 238
231.812 53.991 961.380 184 214 238
231.812 54.491 961.377 188 216 238
231.812 54.991 961.385 190 217 238
231.812 55.491 961.370 194 216 234
232.312 44.991 961.445 176 212 238
232.312 45.491 961.503 175 211 237
232.312 45.991 961.536 175 211 237
232.312 46.491 961.562 175 212 238
232.312 46.991 961.579 175 212 238
232.312 47.491 961.593 176 213 239
232.312 47.991 961.602 175 212 238
232.312 48.491 961.604 175 212 238
232.312 48.991 961.602 175 210 238
232.312 49.491 961.593 176 211 239
232.312 49.991 961.575 176 211 239
232.312 50.491 961.549 175 212 239
232.312 50.991 961.504 176 213 239
232.312 51.491 961.451 175 213 238
232.312 51.991 961.409 173 213 238
232.312 52.491 961.373 174 214 238
232.312 52.991 961.355 177 214 238
232.312 53.491 961.337 181 213 236
232.312 53.991 961.313 188 215 238
232.312 54.491 961.261 192 217 238
232.312 54.991 961.235 196 217 237
232.312 55.491 961.234 195 211 226
232.812 44.991 961.524 176 213 239
232.812 45.491 961.574 174 212 237
232.812 45.991 961.603 174 211 237
232.812 46.491 961.618 175 212 238
232.812 46.991 961.628 176 213 239
232.812 47.491 961.625 176 213 239
232.812 47.991 961.616 176 213 239
232.812 48.491 961.609 177 213 239
232.812 48.991 961.602 176 211 239
232.812 49.491 961.593 174 210 237
232.812 49.991 961.571 174 211 237
232.812 50.491 961.533 176 212 238
232.812 50.991 961.486 176 213 238
232.812 51.491 961.425 177 212 238
232.812 51.991 961.361 176 212 236
232.812 52.491 961.293 179 212 236
232.812 52.991 961.245 181 213 234
232.812 53.491 961.222 188 214 235
232.812 53.991 961.176 195 215 234
232.812 54.491 961.112 193 210 227
232.812 54.991 961.021 177 192 207
232.812 55.491 960.894 160 168 180
233.312 44.991 961.570 174 214 239
233.312 45.491 961.613 174 213 238
233.312 45.991 961.646 175 212 238
233.312 46.491 961.656 175 212 238
233.312 46.991 961.650 176 213 239
233.312 47.491 961.641 176 213 239
233.312 47.991 961.629 177 213 239
233.312 48.491 961.614 177 213 239
233.312 48.991 961.596 176 211 238
233.312 49.491 961.579 174 210 237
233.312 49.991 961.547 174 211 235
233.312 50.491 961.502 176 212 236
233.312 50.991 961.454 179 212 235
233.312 51.491 961.386 183 213 236
233.312 51.991 961.284 184 213 235
233.312 52.491 961.203 186 213 233
233.312 52.991 961.152 191 215 233
233.312 53.491 961.080 192 211 226
233.312 53.991 960.979 177 192 206
233.312 54.491 960.836 156 167 178
233.312 54.991 960.709 135 142 153
233.312 55.491 960.526 126 129 139
233.812 44.991 961.614 175 214 240
233.812 45.491 961.648 173 214 239
233.812 45.991 961.664 174 212 238
233.812 46.491 961.671 176 213 239
233.812 46.991 961.664 176 213 239
233.812 47.491 961.653 177 213 239
233.812 47.991 961.636 177 213 239
233.812 48.491 961.605 177 213 239
233.812 48.991 961.576 176 212 237
233.812 49.491 961.544 175 211 235
233.812 49.991 961.495 175 211 235
233.812 50.491 961.431 179 214 236
233.812 50.991 961.347 184 214 235
233.812 51.491 961.241 188 214 237
233.812 51.991 961.138 191 214 236
233.812 52.491 961.068 188 208 228
233.812 52.991 960.918 173 192 207
233.812 53.491 960.730 152 167 180
233.812 53.991 960.613 133 143 153
233.812 54.491 960.477 125 132 140
233.812 54.991 960.299 124 127 136
233.812 55.491 960.115 126 124 134
234.312 44.991 961.617 177 214 240
234.312 45.491 961.650 176 214 239
234.312 45.991 961.676 174 215 237
234.312 46.491 961.684 173 214 236
234.312 46.991 961.666 176 214 237
234.312 47.491 961.636 176 213 237
234.312 47.991 961.586 177 213 239
234.312 48.491 961.530 177 212 238
234.312 48.991 961.496 175 210 233
234.312 49.491 961.468 176 211 233
234.312 49.991 961.397 179 211 234
234.312 50.491 961.304 185 213 235
234.312 50.991 961.213 192 215 237
234.312 51.491 961.059 188 205 224
234.312 51.991 960.898 169 185 201
234.312 52.491 960.761 150 164 177
234.312 52.991 960.565 135 145 154
234.312 53.491 960.367 125 128 135
234.312 53.991 960.224 123 123 129
234.312 54.491 960.047 126 125 130
234.312 54.991 959.897 132 130 135
234.312 55.491 959.785 133 128 133
223.812 55.991 960.437 195 197 199
223.812 56.491 960.517 193 199 205
223.812 56.991 960.543 194 205 213
223.812 57.491 960.590 193 208 219
223.812 57.991 960.680 192 208 221
223.812 58.491 960.764 191 210 229
223.812 58.991 960.871 191 213 232
223.812 59.491 960.992 189 212 233
223.812 59.991 961.092 188 214 235
223.812 60.491 961.176 187 215 237
223.812 60.991 961.215 185 216 237
223.812 61.491 961.213 184 216 236
223.812 61.991 961.200 187 215 234
223.812 62.491 961.187 189 209 227
223.812 62.991 961.130 183 193 207
223.812 63.491 961.061 141 144 155
223.812 63.991 960.995 131 130 139
224.312 55.991 960.595 198 206 215
224.312 56.491 960.673 191 202 214
224.312 56.991 960.701 184 200 217
224.312 57.491 960.759 184 205 224
224.312 57.991 960.858 188 209 230
224.312 58.491 960.967 187 213 234
224.312 58.991 961.065 187 214 235
224.312 59.491 961.147 188 215 237
224.312 59.991 961.230 187 215 237
224.312 60.491 961.274 188 216 238
224.312 60.991 961.286 186 217 238
224.312 61.491 961.283 186 217 237
224.312 61.991 961.263 185 214 232
224.312 62.491 961.226 191 214 231
224.312 62.991 961.169 190 204 220
224.312 63.491 961.096 158 167 178
224.312 63.991 960.961 131 133 145
224.812 55.991 960.778 190 210 224
224.812 56.491 960.838 184 208 227
224.812 56.991 960.892 181 210 231
224.812 57.491 960.995 181 210 232
224.812 57.991 961.090 184 212 233
224.812 58.491 961.153 185 214 236
224.812 58.991 961.225 186 215 237
224.812 59.491 961.300 187 216 238
224.812 59.991 961.371 187 216 238
224.812 60.491 961.393 187 216 238
224.812 60.991 961.376 187 216 238
224.812 61.491 961.365 185 217 237
224.812 61.991 961.348 185 217 237
224.812 62.491 961.295 190 216 236
224.812 62.991 961.207 191 215 233
224.812 63.491 961.129 175 197 211
224.812 63.991 960.983 129 140 152
224.812 64.491 960.801 120 120 133
225.312 55.991 960.968 184 210 227
225.312 56.491 961.064 181 210 231
225.312 56.991 961.124 181 212 235
225.312 57.491 961.187 180 212 234
225.312 57.991 961.247 184 214 234
225.312 58.491 961.287 184 216 237
225.312 58.991 961.330 184 216 237
225.312 59.491 961.412 184 216 237
225.312 59.991 961.481 184 216 237
225.312 60.491 961.497 184 216 237
225.312 60.991 961.479 184 216 237
225.312 61.491 961.460 184 216 236
225.312 61.991 961.446 184 216 237
225.312 62.491 961.392 188 215 238
225.312 62.991 961.303 191 217 237
225.312 63.491 961.187 189 212 228
225.312 63.991 961.022 142 156 172
225.312 64.491 960.854 115 119 135
225.312 64.991 960.694 116 118 129
225.812 55.991 961.142 183 214 234
225.812 56.491 961.216 180 214 235
225.812 56.991 961.246 179 214 236
225.812 57.491 961.286 181 214 237
225.812 57.991 961.337 184 216 237
225.812 58.491 961.373 183 216 239
225.812 58.991 961.422 183 217 239
225.812 59.491 961.494 181 216 238
225.812 59.991 961.545 181 216 238
225.812 60.491 961.576 181 216 238
225.812 60.991 961.581 181 216 238
225.812 61.491 961.550 181 216 238
225.812 61.991 961.511 184 217 239
225.812 62.491 961.469 185 215 239
225.812 62.991 961.403 188 216 238
225.812 63.491 961.261 186 213 233
225.812 63.991 961.089 169 188 205
225.812 64.491 960.929 119 129 147
225.812 64.991 960.738 116 118 131
226.312 55.991 961.296 180 215 237
226.312 56.491 961.353 179 214 239
226.312 56.991 961.397 180 214 239
226.312 57.491 961.474 183 217 239
226.312 57.991 961.501 184 216 237
226.312 58.491 961.504 181 216 238
226.312 58.991 961.555 180 215 237
226.312 59.491 961.601 180 215 237
226.312 59.991 961.610 181 216 238
226.312 60.491 961.624 180 215 237
226.312 60.991 961.636 180 215 237
226.312 61.491 961.615 181 217 239
226.312 61.991 961.565 184 216 239
226.312 62.491 961.516 186 216 240
226.312 62.991 961.470 186 216 240
226.312 63.491 961.330 188 218 239
226.312 63.991 961.187 183 206 225
226.312 64.491 960.971 132 147 165
226.312 64.991 960.779 109 115 129
226.312 65.491 960.634 106 107 119
226.812 55.991 961.470 181 215 237
226.812 56.491 961.522 183 216 239
226.812 56.991 961.575 181 215 238
226.812 57.491 961.615 181 215 238
226.812 57.991 961.616 184 216 239
226.812 58.491 961.608 181 215 238
226.812 58.991 961.630 181 215 238
226.812 59.491 961.648 181 214 237
226.812 59.991 961.635 180 214 237
226.812 60.491 961.627 180 214 237
226.812 60.991 961.640 180 214 237
226.812 61.491 961.638 181 215 237
226.812 61.991 961.600 184 215 237
226.812 62.491 961.567 185 215 239
226.812 62.991 961.522 184 216 239
226.812 63.491 961.384 184 216 237
226.812 63.991 961.250 187 213 233
226.812 64.491 961.052 163 181 201
226.812 64.991 960.856 108 116 129
226.812 65.491 960.692 101 104 116
227.312 55.991 961.569 184 215 238
227.312 56.491 961.613 184 214 238
227.312 56.991 961.646 184 215 238
227.312 57.491 961.645 184 215 238
227.312 57.991 961.646 184 215 240
227.312 58.491 961.646 184 215 239
227.312 58.991 961.652 184 215 240
227.312 59.491 961.655 184 215 239
227.312 59.991 961.636 183 214 239
227.312 60.491 961.625 183 214 238
227.312 60.991 961.640 183 214 239
227.312 61.491 961.654 184 215 238
227.312 61.991 961.635 184 215 236
227.312 62.491 961.612 186 215 237
227.312 62.991 961.573 185 217 238
227.312 63.491 961.433 185 217 238
227.312 63.991 961.302 189 217 236
227.312 64.491 961.162 186 206 226
227.312 64.991 960.971 130 137 152
227.312 65.491 960.745 102 104 116
227.312 65.991 960.612 146 144 151
227.812 55.991 961.610 187 215 237
227.812 56.491 961.637 184 214 238
227.812 56.991 961.654 184 216 239
227.812 57.491 961.645 183 216 239
227.812 57.991 961.648 183 216 241
227.812 58.491 961.652 184 215 238
227.812 58.991 961.661 185 215 238
227.812 59.491 961.659 184 215 238
227.812 59.991 961.632 184 216 238
227.812 60.491 961.628 184 215 238
227.812 60.991 961.644 181 216 237
227.812 61.491 961.656 184 215 235
227.812 61.991 961.646 186 215 234
227.812 62.491 961.614 187 215 236
227.812 62.991 961.562 190 217 238
227.812 63.491 961.431 193 218 237
227.812 63.991 961.281 196 216 233
227.812 64.491 961.159 195 209 225
227.812 64.991 960.995 154 158 173
227.812 65.491 960.761 117 117 127
227.812 65.991 960.621 121 117 120
228.312 55.991 961.623 185 213 235
228.312 56.491 961.635 185 216 237
228.312 56.991 961.639 184 216 239
228.312 57.491 961.637 184 216 239
228.312 57.991 961.651 183 217 239
228.312 58.491 961.659 185 216 237
228.312 58.991 961.658 185 216 237
228.312 59.491 961.644 185 216 237
228.312 59.991 961.606 184 216 237
228.312 60.491 961.609 184 216 235
228.312 60.991 961.634 184 216 235
228.312 61.491 961.648 185 215 233
228.312 61.991 961.639 190 217 236
228.312 62.491 961.591 193 218 237
228.312 62.991 961.466 195 219 235
228.312 63.491 961.352 195 214 230
228.312 63.991 961.233 189 203 217
228.312 64.491 961.083 163 172 183
228.312 64.991 960.919 138 139 150
228.312 65.491 960.722 122 119 126
228.312 65.991 960.617 134 126 128
228.312 66.491 960.593 146 136 133
228.812 55.991 961.614 187 215 236
228.812 56.491 961.614 186 216 238
228.812 56.991 961.613 186 216 238
228.812 57.491 961.619 184 216 237
228.812 57.991 961.633 184 215 237
228.812 58.491 961.639 185 216 237
228.812 58.991 961.625 186 216 237
228.812 59.491 961.595 187 217 238
228.812 59.991 961.572 187 217 237
228.812 60.491 961.579 188 216 236
228.812 60.991 961.604 189 216 235
228.812 61.491 961.606 190 216 233
228.812 61.991 961.561 197 217 234
228.812 62.491 961.488 199 216 233
228.812 62.991 961.342 191 205 219
228.812 63.491 961.220 163 173 184
228.812 63.991 961.102 138 143 151
228.812 64.491 960.971 126 127 133
228.812 64.991 960.823 129 127 130
228.812 65.491 960.683 141 137 136
228.812 65.991 960.621 161 151 149
228.812 66.491 960.627 172 160 155
229.312 55.991 961.597 187 215 236
229.312 56.491 961.592 188 216 238
229.312 56.991 961.590 188 216 238
229.312 57.491 961.601 187 216 237
229.312 57.991 961.603 186 215 236
229.312 58.491 961.594 187 216 237
229.312 58.991 961.563 188 216 237
229.312 59.491 961.532 190 215 237
229.312 59.991 961.521 194 216 237
229.312 60.491 961.494 195 216 235
229.312 60.991 961.511 195 217 233
229.312 61.491 961.443 198 215 231
229.312 61.991 961.321 192 204 218
229.312 62.491 961.200 163 171 182
229.312 62.991 961.118 138 142 152
229.312 63.491 961.041 129 128 134
229.312 63.991 960.933 131 128 130
229.312 64.491 960.818 135 129 129
229.312 64.991 960.749 147 141 137
229.312 65.491 960.698 162 153 148
229.312 65.991 960.668 173 162 156
229.312 66.491 960.701 181 168 160
229.812 55.991 961.582 188 216 237
229.812 56.491 961.573 189 217 238
229.812 56.991 961.561 190 217 236
229.812 57.491 961.568 189 215 235
229.812 57.991 961.535 189 214 234
229.812 58.491 961.494 190 215 236
229.812 58.991 961.473 193 215 236
229.812 59.491 961.449 195 215 234
229.812 59.991 961.436 199 217 234
229.812 60.491 961.417 200 215 231
229.812 60.991 961.377 191 204 217
229.812 61.491 961.222 166 175 187
229.812 61.991 961.031 137 141 151
229.812 62.491 960.912 129 129 136
229.812 62.991 960.874 132 128 132
229.812 63.491 960.827 140 133 132
229.812 63.991 960.773 150 141 138
229.812 64.491 960.723 155 146 141
229.812 64.991 960.725 168 158 149
229.812 65.491 960.746 176 167 157
229.812 65.991 960.804 177 166 156
230.312 55.991 961.562 188 216 237
230.312 56.491 961.549 190 217 236
230.312 56.991 961.526 190 217 236
230.312 57.491 961.500 191 216 236
230.312 57.991 961.445 193 216 235
230.312 58.491 961.398 192 215 235
230.312 58.991 961.349 197 218 235
230.312 59.491 961.310 199 216 232
230.312 59.991 961.285 189 202 216
230.312 60.491 961.275 163 172 184
230.312 60.991 961.175 132 139 150
230.312 61.491 960.993 124 128 137
230.312 61.991 960.847 128 126 131
230.312 62.491 960.750 133 128 129
230.312 62.991 960.709 146 138 136
230.312 63.491 960.695 161 152 145
230.312 63.991 960.694 172 161 154
230.312 64.491 960.704 171 162 153
230.312 64.991 960.746 179 167 157
230.812 55.991 961.517 189 216 237
230.812 56.491 961.496 192 217 237
230.812 56.991 961.457 193 216 234
230.812 57.491 961.396 196 217 234
230.812 57.991 961.336 198 217 234
230.812 58.491 961.286 196 214 231
230.812 58.991 961.184 184 198 214
230.812 59.491 961.103 159 170 184
230.812 59.991 961.019 135 142 153
230.812 60.491 960.962 124 126 135
230.812 60.991 960.875 125 126 132
230.812 61.491 960.756 130 128 131
230.812 61.991 960.706 142 136 135
230.812 62.491 960.666 151 142 140
230.812 62.991 960.640 166 155 150
230.812 63.491 960.647 177 168 159
230.812 63.991 960.685 183 171 162
231.312 55.991 961.458 191 216 236
231.312 56.491 961.409 194 217 235
231.312 56.991 961.298 199 217 233
231.312 57.491 961.186 197 213 228
231.312 57.991 961.095 181 195 208
231.312 58.491 961.033 159 168 183
231.312 58.991 960.945 129 137 151
231.312 59.491 960.858 118 121 132
231.312 59.991 960.792 119 121 127
231.312 60.491 960.732 123 121 124
231.312 60.991 960.678 132 126 127
231.312 61.491 960.607 143 135 133
231.312 61.991 960.617 156 145 141
231.312 62.491 960.637 164 153 147
231.812 55.991 961.326 198 218 234
231.812 56.491 961.228 194 211 227
231.812 56.991 961.104 181 195 208
231.812 57.491 961.001 156 166 177
231.812 57.991 960.881 131 138 150
231.812 58.491 960.776 119 123 134
231.812 58.991 960.719 116 119 127
231.812 59.491 960.695 119 118 124
231.812 59.991 960.681 122 120 123
231.812 60.491 960.626 131 126 126
231.812 60.991 960.597 140 131 130
231.812 61.491 960.577 150 140 136
232.312 55.991 961.138 179 194 207
232.312 56.491 960.939 157 168 179
232.312 56.991 960.744 136 141 153
232.312 57.491 960.616 123 126 135
232.312 57.991 960.493 122 121 128
232.312 58.491 960.445 120 119 124
232.312 58.991 960.479 126 124 127
232.312 59.491 960.505 124 120 122
232.312 59.991 960.522 130 123 122
232.312 60.491 960.520 139 129 126
232.812 55.991 960.708 138 145 156
232.812 56.491 960.530 122 127 137
232.812 56.991 960.443 123 124 129
232.812 57.491 960.372 124 122 126
232.812 57.991 960.318 132 127 130
232.812 58.491 960.286 138 134 132
232.812 58.991 960.294 144 138 135
232.812 59.491 960.323 138 129 127
232.812 59.991 960.393 141 132 129
233.312 55.991 960.361 123 123 133
233.312 56.491 960.280 126 126 132
233.312 56.991 960.248 126 124 126
233.312 57.491 960.186 133 130 128
233.312 57.991 960.150 147 143 140
233.812 55.991 959.980 126 125 132
233.812 56.491 959.929 128 126 130
233.812 56.991 959.932 129 124 123
233.812 57.491 959.966 136 132 128
234.312 55.991 959.725 133 127 129
228.812 66.991 960.678 181 169 163
229.312 66.991 960.823 187 174 166
234.812 36.991 959.093 224 220 215
234.812 37.491 959.309 218 218 217
234.812 37.991 959.674 212 219 224
234.812 38.491 960.033 211 224 234
234.812 38.991 960.297 204 222 236
234.812 39.491 960.706 191 216 237
234.812 39.991 960.983 184 214 234
234.812 40.491 961.094 180 215 235
234.812 40.991 961.239 183 215 238
234.812 41.491 961.354 179 214 239
234.812 41.991 961.408 179 215 240
234.812 42.491 961.435 176 213 239
234.812 42.991 961.470 175 212 238
234.812 43.491 961.510 175 212 238
234.812 43.991 961.547 175 212 238
234.812 44.491 961.589 175 213 239
235.312 37.491 959.205 223 219 217
235.312 37.991 959.531 214 218 221
235.312 38.491 959.928 210 220 229
235.312 38.991 960.234 210 223 236
235.312 39.491 960.653 197 219 238
235.312 39.991 960.959 185 215 234
235.312 40.491 961.117 180 215 235
235.312 40.991 961.272 181 216 238
235.312 41.491 961.381 179 214 239
235.312 41.991 961.423 177 214 239
235.312 42.491 961.455 177 213 240
235.312 42.991 961.510 176 213 240
235.312 43.491 961.551 174 212 239
235.312 43.991 961.568 172 212 238
235.312 44.491 961.586 173 213 238
235.812 37.491 959.223 214 211 207
235.812 37.991 959.518 209 210 211
235.812 38.491 959.743 208 214 222
235.812 38.991 960.114 210 221 231
235.812 39.491 960.620 202 221 238
235.812 39.991 960.924 189 217 234
235.812 40.491 961.113 180 215 235
235.812 40.991 961.260 179 214 236
235.812 41.491 961.356 179 214 239
235.812 41.991 961.412 177 214 238
235.812 42.491 961.458 179 213 241
235.812 42.991 961.528 176 213 240
235.812 43.491 961.569 173 213 239
235.812 43.991 961.571 173 213 238
235.812 44.491 961.558 173 212 238
236.312 37.991 959.450 181 180 180
236.312 38.491 959.647 194 198 202
236.312 38.991 960.029 208 217 225
236.312 39.491 960.539 207 223 237
236.312 39.991 960.813 193 220 234
236.312 40.491 961.072 183 215 234
236.312 40.991 961.268 177 213 235
236.312 41.491 961.338 179 214 238
236.312 41.991 961.399 175 214 237
236.312 42.491 961.456 177 213 240
236.312 42.991 961.517 176 213 240
236.312 43.491 961.543 173 213 238
236.312 43.991 961.532 173 213 236
236.312 44.491 961.502 175 213 236
236.812 37.991 959.340 153 152 150
236.812 38.491 959.548 184 185 187
236.812 38.991 959.873 203 208 213
236.812 39.491 960.324 207 222 233
236.812 39.991 960.638 196 222 234
236.812 40.491 960.892 184 217 234
236.812 40.991 961.147 177 213 234
236.812 41.491 961.287 177 214 238
236.812 41.991 961.373 174 215 237
236.812 42.491 961.440 177 214 240
236.812 42.991 961.484 177 214 240
236.812 43.491 961.488 175 214 238
236.812 43.991 961.462 175 214 236
236.812 44.491 961.429 179 213 235
237.312 38.491 959.470 188 188 188
237.312 38.991 959.747 203 206 209
237.312 39.491 960.101 209 220 227
237.312 39.991 960.430 203 224 236
237.312 40.491 960.679 189 218 237
237.312 40.991 960.951 179 213 235
237.312 41.491 961.170 177 213 236
237.312 41.991 961.287 179 215 237
237.312 42.491 961.377 179 213 235
237.312 42.991 961.431 180 215 235
237.312 43.491 961.423 180 215 235
237.312 43.991 961.370 181 214 235
237.312 44.491 961.309 186 213 235
237.812 38.491 959.433 202 201 199
237.812 38.991 959.718 207 208 209
237.812 39.491 960.011 208 217 221
237.812 39.991 960.274 207 223 234
237.812 40.491 960.578 197 222 239
237.812 40.991 960.866 184 216 238
237.812 41.491 961.036 179 213 235
237.812 41.991 961.169 181 214 235
237.812 42.491 961.258 184 214 235
237.812 42.991 961.299 186 216 235
237.812 43.491 961.293 189 218 233
237.812 43.991 961.213 189 213 232
237.812 44.491 961.112 185 202 222
238.312 38.491 959.353 204 201 197
238.312 38.991 959.593 200 199 197
238.312 39.491 959.918 205 210 211
238.312 39.991 960.149 211 220 228
238.312 40.491 960.378 204 224 239
238.312 40.991 960.610 192 219 237
238.312 41.491 960.793 184 215 235
238.312 41.991 960.963 185 216 236
238.312 42.491 961.052 192 217 239
238.312 42.991 961.063 191 213 230
238.312 43.491 961.008 179 197 211
238.312 43.991 960.856 164 179 192
238.312 44.491 960.689 150 159 171
238.812 38.991 959.385 184 179 174
238.812 39.491 959.674 198 196 193
238.812 39.991 959.966 210 215 217
238.812 40.491 960.151 211 223 231
238.812 40.991 960.384 204 222 235
238.812 41.491 960.603 193 215 230
238.812 41.991 960.719 185 209 226
238.812 42.491 960.742 184 198 215
238.812 42.991 960.683 164 176 187
238.812 43.491 960.542 153 161 170
238.812 43.991 960.329 146 150 155
238.812 44.491 960.122 145 144 148
239.312 38.991 959.361 174 168 161
239.312 39.491 959.538 194 187 180
239.312 39.991 959.763 210 208 205
239.312 40.491 959.950 214 216 219
239.312 40.991 960.164 205 213 220
239.312 41.491 960.381 179 189 198
239.312 41.991 960.497 157 170 180
239.312 42.491 960.457 146 153 163
239.312 42.991 960.278 148 152 156
239.312 43.491 960.101 160 160 160
239.312 43.991 959.901 173 169 170
239.312 44.491 959.715 176 170 171
239.812 39.491 959.367 199 189 179
239.812 39.991 959.531 215 208 201
239.812 40.491 959.679 212 208 205
239.812 40.991 959.925 203 203 204
239.812 41.491 960.091 156 159 162
239.812 41.991 960.061 143 146 149
239.812 42.491 959.903 149 149 152
239.812 42.991 959.707 169 168 165
239.812 43.491 959.605 183 177 171
239.812 43.991 959.535 192 184 180
239.812 44.491 959.476 185 175 173
240.312 39.491 959.269 194 183 171
240.312 39.991 959.340 213 203 193
240.312 40.491 959.433 217 209 202
240.312 40.991 959.582 205 201 196
240.312 41.491 959.696 159 155 152
240.312 41.991 959.644 149 145 144
240.312 42.491 959.515 167 162 161
240.812 39.491 959.174 197 184 171
240.812 39.991 959.218 210 198 185
240.812 40.491 959.304 216 205 192
240.812 40.991 959.375 214 205 194
240.812 41.491 959.409 197 188 181
240.812 41.991 959.395 175 168 162
241.312 39.991 959.160 211 198 182
241.312 40.491 959.214 215 202 186
234.812 44.991 961.630 175 213 239
234.812 45.491 961.651 176 214 239
234.812 45.991 961.658 176 213 239
234.812 46.491 961.655 175 212 238
234.812 46.991 961.634 179 213 238
234.812 47.491 961.585 179 212 237
234.812 47.991 961.495 181 213 237
234.812 48.491 961.401 183 212 237
234.812 48.991 961.354 184 213 234
234.812 49.491 961.317 184 213 234
234.812 49.991 961.244 187 213 235
234.812 50.491 961.142 181 203 225
234.812 50.991 961.020 167 184 204
234.812 51.491 960.845 147 161 177
234.812 51.991 960.628 129 140 154
234.812 52.491 960.418 120 129 139
234.812 52.991 960.233 120 124 133
234.812 53.491 960.042 124 124 129
234.812 53.991 959.877 127 125 129
234.812 54.491 959.754 132 129 131
234.812 54.991 959.625 132 129 131
235.312 44.991 961.607 173 213 238
235.312 45.491 961.624 173 213 238
235.312 45.991 961.625 176 213 239
235.312 46.491 961.604 177 213 237
235.312 46.991 961.562 179 212 235
235.312 47.491 961.481 183 213 234
235.312 47.991 961.379 187 213 236
235.312 48.491 961.313 188 214 237
235.312 48.991 961.270 192 215 234
235.312 49.491 961.199 187 208 226
235.312 49.991 961.067 170 188 205
235.312 50.491 960.874 145 159 175
235.312 50.991 960.675 122 131 146
235.312 51.491 960.526 112 119 132
235.312 51.991 960.371 115 119 128
235.312 52.491 960.147 121 121 129
235.312 52.991 959.900 131 130 134
235.312 53.491 959.737 132 129 130
235.812 44.991 961.557 176 212 238
235.812 45.491 961.576 176 213 238
235.812 45.991 961.562 177 213 236
235.812 46.491 961.490 179 214 235
235.812 46.991 961.406 183 213 232
235.812 47.491 961.316 188 216 233
235.812 47.991 961.234 192 215 230
235.812 48.491 961.140 187 208 223
235.812 48.991 961.074 175 188 200
235.812 49.491 960.987 161 171 183
235.812 49.991 960.825 147 154 165
235.812 50.491 960.638 119 122 131
235.812 50.991 960.448 106 108 116
235.812 51.491 960.275 105 104 112
235.812 51.991 960.099 119 117 121
235.812 52.491 959.893 129 123 126
235.812 52.991 959.695 139 132 132
236.312 44.991 961.466 179 212 235
236.312 45.491 961.430 180 212 233
236.312 45.991 961.376 183 214 232
236.312 46.491 961.272 190 217 234
236.312 46.991 961.171 196 218 233
236.312 47.491 961.106 192 210 222
236.312 47.991 961.033 179 192 202
236.312 48.491 960.885 156 167 175
236.312 48.991 960.733 145 148 152
236.312 49.491 960.656 148 148 150
236.312 49.991 960.572 162 159 161
236.312 50.491 960.400 159 153 155
236.312 50.991 960.225 122 119 120
236.312 51.491 960.080 111 106 110
236.312 51.991 959.909 124 119 120
236.812 44.991 961.350 184 213 236
236.812 45.491 961.257 188 214 235
236.812 45.991 961.173 195 215 232
236.812 46.491 961.079 191 208 223
236.812 46.991 960.955 177 188 200
236.812 47.491 960.794 160 166 175
236.812 47.991 960.695 147 147 154
236.812 48.491 960.621 148 145 149
236.812 48.991 960.495 157 149 146
236.812 49.491 960.349 167 157 153
236.812 49.991 960.235 179 169 164
236.812 50.491 960.136 188 179 174
237.312 44.991 961.203 195 217 237
237.312 45.491 961.075 192 208 224
237.312 45.991 960.947 173 183 196
237.312 46.491 960.781 154 160 172
237.312 46.991 960.654 142 144 150
237.312 47.491 960.566 148 144 145
237.312 47.991 960.458 155 148 146
237.312 48.491 960.321 168 158 155
237.312 48.991 960.208 179 167 158
237.312 49.491 960.138 190 176 167
237.812 44.991 960.973 170 184 198
237.812 45.491 960.746 150 159 168
237.812 45.991 960.589 141 144 152
237.812 46.491 960.526 142 142 146
237.812 46.991 960.453 150 146 145
237.812 47.491 960.336 162 153 149
237.812 47.991 960.174 173 164 157
237.812 48.491 960.028 184 174 165
238.312 44.991 960.511 138 143 149
238.312 45.491 960.321 141 143 142
238.312 45.991 960.163 150 147 145
238.312 46.491 960.065 159 154 150
238.312 46.991 960.010 174 163 157
238.312 47.491 959.955 179 169 160
238.812 44.991 959.963 154 150 149
238.812 45.491 959.807 168 161 155
238.812 45.991 959.740 179 169 160
239.312 44.991 959.580 177 169 165
