124.312 -88.509 982.593 225 216 204
124.312 -88.009 982.691 223 213 200
124.312 -87.509 982.720 219 209 197
124.312 -87.009 982.685 208 198 186
124.812 -89.009 982.642 231 220 208
124.812 -88.509 982.915 227 219 210
124.812 -88.009 983.090 227 220 211
124.812 -87.509 983.113 220 211 204
124.812 -87.009 983.027 205 197 188
125.312 -89.009 982.889 233 224 214
125.312 -88.509 983.188 237 233 225
125.312 -88.009 983.324 244 241 236
125.312 -87.509 983.365 244 244 238
125.312 -87.009 983.291 246 243 238
125.812 -89.009 983.010 232 223 213
125.812 -88.509 983.281 241 237 231
125.812 -88.009 983.379 249 247 243
125.812 -87.509 983.423 250 250 250
125.812 -87.009 983.389 249 247 248
126.312 -89.009 983.147 228 221 211
126.312 -88.509 983.325 244 240 234
126.312 -88.009 983.414 250 248 246
126.312 -87.509 983.455 249 249 249
126.312 -87.009 983.413 249 249 249
126.812 -89.009 983.167 228 221 211
126.812 -88.509 983.315 243 239 235
126.812 -88.009 983.404 248 247 245
126.812 -87.509 983.461 249 249 249
126.812 -87.009 983.438 249 249 249
127.312 -89.009 983.183 232 223 215
127.312 -88.509 983.318 244 241 236
127.312 -88.009 983.414 249 248 246
127.312 -87.509 983.488 249 250 251
127.312 -87.009 983.465 249 249 251
127.812 -89.009 983.188 232 223 215
127.812 -88.509 983.323 245 243 238
127.812 -88.009 983.418 249 249 248
127.812 -87.509 983.490 249 250 252
127.812 -87.009 983.473 249 249 251
128.312 -89.009 983.196 232 222 215
128.312 -88.509 983.346 245 243 238
128.312 -88.009 983.466 249 249 247
128.312 -87.509 983.522 248 250 250
128.312 -87.009 983.479 248 250 249
128.812 -89.009 983.212 232 221 213
128.812 -88.509 983.363 244 243 238
128.812 -88.009 983.475 248 249 245
128.812 -87.509 983.522 247 250 247
128.812 -87.009 983.488 248 250 248
129.312 -89.009 983.246 232 223 214
129.312 -88.509 983.406 244 244 242
129.312 -88.009 983.497 248 249 248
129.312 -87.509 983.525 246 250 250
129.312 -87.009 983.493 247 249 251
129.812 -89.009 983.248 231 224 216
129.812 -88.509 983.412 244 244 241
129.812 -88.009 983.498 248 250 248
129.812 -87.509 983.525 248 250 249
129.812 -87.009 983.498 248 250 249
130.312 -89.009 983.238 230 225 220
130.312 -88.509 983.421 244 244 242
130.312 -88.009 983.503 246 248 247
130.312 -87.509 983.512 247 249 248
130.312 -87.009 983.470 248 249 248
130.812 -89.009 983.190 223 221 219
130.812 -88.509 983.408 240 247 248
130.812 -88.009 983.518 241 250 252
130.812 -87.509 983.535 241 250 253
130.812 -87.009 983.483 243 249 252
131.312 -89.009 983.188 203 202 205
131.312 -88.509 983.410 212 227 234
131.312 -88.009 983.518 219 237 244
131.312 -87.509 983.521 220 239 245
131.312 -87.009 983.454 223 239 247
131.812 -89.009 983.182 186 197 208
131.812 -88.509 983.394 170 201 221
131.812 -88.009 983.503 167 210 231
131.812 -87.509 983.524 169 210 235
131.812 -87.009 983.461 173 211 236
132.312 -89.009 983.173 187 200 213
132.312 -88.509 983.403 172 207 233
132.312 -88.009 983.479 161 211 238
132.312 -87.509 983.489 163 211 241
132.312 -87.009 983.452 167 209 241
132.812 -89.009 983.101 185 199 212
132.812 -88.509 983.400 164 202 229
132.812 -88.009 983.474 154 205 233
132.812 -87.509 983.478 155 204 237
132.812 -87.009 983.432 160 204 236
133.312 -89.009 983.099 187 201 214
133.312 -88.509 983.365 172 205 232
133.312 -88.009 983.457 163 209 235
133.312 -87.509 983.465 167 211 242
133.312 -87.009 983.396 172 212 244
133.812 -89.009 983.111 188 200 212
133.812 -88.509 983.340 176 207 231
133.812 -88.009 983.449 168 212 235
133.812 -87.509 983.450 168 212 239
133.812 -87.009 983.391 173 211 238
134.312 -89.009 983.106 184 196 209
134.312 -88.509 983.324 174 207 230
134.312 -88.009 983.449 168 214 237
134.312 -87.509 983.469 169 213 242
134.312 -87.009 983.416 173 214 240
134.812 -89.009 983.112 189 200 211
134.812 -88.509 983.347 166 202 228
134.812 -88.009 983.471 158 208 234
134.812 -87.509 983.492 160 212 243
134.812 -87.009 983.441 164 212 242
124.312 -86.509 982.506 200 188 174
124.312 -86.009 982.268 193 180 164
124.312 -85.509 982.135 191 175 160
124.312 -85.009 982.021 194 179 161
124.312 -84.509 981.885 201 186 167
124.812 -86.509 982.829 189 179 171
124.812 -86.009 982.566 168 156 145
124.812 -85.509 982.341 157 143 130
124.812 -85.009 982.139 157 142 128
124.812 -84.509 981.971 180 164 149
125.312 -86.509 983.077 240 234 230
125.312 -86.009 982.806 189 180 175
125.312 -85.509 982.525 151 140 131
125.312 -85.009 982.243 140 130 120
125.312 -84.509 982.041 170 156 143
125.812 -86.509 983.211 250 246 242
125.812 -86.009 982.932 199 193 187
125.812 -85.509 982.669 152 143 136
125.812 -85.009 982.404 139 130 121
125.812 -84.509 982.144 169 157 145
126.312 -86.509 983.259 250 245 244
126.312 -86.009 983.031 194 187 182
126.312 -85.509 982.764 153 144 137
126.312 -85.009 982.484 140 131 122
126.312 -84.509 982.191 172 159 147
126.812 -86.509 983.267 248 245 244
126.812 -86.009 983.041 189 183 179
126.812 -85.509 982.801 150 140 136
126.812 -85.009 982.530 142 133 126
126.812 -84.509 982.224 179 167 157
127.312 -86.509 983.297 248 246 244
127.312 -86.009 983.122 184 179 175
127.312 -85.509 982.900 146 136 134
127.312 -85.009 982.589 144 134 129
127.312 -84.509 982.282 184 170 162
127.812 -86.509 983.293 248 245 246
127.812 -86.009 983.111 183 177 173
127.812 -85.509 982.927 142 132 131
127.812 -85.009 982.649 144 134 131
127.812 -84.509 982.351 185 172 164
128.312 -86.509 983.299 249 247 245
128.312 -86.009 983.104 184 179 175
128.312 -85.509 982.897 140 131 129
128.312 -85.009 982.648 144 134 131
128.312 -84.509 982.400 181 168 160
128.812 -86.509 983.342 247 247 243
128.812 -86.009 983.091 179 175 172
128.812 -85.509 982.835 140 132 129
128.812 -85.009 982.654 141 132 126
128.812 -84.509 982.441 175 164 152
129.312 -86.509 983.346 245 244 244
129.312 -86.009 983.101 174 171 171
129.312 -85.509 982.859 139 132 129
129.312 -85.009 982.679 141 132 126
129.312 -84.509 982.475 170 157 148
129.812 -86.509 983.341 244 243 242
129.812 -86.009 983.094 173 167 166
129.812 -85.509 982.869 138 129 130
129.812 -85.009 982.691 140 130 126
129.812 -84.509 982.490 167 154 144
130.312 -86.509 983.293 246 244 244
130.312 -86.009 983.062 170 164 164
130.312 -85.509 982.898 136 127 128
130.312 -85.009 982.715 139 130 126
130.312 -84.509 982.477 167 156 145
130.812 -86.509 983.284 240 244 247
130.812 -86.009 983.043 162 161 165
130.812 -85.509 982.873 130 124 127
130.812 -85.009 982.722 136 126 125
130.812 -84.509 982.502 167 154 146
131.312 -86.509 983.271 218 231 239
131.312 -86.009 983.048 160 168 177
131.312 -85.509 982.875 128 122 127
131.312 -85.009 982.719 132 122 122
131.312 -84.509 982.509 158 145 137
131.812 -86.509 983.290 177 210 231
131.812 -86.009 983.077 155 174 192
131.812 -85.509 982.883 123 126 138
131.812 -85.009 982.708 126 120 122
131.812 -84.509 982.528 157 144 135
132.312 -86.509 983.304 169 210 235
132.312 -86.009 983.085 147 169 193
132.312 -85.509 982.877 123 128 141
132.312 -85.009 982.681 126 121 123
132.312 -84.509 982.517 158 145 136
132.812 -86.509 983.274 164 204 231
132.812 -86.009 983.059 141 163 189
132.812 -85.509 982.852 122 127 141
132.812 -85.009 982.648 125 120 124
133.312 -86.509 983.212 175 212 237
133.312 -86.009 983.003 145 164 189
133.312 -85.509 982.819 122 125 141
133.312 -85.009 982.631 125 120 124
133.812 -86.509 983.238 179 213 235
133.812 -86.009 983.032 153 169 190
133.812 -85.509 982.829 123 126 140
133.812 -85.009 982.633 126 121 125
134.312 -86.509 983.259 179 214 235
134.312 -86.009 983.048 155 173 196
134.312 -85.509 982.840 126 129 145
134.312 -85.009 982.640 127 122 127
134.812 -86.509 983.300 169 210 235
134.812 -86.009 983.082 144 168 192
134.812 -85.509 982.849 128 132 145
134.812 -85.009 982.629 127 122 126
135.312 -89.009 983.128 192 200 208
135.312 -88.509 983.384 167 197 221
135.312 -88.009 983.494 157 199 223
135.312 -87.509 983.503 153 200 227
135.312 -87.009 983.459 155 200 228
135.812 -89.009 983.049 217 219 221
135.812 -88.509 983.320 210 225 235
135.812 -88.009 983.452 210 230 243
135.812 -87.509 983.477 204 227 244
135.812 -87.009 983.414 205 227 242
136.312 -89.009 982.847 228 225 218
136.312 -88.509 983.106 239 241 239
136.312 -88.009 983.284 240 241 243
136.312 -87.509 983.338 244 245 250
136.312 -87.009 983.261 243 244 247
135.312 -86.509 983.319 169 201 226
135.312 -86.009 983.061 145 163 187
135.312 -85.509 982.779 128 129 140
135.312 -85.009 982.538 129 124 125
135.812 -86.509 983.242 214 230 241
135.812 -86.009 982.957 179 186 194
135.812 -85.509 982.654 144 141 144
135.812 -85.009 982.413 139 131 131
136.312 -86.509 983.057 239 241 240
136.312 -86.009 982.769 204 204 201
136.312 -85.509 982.498 173 166 163
136.312 -85.009 982.276 168 157 152
