79.812 -68.509 982.447 218 211 195
79.812 -68.009 982.538 218 211 195
80.312 -70.009 982.231 206 199 181
80.312 -69.509 982.299 208 201 185
80.312 -69.009 982.361 211 204 188
80.312 -68.509 982.452 217 210 194
80.312 -68.009 982.531 220 213 197
80.312 -67.509 982.571 213 207 193
80.812 -71.009 982.218 209 202 184
80.812 -70.509 982.281 208 200 183
80.812 -70.009 982.302 206 198 182
80.812 -69.509 982.343 205 197 180
80.812 -69.009 982.403 206 197 182
80.812 -68.509 982.465 214 205 192
80.812 -68.009 982.510 215 211 198
80.812 -67.509 982.553 213 211 197
81.312 -72.009 982.132 213 205 191
81.312 -71.509 982.239 210 204 189
81.312 -71.009 982.317 202 196 180
81.312 -70.509 982.363 198 191 174
81.312 -70.009 982.425 196 187 171
81.312 -69.509 982.444 194 187 171
81.312 -69.009 982.451 200 191 176
81.312 -68.509 982.464 212 203 188
81.312 -68.009 982.504 216 210 196
81.312 -67.509 982.558 215 213 200
81.812 -72.509 982.172 213 205 196
81.812 -72.009 982.267 211 207 200
81.812 -71.509 982.371 204 205 199
81.812 -71.009 982.438 187 189 182
81.812 -70.509 982.523 176 174 166
81.812 -70.009 982.564 171 168 159
81.812 -69.509 982.522 170 168 157
81.812 -69.009 982.480 177 170 159
81.812 -68.509 982.468 202 194 182
81.812 -68.009 982.497 218 213 198
81.812 -67.509 982.539 217 215 202
82.312 -72.509 982.359 206 205 207
82.312 -72.009 982.439 201 206 211
82.312 -71.509 982.562 188 200 208
82.312 -71.009 982.674 161 177 187
82.312 -70.509 982.719 157 170 178
82.312 -70.009 982.681 152 161 168
82.312 -69.509 982.596 143 150 151
82.312 -69.009 982.521 144 143 139
82.312 -68.509 982.478 177 173 163
82.312 -68.009 982.480 215 210 198
82.312 -67.509 982.506 222 220 207
82.812 -72.509 982.571 200 210 218
82.812 -72.009 982.667 183 201 215
82.812 -71.509 982.759 163 193 212
82.812 -71.009 982.823 160 195 216
82.812 -70.509 982.822 163 197 218
82.812 -70.009 982.763 167 194 215
82.812 -69.509 982.658 137 156 167
82.812 -69.009 982.572 113 121 127
82.812 -68.509 982.503 146 146 144
82.812 -68.009 982.476 207 203 193
82.812 -67.509 982.497 222 220 207
83.312 -72.509 982.607 193 212 222
83.312 -72.009 982.751 181 212 227
83.312 -71.509 982.841 168 210 233
83.312 -71.009 982.879 162 212 239
83.312 -70.509 982.888 164 213 240
83.312 -70.009 982.843 166 211 237
83.312 -69.509 982.705 143 169 190
83.312 -69.009 982.603 106 120 134
83.312 -68.509 982.531 130 132 136
83.312 -68.009 982.497 197 195 187
83.312 -67.509 982.520 224 222 209
83.812 -72.509 982.635 194 212 222
83.812 -72.009 982.797 179 211 230
83.812 -71.509 982.891 168 214 239
83.812 -71.009 982.952 166 216 243
83.812 -70.509 982.971 167 216 241
83.812 -70.009 982.931 169 215 241
83.812 -69.509 982.781 149 181 205
83.812 -69.009 982.648 105 123 139
83.812 -68.509 982.576 120 123 129
83.812 -68.009 982.540 189 185 178
83.812 -67.509 982.536 221 217 205
84.312 -72.509 982.669 198 213 222
84.312 -72.009 982.826 180 213 230
84.312 -71.509 982.937 167 214 238
84.312 -71.009 983.005 164 215 242
84.312 -70.509 983.026 168 216 242
84.312 -70.009 983.005 169 216 242
84.312 -69.509 982.873 157 192 216
84.312 -69.009 982.711 105 125 142
84.312 -68.509 982.622 116 119 124
84.312 -68.009 982.573 177 172 167
84.312 -67.509 982.548 218 214 202
84.812 -72.509 982.691 198 212 220
84.812 -72.009 982.845 183 213 229
84.812 -71.509 982.980 168 214 237
84.812 -71.009 983.042 162 214 238
84.812 -70.509 983.052 167 215 239
84.812 -70.009 983.024 168 215 240
84.812 -69.509 982.918 162 198 222
84.812 -69.009 982.770 108 128 147
84.812 -68.509 982.662 113 117 124
84.812 -68.009 982.602 172 168 163
84.812 -67.509 982.572 211 207 196
84.812 -67.009 982.553 219 215 204
85.312 -72.509 982.719 200 210 216
85.312 -72.009 982.892 188 215 229
85.312 -71.509 983.025 168 214 235
85.312 -71.009 983.075 164 214 237
85.312 -70.509 983.075 167 216 239
85.312 -70.009 983.035 169 217 242
85.312 -69.509 982.968 170 205 231
85.312 -69.009 982.830 115 134 155
85.312 -68.509 982.680 110 115 123
85.312 -68.009 982.606 170 167 163
85.312 -67.509 982.589 207 203 192
85.312 -67.009 982.574 214 210 198
85.812 -72.009 982.859 190 214 226
85.812 -71.509 983.024 174 215 235
85.812 -71.009 983.102 169 217 240
85.812 -70.509 983.109 170 217 241
85.812 -70.009 983.081 172 218 243
85.812 -69.509 983.017 174 211 238
85.812 -69.009 982.848 122 145 167
85.812 -68.509 982.680 107 113 124
85.812 -68.009 982.610 166 162 159
85.812 -67.509 982.596 210 206 196
85.812 -67.009 982.594 215 211 200
86.312 -72.009 982.789 192 212 224
86.312 -71.509 982.987 177 215 234
86.312 -71.009 983.105 173 217 240
86.312 -70.509 983.130 173 218 241
86.312 -70.009 983.106 174 218 243
86.312 -69.509 983.052 175 212 241
86.312 -69.009 982.858 129 153 175
86.312 -68.509 982.681 106 113 124
86.312 -68.009 982.624 156 155 154
86.312 -67.509 982.608 212 208 198
86.312 -67.009 982.607 219 215 205
86.812 -72.009 982.750 193 209 220
86.812 -71.509 982.963 179 213 233
86.812 -71.009 983.093 172 215 239
86.812 -70.509 983.127 172 217 241
86.812 -70.009 983.114 175 217 242
86.812 -69.509 983.038 179 216 242
86.812 -69.009 982.842 141 166 189
86.812 -68.509 982.692 103 112 127
86.812 -68.009 982.643 145 145 146
86.812 -67.509 982.620 206 202 194
86.812 -67.009 982.623 219 216 205
87.312 -72.009 982.774 196 210 221
87.312 -71.509 982.979 180 212 233
87.312 -71.009 983.088 170 214 238
87.312 -70.509 983.118 170 215 240
87.312 -70.009 983.081 173 215 242
87.312 -69.509 982.990 179 215 240
87.312 -69.009 982.827 149 177 200
87.312 -68.509 982.711 102 118 133
87.312 -68.009 982.653 137 138 144
87.312 -67.509 982.625 203 198 192
87.312 -67.009 982.627 220 218 206
87.812 -72.009 982.791 192 205 216
87.812 -71.509 982.975 176 208 229
87.812 -71.009 983.073 167 212 235
87.812 -70.509 983.102 167 214 237
87.812 -70.009 983.053 168 213 240
87.812 -69.509 982.967 175 215 241
87.812 -69.009 982.819 155 186 210
87.812 -68.509 982.712 105 120 139
87.812 -68.009 982.643 130 132 139
87.812 -67.509 982.610 198 195 190
87.812 -67.009 982.620 223 220 211
88.312 -72.009 982.766 187 199 208
88.312 -71.509 982.937 173 205 226
88.312 -71.009 983.048 163 210 233
88.312 -70.509 983.084 162 212 237
88.312 -70.009 983.062 164 211 239
88.312 -69.509 982.989 169 214 239
88.312 -69.009 982.835 160 195 220
88.312 -68.509 982.717 107 127 147
88.312 -68.009 982.625 119 122 131
88.312 -67.509 982.584 184 183 178
88.312 -67.009 982.611 218 215 206
88.812 -71.509 982.915 175 207 227
88.812 -71.009 983.039 161 210 233
88.812 -70.509 983.085 160 212 238
88.812 -70.009 983.082 160 211 240
88.812 -69.509 983.020 164 213 239
88.812 -69.009 982.848 163 200 227
88.812 -68.509 982.718 113 133 156
88.812 -68.009 982.630 111 118 129
88.812 -67.509 982.581 170 170 167
88.812 -67.009 982.610 213 210 202
88.812 -66.509 982.663 216 214 205
89.312 -71.509 982.882 179 210 229
89.312 -71.009 983.038 161 210 234
89.312 -70.509 983.105 157 212 238
89.312 -70.009 983.109 158 211 241
89.312 -69.509 983.046 162 212 239
89.312 -69.009 982.870 163 204 231
89.312 -68.509 982.728 121 143 168
89.312 -68.009 982.649 109 116 128
89.312 -67.509 982.596 162 162 161
89.312 -67.009 982.606 210 207 201
89.312 -66.509 982.662 217 217 207
89.812 -71.509 982.841 183 212 230
89.812 -71.009 983.046 162 210 234
89.812 -70.509 983.140 156 211 237
89.812 -70.009 983.148 157 211 240
89.812 -69.509 983.080 159 212 240
89.812 -69.009 982.904 168 209 238
89.812 -68.509 982.755 130 153 178
89.812 -68.009 982.662 104 112 127
89.812 -67.509 982.600 147 147 148
89.812 -67.009 982.595 204 202 196
89.812 -66.509 982.649 215 214 205
90.312 -71.509 982.824 190 211 223
90.312 -71.009 983.063 169 209 232
90.312 -70.509 983.165 162 212 239
90.312 -70.009 983.170 162 212 238
90.312 -69.509 983.109 168 214 242
90.312 -69.009 982.988 172 215 240
90.312 -68.509 982.827 136 166 188
90.312 -68.009 982.669 103 115 130
90.312 -67.509 982.594 136 137 141
90.312 -67.009 982.587 195 195 188
90.312 -66.509 982.628 215 217 205
90.812 -71.509 982.831 190 211 222
90.812 -71.009 983.066 174 214 236
90.812 -70.509 983.167 167 217 244
90.812 -70.009 983.175 168 217 243
90.812 -69.509 983.116 170 218 246
90.812 -69.009 983.052 175 218 243
90.812 -68.509 982.882 147 179 202
90.812 -68.009 982.684 104 118 134
90.812 -67.509 982.598 134 134 141
90.812 -67.009 982.584 196 195 189
90.812 -66.509 982.603 220 221 209
91.312 -71.509 982.818 192 210 219
91.312 -71.009 983.033 173 211 232
91.312 -70.509 983.134 164 214 239
91.312 -70.009 983.152 163 215 240
91.312 -69.509 983.110 164 215 242
91.312 -69.009 983.058 169 214 241
91.312 -68.509 982.873 154 187 213
91.312 -68.009 982.689 104 120 138
91.312 -67.509 982.606 129 131 139
91.312 -67.009 982.584 193 194 189
91.312 -66.509 982.599 221 221 210
91.812 -71.509 982.772 194 208 217
91.812 -71.009 982.974 176 209 230
91.812 -70.509 983.083 162 209 235
91.812 -70.009 983.113 159 212 237
91.812 -69.509 983.099 161 213 240
91.812 -69.009 983.060 166 213 241
91.812 -68.509 982.862 159 195 221
91.812 -68.009 982.686 105 123 144
91.812 -67.509 982.605 119 122 133
91.812 -67.009 982.578 184 184 180
91.812 -66.509 982.596 217 218 207
92.312 -71.009 982.918 179 210 229
92.312 -70.509 983.044 162 211 234
92.312 -70.009 983.088 158 213 239
92.312 -69.509 983.088 158 212 240
92.312 -69.009 983.055 164 214 244
92.312 -68.509 982.870 161 201 228
92.312 -68.009 982.700 110 130 153
92.312 -67.509 982.599 108 116 127
92.312 -67.009 982.560 169 170 168
92.312 -66.509 982.582 210 212 201
92.812 -71.009 982.872 181 211 229
92.812 -70.509 983.018 163 210 235
92.812 -70.009 983.074 157 213 238
92.812 -69.509 983.080 158 214 241
92.812 -69.009 983.050 162 213 243
92.812 -68.509 982.891 164 204 232
92.812 -68.009 982.735 117 138 163
92.812 -67.509 982.605 108 115 129
92.812 -67.009 982.552 167 168 167
92.812 -66.509 982.573 212 213 204
93.312 -71.009 982.822 186 212 227
93.312 -70.509 982.984 164 210 233
93.312 -70.009 983.062 158 213 240
93.312 -69.509 983.074 158 211 242
93.312 -69.009 983.044 160 212 241
93.312 -68.509 982.905 164 208 237
93.312 -68.009 982.762 122 148 175
93.312 -67.509 982.619 107 116 131
93.312 -67.009 982.551 161 161 161
93.312 -66.509 982.564 213 210 200
93.312 -66.009 982.603 213 210 198
93.812 -71.009 982.787 187 211 224
93.812 -70.509 982.985 168 209 233
93.812 -70.009 983.074 159 212 239
93.812 -69.509 983.081 157 210 241
93.812 -69.009 983.037 160 213 241
93.812 -68.509 982.903 168 212 240
93.812 -68.009 982.772 129 158 183
93.812 -67.509 982.642 104 115 131
93.812 -67.009 982.559 155 154 157
93.812 -66.509 982.562 209 206 197
93.812 -66.009 982.600 212 209 198
94.312 -71.009 982.779 191 212 224
94.312 -70.509 982.985 171 212 235
94.312 -70.009 983.092 162 215 241
94.312 -69.509 983.117 162 215 246
94.312 -69.009 983.066 162 216 244
94.312 -68.509 982.927 169 215 241
94.312 -68.009 982.802 140 170 197
94.312 -67.509 982.680 101 115 132
94.312 -67.009 982.584 143 145 148
94.312 -66.509 982.569 205 204 196
94.312 -66.009 982.594 217 214 204
94.812 -71.009 982.798 192 210 222
94.812 -70.509 982.987 173 211 233
94.812 -70.009 983.096 164 214 241
94.812 -69.509 983.143 161 214 245
94.812 -69.009 983.094 160 214 242
94.812 -68.509 982.980 166 214 241
94.812 -68.009 982.859 150 181 208
94.812 -67.509 982.707 102 115 135
94.812 -67.009 982.596 133 135 141
94.812 -66.509 982.572 197 196 190
94.812 -66.009 982.584 211 209 200
95.312 -71.009 982.794 193 208 218
95.312 -70.509 982.977 172 208 231
95.312 -70.009 983.080 163 210 238
95.312 -69.509 983.132 160 211 242
95.312 -69.009 983.111 158 212 240
95.312 -68.509 983.015 163 212 239
95.312 -68.009 982.894 157 191 218
95.312 -67.509 982.724 104 119 141
95.312 -67.009 982.594 122 126 133
95.312 -66.509 982.561 177 179 173
95.312 -66.009 982.573 184 183 173
95.812 -71.009 982.781 193 207 216
95.812 -70.509 982.966 176 209 230
95.812 -70.009 983.070 164 210 237
95.812 -69.509 983.128 161 212 242
95.812 -69.009 983.119 159 213 241
95.812 -68.509 983.037 164 214 241
95.812 -68.009 982.930 162 199 227
95.812 -67.509 982.763 110 127 150
95.812 -67.009 982.604 119 122 133
95.812 -66.509 982.551 174 174 173
95.812 -66.009 982.563 194 194 185
96.312 -71.009 982.765 197 208 215
96.312 -70.509 982.973 183 211 233
96.312 -70.009 983.076 168 214 240
96.312 -69.509 983.123 166 216 246
96.312 -69.009 983.115 166 217 244
96.312 -68.509 983.044 169 218 246
96.312 -68.009 982.967 170 207 235
96.312 -67.509 982.814 119 137 160
96.312 -67.009 982.623 112 117 129
96.312 -66.509 982.543 168 168 166
96.312 -66.009 982.548 211 211 204
96.812 -71.009 982.775 201 205 211
96.812 -70.509 982.994 187 210 227
96.812 -70.009 983.093 171 213 237
96.812 -69.509 983.137 166 217 241
96.812 -69.009 983.123 168 217 242
96.812 -68.509 983.043 171 216 243
96.812 -68.009 982.964 172 211 238
96.812 -67.509 982.829 121 146 168
96.812 -67.009 982.650 107 115 127
96.812 -66.509 982.552 160 156 159
96.812 -66.009 982.549 207 205 197
97.312 -71.009 982.761 203 205 208
97.312 -70.509 982.988 189 210 226
97.312 -70.009 983.085 171 211 234
97.312 -69.509 983.129 164 215 240
97.312 -69.009 983.125 166 215 240
97.312 -68.509 983.035 170 217 243
97.312 -68.009 982.955 172 214 240
97.312 -67.509 982.835 129 156 179
97.312 -67.009 982.665 106 112 128
97.312 -66.509 982.560 150 148 152
97.312 -66.009 982.544 208 204 198
97.812 -71.009 982.687 205 204 206
97.812 -70.509 982.925 190 209 224
97.812 -70.009 983.048 168 208 231
97.812 -69.509 983.110 163 213 239
97.812 -69.009 983.117 164 214 239
97.812 -68.509 983.049 167 214 242
97.812 -68.009 982.954 168 211 239
97.812 -67.509 982.837 136 167 191
97.812 -67.009 982.684 105 115 131
97.812 -66.509 982.569 138 136 142
97.812 -66.009 982.540 200 196 191
97.812 -65.509 982.539 210 203 193
98.312 -71.009 982.643 206 204 205
98.312 -70.509 982.858 193 209 223
98.312 -70.009 983.011 170 208 230
98.312 -69.509 983.086 160 210 236
98.312 -69.009 983.091 160 211 238
98.312 -68.509 983.040 162 213 240
98.312 -68.009 982.915 167 213 241
98.312 -67.509 982.790 146 179 204
98.312 -67.009 982.675 106 118 135
98.312 -66.509 982.564 127 126 133
98.312 -66.009 982.524 186 181 177
98.312 -65.509 982.533 203 196 187
98.812 -71.009 982.618 210 203 204
98.812 -70.509 982.817 194 208 221
98.812 -70.009 982.982 174 210 232
98.812 -69.509 983.057 163 213 238
98.812 -69.009 983.074 162 213 240
98.812 -68.509 983.037 160 214 240
98.812 -68.009 982.919 163 213 242
98.812 -67.509 982.788 159 194 219
98.812 -67.009 982.682 109 122 142
98.812 -66.509 982.580 119 119 127
98.812 -66.009 982.535 179 174 171
98.812 -65.509 982.536 203 198 189
99.312 -70.509 982.806 194 209 219
99.312 -70.009 982.973 179 212 235
99.312 -69.509 983.036 163 214 239
99.312 -69.009 983.056 163 214 241
99.312 -68.509 983.039 161 215 242
99.312 -68.009 982.941 166 217 245
99.312 -67.509 982.813 164 199 226
99.312 -67.009 982.697 115 128 148
99.312 -66.509 982.586 116 116 126
99.312 -66.009 982.539 170 169 167
99.312 -65.509 982.537 209 205 196
99.812 -70.509 982.781 199 208 216
99.812 -70.009 982.965 184 214 231
99.812 -69.509 983.036 166 213 236
99.812 -69.009 983.053 163 214 241
99.812 -68.509 983.046 162 213 242
99.812 -68.009 983.008 168 217 245
99.812 -67.509 982.892 166 204 228
99.812 -67.009 982.741 113 134 154
99.812 -66.509 982.601 107 113 125
99.812 -66.009 982.540 168 167 165
99.812 -65.509 982.534 211 209 199
100.312 -70.509 982.741 201 208 213
100.312 -70.009 982.919 185 214 229
100.312 -69.509 983.017 168 215 238
100.312 -69.009 983.044 167 216 242
100.312 -68.509 983.045 166 214 244
100.312 -68.009 983.031 168 216 244
100.312 -67.509 982.927 169 208 232
100.312 -67.009 982.755 121 143 163
100.312 -66.509 982.595 104 110 125
100.312 -66.009 982.533 161 160 159
100.312 -65.509 982.529 214 211 202
100.812 -70.509 982.705 204 209 213
100.812 -70.009 982.885 188 214 227
100.812 -69.509 983.008 170 214 236
100.812 -69.009 983.054 168 214 239
100.812 -68.509 983.056 168 213 243
100.812 -68.009 983.026 169 216 245
100.812 -67.509 982.925 172 211 236
100.812 -67.009 982.756 132 155 176
100.812 -66.509 982.594 107 115 131
100.812 -66.009 982.531 149 147 149
100.812 -65.509 982.529 207 204 196
101.312 -70.509 982.695 207 209 212
101.312 -70.009 982.857 191 213 225
101.312 -69.509 982.971 175 214 235
101.312 -69.009 983.021 172 215 241
101.312 -68.509 983.031 169 215 244
101.312 -68.009 983.017 170 217 246
101.312 -67.509 982.930 176 215 241
101.312 -67.009 982.763 145 168 191
101.312 -66.509 982.616 106 117 132
101.312 -66.009 982.550 137 137 140
101.312 -65.509 982.540 196 193 185
101.812 -70.509 982.654 210 210 211
101.812 -70.009 982.822 196 213 223
101.812 -69.509 982.954 177 214 234
101.812 -69.009 983.008 172 214 239
101.812 -68.509 983.017 169 215 243
101.812 -68.009 983.006 170 217 246
101.812 -67.509 982.940 179 219 244
101.812 -67.009 982.780 150 179 200
101.812 -66.509 982.658 106 119 136
101.812 -66.009 982.585 128 127 133
101.812 -65.509 982.549 186 183 175
101.812 -65.009 982.534 217 210 197
102.312 -70.509 982.592 212 210 209
102.312 -70.009 982.771 198 210 220
102.312 -69.509 982.945 179 215 234
102.312 -69.009 983.005 170 214 236
102.312 -68.509 983.007 168 215 241
102.312 -68.009 982.984 167 216 244
102.312 -67.509 982.890 172 217 241
102.312 -67.009 982.765 158 188 211
102.312 -66.509 982.661 109 124 143
102.312 -66.009 982.576 119 120 127
102.312 -65.509 982.540 174 171 165
102.312 -65.009 982.538 216 207 193
102.812 -70.009 982.751 199 211 219
102.812 -69.509 982.914 179 215 233
102.812 -69.009 982.953 168 213 235
102.812 -68.509 982.969 163 215 242
102.812 -68.009 982.960 161 216 243
102.812 -67.509 982.880 168 216 241
102.812 -67.009 982.771 163 196 217
102.812 -66.509 982.640 115 131 149
102.812 -66.009 982.526 116 117 124
102.812 -65.509 982.488 168 163 160
102.812 -65.009 982.495 215 206 192
103.312 -70.009 982.710 199 208 216
103.312 -69.509 982.871 177 212 229
103.312 -69.009 982.909 166 212 235
103.312 -68.509 982.936 157 215 242
103.312 -68.009 982.915 157 215 244
103.312 -67.509 982.845 166 214 240
103.312 -67.009 982.749 166 201 222
103.312 -66.509 982.622 121 141 156
103.312 -66.009 982.494 116 117 123
103.312 -65.509 982.431 167 160 159
103.312 -65.009 982.431 216 207 193
103.812 -70.009 982.620 201 207 210
103.812 -69.509 982.795 180 209 225
103.812 -69.009 982.863 168 208 230
103.812 -68.509 982.885 162 210 236
103.812 -68.009 982.866 161 210 238
103.812 -67.509 982.778 167 209 234
103.812 -67.009 982.667 166 196 216
103.812 -66.509 982.577 134 151 164
103.812 -66.009 982.463 134 134 136
103.812 -65.509 982.386 169 161 157
103.812 -65.009 982.397 214 204 191
104.312 -70.009 982.486 208 209 205
104.312 -69.509 982.684 196 210 219
104.312 -69.009 982.779 180 200 213
104.312 -68.509 982.794 167 193 207
104.312 -68.009 982.751 161 189 205
104.312 -67.509 982.697 161 184 197
104.312 -67.009 982.604 168 183 192
104.312 -66.509 982.510 168 174 180
104.312 -66.009 982.406 171 168 165
104.312 -65.509 982.332 192 184 176
104.312 -65.009 982.331 214 201 189
104.812 -70.009 982.327 215 211 202
104.812 -69.509 982.502 211 208 204
104.812 -69.009 982.585 199 199 196
104.812 -68.509 982.638 186 188 187
104.812 -68.009 982.607 180 184 183
104.812 -67.509 982.560 183 184 181
104.812 -67.009 982.526 187 184 181
104.812 -66.509 982.428 186 181 176
104.812 -66.009 982.336 189 184 174
104.812 -65.509 982.282 207 197 187
104.812 -65.009 982.296 222 210 196
105.312 -70.009 982.208 220 212 198
105.312 -69.509 982.334 221 210 198
105.312 -69.009 982.359 215 204 194
105.312 -68.509 982.406 204 195 185
105.312 -68.009 982.463 198 190 179
105.312 -67.509 982.461 197 189 178
105.312 -67.009 982.410 203 192 181
105.312 -66.509 982.307 200 190 178
105.312 -66.009 982.255 200 192 179
105.312 -65.509 982.254 217 205 191
105.312 -65.009 982.282 223 211 197
105.812 -70.009 982.017 223 212 196
105.812 -69.509 982.106 222 212 198
105.812 -69.009 982.148 219 209 196
105.812 -68.509 982.194 211 201 188
105.812 -68.009 982.215 208 199 185
105.812 -67.509 982.185 207 200 186
105.812 -67.009 982.139 214 205 192
105.812 -66.509 982.154 214 207 191
105.812 -66.009 982.178 214 205 189
105.812 -65.509 982.195 222 209 196
105.812 -65.009 982.236 224 212 198
106.312 -69.509 981.949 225 214 196
106.312 -69.009 982.027 222 211 193
106.312 -68.509 982.052 218 207 189
106.312 -68.009 982.040 213 201 186
106.312 -67.509 982.015 215 206 189
106.312 -67.009 982.013 216 207 191
106.312 -66.509 982.042 218 209 195
106.312 -66.009 982.069 218 209 198
106.312 -65.509 982.124 219 211 198
