89.312 -110.509 980.659 230 217 201
89.312 -110.009 980.656 231 218 202
89.312 -109.509 980.621 231 218 202
89.312 -109.009 980.540 231 218 202
89.812 -119.009 980.577 233 219 204
89.812 -118.509 980.558 232 218 202
89.812 -118.009 980.543 231 217 201
89.812 -117.509 980.564 232 218 201
89.812 -117.009 980.616 228 215 198
89.812 -116.509 980.664 228 215 198
89.812 -116.009 980.695 228 215 198
89.812 -115.509 980.713 230 216 199
89.812 -115.009 980.717 230 216 199
89.812 -114.509 980.712 231 217 200
89.812 -114.009 980.707 231 217 201
89.812 -113.509 980.696 231 217 201
89.812 -113.009 980.690 230 216 200
89.812 -112.509 980.690 231 218 202
89.812 -112.009 980.691 231 218 202
89.812 -111.509 980.689 231 218 202
89.812 -111.009 980.686 232 219 204
89.812 -110.509 980.683 231 218 202
89.812 -110.009 980.676 231 218 202
89.812 -109.509 980.660 231 218 202
89.812 -109.009 980.618 231 218 202
90.312 -119.009 980.580 233 219 202
90.312 -118.509 980.560 232 218 201
90.312 -118.009 980.543 231 217 200
90.312 -117.509 980.556 231 217 200
90.312 -117.009 980.601 231 217 200
90.312 -116.509 980.652 230 216 199
90.312 -116.009 980.694 228 215 198
90.312 -115.509 980.724 228 215 198
90.312 -115.009 980.731 228 215 198
90.312 -114.509 980.724 230 216 199
90.312 -114.009 980.714 230 218 200
90.312 -113.509 980.698 230 218 200
90.312 -113.009 980.690 231 219 201
90.312 -112.509 980.696 231 218 202
90.312 -112.009 980.706 231 218 202
90.312 -111.509 980.699 232 219 204
90.312 -111.009 980.684 232 219 204
90.312 -110.509 980.676 232 219 204
90.312 -110.009 980.673 232 219 204
90.312 -109.509 980.670 231 218 202
90.312 -109.009 980.652 231 218 202
90.812 -119.009 980.578 233 219 202
90.812 -118.509 980.560 233 220 204
90.812 -118.009 980.549 230 216 199
90.812 -117.509 980.563 230 216 199
90.812 -117.009 980.595 231 217 200
90.812 -116.509 980.633 231 217 200
90.812 -116.009 980.673 232 218 201
90.812 -115.509 980.716 230 216 199
90.812 -115.009 980.731 230 216 199
90.812 -114.509 980.725 228 216 199
90.812 -114.009 980.716 228 217 199
90.812 -113.509 980.697 231 219 201
90.812 -113.009 980.687 231 219 201
90.812 -112.509 980.696 231 218 202
90.812 -112.009 980.707 231 218 202
90.812 -111.509 980.690 232 219 204
90.812 -111.009 980.660 232 219 204
90.812 -110.509 980.641 232 219 204
90.812 -110.009 980.641 232 219 204
90.812 -109.509 980.653 231 218 202
90.812 -109.009 980.648 231 218 202
86.312 -108.509 980.487 231 218 202
86.812 -108.509 980.487 231 218 202
87.312 -108.509 980.462 231 218 202
87.812 -108.509 980.412 231 218 202
88.312 -108.509 980.377 231 218 202
88.312 -108.009 980.387 230 217 201
88.812 -108.509 980.387 231 218 202
88.812 -108.009 980.361 231 218 202
89.312 -108.509 980.438 231 218 202
89.312 -108.009 980.368 231 218 202
89.812 -108.509 980.529 231 218 202
89.812 -108.009 980.422 231 218 202
90.312 -108.509 980.600 231 218 202
90.312 -108.009 980.496 231 218 202
90.312 -107.509 980.431 231 218 202
90.812 -108.509 980.611 231 218 202
90.812 -108.009 980.540 231 218 202
90.812 -107.509 980.493 232 219 204
91.312 -147.509 980.274 233 221 205
91.312 -147.009 980.265 233 221 205
91.312 -146.509 980.227 233 221 205
91.312 -146.009 980.199 233 221 205
91.312 -145.509 980.189 233 220 205
91.312 -145.009 980.189 233 220 205
91.312 -144.509 980.227 233 221 205
91.312 -144.009 980.251 233 221 205
91.312 -143.509 980.262 233 221 205
91.312 -143.009 980.270 233 221 205
91.312 -142.509 980.270 234 222 206
91.312 -142.009 980.258 234 222 206
91.312 -141.509 980.235 234 222 206
91.812 -147.009 980.273 233 221 205
91.812 -146.509 980.229 233 221 205
91.812 -146.009 980.198 233 221 205
91.812 -145.509 980.202 233 221 205
91.812 -145.009 980.204 233 221 205
91.812 -144.509 980.240 233 221 205
91.812 -144.009 980.253 233 221 205
91.812 -143.509 980.246 234 222 206
91.812 -143.009 980.241 234 222 206
91.812 -142.509 980.244 234 222 206
91.812 -142.009 980.245 234 222 206
91.812 -141.509 980.231 233 221 205
92.312 -146.509 980.231 233 221 205
92.312 -146.009 980.224 233 221 205
92.312 -145.509 980.268 233 221 205
92.312 -145.009 980.263 233 221 205
92.312 -144.509 980.258 233 221 205
92.312 -144.009 980.242 233 221 205
92.312 -143.509 980.227 234 222 206
92.312 -143.009 980.223 234 222 206
92.312 -142.509 980.228 234 222 206
92.312 -142.009 980.235 234 222 206
92.312 -141.509 980.225 234 222 206
92.812 -146.509 980.275 233 221 205
92.812 -146.009 980.303 233 221 205
92.812 -145.509 980.349 233 221 205
92.812 -145.009 980.332 233 221 205
92.812 -144.509 980.299 234 222 206
92.812 -144.009 980.245 234 222 206
92.812 -143.509 980.218 234 222 206
92.812 -143.009 980.216 234 222 206
92.812 -142.509 980.223 234 222 206
92.812 -142.009 980.228 234 222 206
92.812 -141.509 980.207 234 222 206
93.312 -146.509 980.350 233 221 205
93.312 -146.009 980.360 233 221 205
93.312 -145.509 980.375 233 221 205
93.312 -145.009 980.362 233 221 205
93.312 -144.509 980.329 234 222 206
93.312 -144.009 980.258 234 222 206
93.312 -143.509 980.220 234 222 206
93.312 -143.009 980.223 234 222 206
93.312 -142.509 980.235 234 222 206
93.312 -142.009 980.233 234 222 206
93.312 -141.509 980.204 233 221 205
93.812 -146.009 980.346 233 221 205
93.812 -145.509 980.342 233 221 205
93.812 -145.009 980.352 234 222 206
93.812 -144.509 980.337 234 222 206
93.812 -144.009 980.283 234 222 206
93.812 -143.509 980.257 234 222 206
93.812 -143.009 980.260 234 222 206
93.812 -142.509 980.262 234 222 206
93.812 -142.009 980.253 234 222 206
93.812 -141.509 980.226 234 222 206
94.312 -146.009 980.334 233 220 205
94.312 -145.509 980.318 234 222 206
94.312 -145.009 980.330 234 222 206
94.312 -144.509 980.346 234 222 206
94.312 -144.009 980.367 234 222 206
94.312 -143.509 980.401 234 222 206
94.312 -143.009 980.372 234 222 206
94.312 -142.509 980.322 234 222 206
94.312 -142.009 980.297 234 222 206
94.312 -141.509 980.262 234 222 206
94.812 -146.009 980.349 233 221 205
94.812 -145.509 980.331 233 221 205
94.812 -145.009 980.339 233 221 205
94.812 -144.509 980.378 233 221 205
94.812 -144.009 980.465 233 221 205
94.812 -143.509 980.519 233 221 205
94.812 -143.009 980.483 234 222 206
94.812 -142.509 980.411 234 222 206
94.812 -142.009 980.355 234 222 206
94.812 -141.509 980.315 234 222 206
95.312 -145.509 980.364 233 221 205
95.312 -145.009 980.389 233 221 205
95.312 -144.509 980.453 233 221 205
95.312 -144.009 980.527 233 221 205
95.312 -143.509 980.564 233 221 205
95.312 -143.009 980.543 233 221 205
95.312 -142.509 980.487 234 222 206
95.312 -142.009 980.419 233 221 205
95.312 -141.509 980.382 233 221 205
95.812 -145.509 980.393 233 221 205
95.812 -145.009 980.447 233 221 205
95.812 -144.509 980.509 233 221 205
95.812 -144.009 980.569 233 221 205
95.812 -143.509 980.620 233 221 205
95.812 -143.009 980.622 233 220 205
95.812 -142.509 980.566 233 221 205
95.812 -142.009 980.501 233 221 205
95.812 -141.509 980.476 233 220 205
96.312 -145.009 980.477 233 221 205
96.312 -144.509 980.531 233 221 205
96.312 -144.009 980.612 233 221 205
96.312 -143.509 980.666 233 221 205
96.312 -143.009 980.667 233 220 205
96.312 -142.509 980.618 234 222 206
96.312 -142.009 980.560 234 222 206
96.312 -141.509 980.534 233 221 205
96.812 -145.509 980.414 233 220 205
96.812 -145.009 980.465 233 220 205
96.812 -144.509 980.536 233 221 205
96.812 -144.009 980.642 233 221 205
96.812 -143.509 980.701 233 221 205
96.812 -143.009 980.698 233 222 205
96.812 -142.509 980.641 233 222 205
96.812 -142.009 980.587 234 223 205
96.812 -141.509 980.565 233 222 205
97.312 -145.509 980.381 233 220 205
97.312 -145.009 980.428 233 220 205
97.312 -144.509 980.501 233 221 205
97.312 -144.009 980.614 233 221 205
97.312 -143.509 980.705 233 221 205
97.312 -143.009 980.721 233 222 205
97.312 -142.509 980.660 233 222 205
97.312 -142.009 980.611 233 222 205
97.312 -141.509 980.588 234 223 205
97.812 -145.509 980.314 233 220 205
97.812 -145.009 980.358 233 220 205
97.812 -144.509 980.439 233 221 205
97.812 -144.009 980.513 233 221 205
97.812 -143.509 980.620 233 221 205
97.812 -143.009 980.662 233 222 205
97.812 -142.509 980.615 233 222 205
97.812 -142.009 980.572 233 222 205
97.812 -141.509 980.569 234 223 205
98.312 -145.009 980.280 233 220 205
98.312 -144.509 980.328 233 221 205
98.312 -144.009 980.406 233 221 205
98.312 -143.509 980.477 233 221 205
98.312 -143.009 980.492 233 221 205
98.312 -142.509 980.454 233 221 205
98.312 -142.009 980.443 233 221 205
98.312 -141.509 980.487 234 222 206
98.812 -145.009 980.204 233 221 205
98.812 -144.509 980.251 233 221 205
98.812 -144.009 980.305 233 221 205
98.812 -143.509 980.322 233 221 205
98.812 -143.009 980.320 233 221 205
98.812 -142.509 980.309 233 221 205
98.812 -142.009 980.324 233 221 205
98.812 -141.509 980.360 234 222 206
99.312 -145.009 980.195 233 221 205
99.312 -144.509 980.235 233 221 205
99.312 -144.009 980.263 233 221 205
99.312 -143.509 980.259 233 221 205
99.312 -143.009 980.254 233 221 205
99.312 -142.509 980.255 233 221 205
99.312 -142.009 980.274 233 221 205
99.312 -141.509 980.303 234 222 206
99.812 -145.009 980.213 233 221 205
99.812 -144.509 980.236 234 222 206
99.812 -144.009 980.247 234 222 206
99.812 -143.509 980.232 234 222 206
99.812 -143.009 980.213 233 222 205
99.812 -142.509 980.207 233 222 205
99.812 -142.009 980.222 233 222 205
99.812 -141.509 980.256 234 222 206
100.312 -144.509 980.254 234 222 206
100.312 -144.009 980.268 234 222 206
100.312 -143.509 980.221 234 222 206
100.312 -143.009 980.188 233 222 205
100.312 -142.509 980.183 233 222 205
100.312 -142.009 980.200 233 222 205
100.312 -141.509 980.216 234 222 206
100.812 -144.509 980.244 234 222 206
100.812 -144.009 980.267 234 222 206
100.812 -143.509 980.231 234 222 206
100.812 -143.009 980.203 234 223 205
100.812 -142.509 980.207 234 223 205
100.812 -142.009 980.213 234 223 205
100.812 -141.509 980.215 234 222 206
101.312 -144.509 980.281 234 222 206
101.312 -144.009 980.280 234 222 206
101.312 -143.509 980.283 234 222 206
101.312 -143.009 980.269 234 223 205
101.312 -142.509 980.247 234 223 205
101.312 -142.009 980.241 234 223 205
101.312 -141.509 980.243 234 222 206
101.812 -144.509 980.304 234 222 206
101.812 -144.009 980.275 234 222 206
101.812 -143.509 980.311 234 222 206
101.812 -143.009 980.341 234 223 205
101.812 -142.509 980.306 234 223 205
101.812 -142.009 980.283 234 223 205
101.812 -141.509 980.278 234 222 206
91.312 -141.009 980.217 233 221 205
91.312 -140.509 980.226 233 221 205
91.312 -140.009 980.264 233 221 205
91.312 -139.509 980.308 233 221 205
91.312 -139.009 980.329 233 221 205
91.312 -138.509 980.330 233 221 205
91.312 -138.009 980.325 233 221 205
91.312 -137.509 980.323 233 221 205
91.312 -137.009 980.325 233 221 205
91.312 -136.509 980.344 233 221 205
91.312 -136.009 980.386 233 220 205
91.312 -135.509 980.431 233 220 205
91.312 -135.009 980.464 233 220 205
91.312 -134.509 980.478 233 220 205
91.312 -134.009 980.477 233 220 205
91.312 -133.509 980.467 233 220 205
91.312 -133.009 980.451 233 220 205
91.312 -132.509 980.436 233 220 205
91.312 -132.009 980.417 233 220 205
91.312 -131.509 980.397 233 220 205
91.312 -131.009 980.386 233 220 205
91.312 -130.509 980.379 233 220 205
91.812 -141.009 980.220 233 221 205
91.812 -140.509 980.228 233 221 205
91.812 -140.009 980.271 233 221 205
91.812 -139.509 980.321 234 222 206
91.812 -139.009 980.338 234 222 206
91.812 -138.509 980.334 233 221 205
91.812 -138.009 980.323 233 221 205
91.812 -137.509 980.316 233 221 205
91.812 -137.009 980.321 233 221 205
91.812 -136.509 980.344 233 221 205
91.812 -136.009 980.386 233 220 205
91.812 -135.509 980.428 232 219 204
91.812 -135.009 980.460 233 220 205
91.812 -134.509 980.479 233 221 205
91.812 -134.009 980.479 233 220 205
91.812 -133.509 980.461 233 221 205
91.812 -133.009 980.439 233 220 205
91.812 -132.509 980.421 233 220 205
91.812 -132.009 980.405 233 220 205
91.812 -131.509 980.392 233 220 205
91.812 -131.009 980.387 233 221 205
91.812 -130.509 980.386 233 221 205
92.312 -141.009 980.214 234 222 206
92.312 -140.509 980.220 233 221 205
92.312 -140.009 980.256 233 221 205
92.312 -139.509 980.309 234 222 206
92.312 -139.009 980.336 234 222 206
92.312 -138.509 980.330 233 221 205
92.312 -138.009 980.306 233 221 205
92.312 -137.509 980.289 233 221 205
92.312 -137.009 980.302 233 221 205
92.312 -136.509 980.342 233 221 205
92.312 -136.009 980.382 233 220 205
92.312 -135.509 980.404 233 220 205
92.312 -135.009 980.428 233 220 205
92.312 -134.509 980.451 233 221 205
92.312 -134.009 980.454 233 220 205
92.312 -133.509 980.439 233 221 205
92.312 -133.009 980.417 233 220 205
92.312 -132.509 980.397 233 220 205
92.312 -132.009 980.383 233 220 205
92.312 -131.509 980.379 233 220 205
92.312 -131.009 980.387 233 220 205
92.312 -130.509 980.397 233 221 205
92.812 -141.009 980.195 233 221 205
92.812 -140.509 980.217 233 221 205
92.812 -140.009 980.261 233 221 205
92.812 -139.509 980.312 233 221 205
92.812 -139.009 980.333 233 221 205
92.812 -138.509 980.314 234 222 206
92.812 -138.009 980.280 234 222 206
92.812 -137.509 980.255 233 221 205
92.812 -137.009 980.262 233 221 205
92.812 -136.509 980.306 233 221 205
92.812 -136.009 980.350 233 221 205
92.812 -135.509 980.365 233 221 205
92.812 -135.009 980.378 233 220 205
92.812 -134.509 980.406 233 221 205
92.812 -134.009 980.423 233 221 205
92.812 -133.509 980.414 233 221 205
92.812 -133.009 980.396 233 221 205
92.812 -132.509 980.382 233 221 205
92.812 -132.009 980.371 233 220 205
92.812 -131.509 980.377 233 220 205
92.812 -131.009 980.396 233 220 205
92.812 -130.509 980.416 233 220 205
93.312 -141.009 980.202 233 221 205
93.312 -140.509 980.235 233 221 205
93.312 -140.009 980.280 233 221 205
93.312 -139.509 980.322 233 221 205
93.312 -139.009 980.332 233 221 205
93.312 -138.509 980.309 233 221 205
93.312 -138.009 980.273 234 222 206
93.312 -137.509 980.242 233 221 205
93.312 -137.009 980.232 233 220 205
93.312 -136.509 980.265 233 221 205
93.312 -136.009 980.316 233 221 205
93.312 -135.509 980.338 233 221 205
93.312 -135.009 980.350 233 220 205
93.312 -134.509 980.377 233 221 205
93.312 -134.009 980.396 233 221 205
93.312 -133.509 980.393 233 221 205
93.312 -133.009 980.383 233 221 205
93.312 -132.509 980.373 233 221 205
93.312 -132.009 980.369 233 220 205
93.312 -131.509 980.382 233 220 205
93.312 -131.009 980.407 233 220 205
93.312 -130.509 980.433 233 220 205
93.812 -141.009 980.230 234 222 206
93.812 -140.509 980.261 234 222 206
93.812 -140.009 980.295 233 221 205
93.812 -139.509 980.327 233 221 205
93.812 -139.009 980.342 233 221 205
93.812 -138.509 980.331 233 221 205
93.812 -138.009 980.298 234 222 206
93.812 -137.509 980.258 234 222 206
93.812 -137.009 980.237 233 221 205
93.812 -136.509 980.252 233 221 205
93.812 -136.009 980.286 233 221 205
93.812 -135.509 980.311 233 221 205
93.812 -135.009 980.337 233 221 205
93.812 -134.509 980.371 233 221 205
93.812 -134.009 980.393 233 221 205
93.812 -133.509 980.391 233 221 205
93.812 -133.009 980.373 233 221 205
93.812 -132.509 980.359 233 221 205
93.812 -132.009 980.366 233 220 205
93.812 -131.509 980.390 233 220 205
93.812 -131.009 980.419 233 220 205
93.812 -130.509 980.446 233 220 205
94.312 -141.009 980.254 234 222 206
94.312 -140.509 980.278 234 222 206
94.312 -140.009 980.307 234 222 206
94.312 -139.509 980.347 233 221 205
94.312 -139.009 980.381 233 221 205
94.312 -138.509 980.378 233 221 205
94.312 -138.009 980.341 234 222 206
94.312 -137.509 980.295 234 222 206
94.312 -137.009 980.265 233 221 205
94.312 -136.509 980.260 234 222 206
94.312 -136.009 980.279 233 221 205
94.312 -135.509 980.305 233 221 205
94.312 -135.009 980.346 233 221 205
94.312 -134.509 980.390 233 221 205
94.312 -134.009 980.407 233 221 205
94.312 -133.509 980.392 233 221 205
94.312 -133.009 980.361 233 221 205
94.312 -132.509 980.346 233 221 205
94.312 -132.009 980.357 233 220 205
94.312 -131.509 980.383 233 220 205
94.312 -131.009 980.414 233 220 205
94.312 -130.509 980.446 232 219 204
94.812 -141.009 980.295 234 222 206
94.812 -140.509 980.306 233 221 205
94.812 -140.009 980.352 233 221 205
94.812 -139.509 980.419 233 221 205
94.812 -139.009 980.455 233 221 205
94.812 -138.509 980.426 233 221 205
94.812 -138.009 980.373 234 222 206
94.812 -137.509 980.318 234 222 206
94.812 -137.009 980.288 234 222 206
94.812 -136.509 980.287 233 221 205
94.812 -136.009 980.302 233 221 205
94.812 -135.509 980.334 233 221 205
94.812 -135.009 980.385 233 221 205
94.812 -134.509 980.421 233 221 205
94.812 -134.009 980.428 233 221 205
94.812 -133.509 980.406 233 221 205
94.812 -133.009 980.372 233 221 205
94.812 -132.509 980.354 233 221 205
94.812 -132.009 980.365 233 220 205
94.812 -131.509 980.392 233 220 205
94.812 -131.009 980.418 233 220 205
94.812 -130.509 980.456 232 219 204
95.312 -141.009 980.363 233 221 205
95.312 -140.509 980.381 234 222 206
95.312 -140.009 980.460 233 221 205
95.312 -139.509 980.515 233 221 205
95.312 -139.009 980.508 234 222 206
95.312 -138.509 980.455 234 222 206
95.312 -138.009 980.397 234 222 206
95.312 -137.509 980.336 234 222 206
95.312 -137.009 980.300 234 222 206
95.312 -136.509 980.299 234 222 206
95.312 -136.009 980.314 233 221 205
95.312 -135.509 980.342 234 222 206
95.312 -135.009 980.386 233 221 205
95.312 -134.509 980.424 233 221 205
95.312 -134.009 980.444 233 221 205
95.312 -133.509 980.444 233 221 205
95.312 -133.009 980.432 234 222 206
95.312 -132.509 980.408 234 222 206
95.312 -132.009 980.404 233 220 205
95.312 -131.509 980.427 233 221 205
95.312 -131.009 980.447 233 221 205
95.312 -130.509 980.479 233 220 205
95.812 -141.009 980.484 233 221 205
95.812 -140.509 980.515 234 222 206
95.812 -140.009 980.577 234 222 206
95.812 -139.509 980.603 234 222 206
95.812 -139.009 980.570 234 222 206
95.812 -138.509 980.500 234 222 206
95.812 -138.009 980.427 234 222 206
95.812 -137.509 980.367 234 222 206
95.812 -137.009 980.326 234 222 206
95.812 -136.509 980.316 234 222 206
95.812 -136.009 980.324 234 222 206
95.812 -135.509 980.334 233 221 205
95.812 -135.009 980.348 233 221 205
95.812 -134.509 980.382 233 221 205
95.812 -134.009 980.438 233 221 205
95.812 -133.509 980.483 233 221 205
95.812 -133.009 980.499 234 222 206
95.812 -132.509 980.503 234 222 206
95.812 -132.009 980.514 233 220 205
95.812 -131.509 980.522 233 221 205
95.812 -131.009 980.516 233 221 205
95.812 -130.509 980.516 233 220 205
96.312 -141.009 980.543 233 221 205
96.312 -140.509 980.567 233 221 205
96.312 -140.009 980.608 233 221 205
96.312 -139.509 980.631 234 222 206
96.312 -139.009 980.597 234 222 206
96.312 -138.509 980.514 234 222 206
96.312 -138.009 980.449 234 222 206
96.312 -137.509 980.412 234 222 206
96.312 -137.009 980.370 234 222 206
96.312 -136.509 980.341 233 221 205
96.312 -136.009 980.337 234 222 206
96.312 -135.509 980.338 233 221 205
96.312 -135.009 980.325 233 221 205
96.312 -134.509 980.330 233 221 205
96.312 -134.009 980.383 233 221 205
96.312 -133.509 980.456 233 221 205
96.312 -133.009 980.513 234 222 206
96.312 -132.509 980.540 234 222 206
96.312 -132.009 980.558 233 220 205
96.312 -131.509 980.566 233 221 205
96.312 -131.009 980.550 233 221 205
96.312 -130.509 980.533 233 220 205
96.812 -141.009 980.565 233 222 205
96.812 -140.509 980.567 233 222 205
96.812 -140.009 980.572 233 222 205
96.812 -139.509 980.577 234 222 206
96.812 -139.009 980.554 234 222 206
96.812 -138.509 980.502 234 222 206
96.812 -138.009 980.475 234 222 206
96.812 -137.509 980.460 234 222 206
96.812 -137.009 980.430 234 222 206
96.812 -136.509 980.406 233 221 205
96.812 -136.009 980.391 234 222 206
96.812 -135.509 980.371 234 222 206
96.812 -135.009 980.336 233 221 205
96.812 -134.509 980.315 233 221 205
96.812 -134.009 980.336 233 221 205
96.812 -133.509 980.405 234 222 206
96.812 -133.009 980.482 233 221 205
96.812 -132.509 980.519 233 221 205
96.812 -132.009 980.537 233 221 205
96.812 -131.509 980.541 233 221 205
96.812 -131.009 980.523 233 221 205
96.812 -130.509 980.507 233 221 205
97.312 -141.009 980.575 234 223 205
97.312 -140.509 980.552 234 223 205
97.312 -140.009 980.505 234 222 205
97.312 -139.509 980.457 234 222 206
97.312 -139.009 980.434 234 222 206
97.312 -138.509 980.443 234 222 206
97.312 -138.009 980.468 234 222 206
97.312 -137.509 980.479 234 222 206
97.312 -137.009 980.483 234 222 206
97.312 -136.509 980.496 234 222 206
97.312 -136.009 980.483 234 222 206
97.312 -135.509 980.435 234 222 206
97.312 -135.009 980.369 234 222 206
97.312 -134.509 980.315 234 222 206
97.312 -134.009 980.313 234 222 206
97.312 -133.509 980.354 234 222 206
97.312 -133.009 980.424 233 221 205
97.312 -132.509 980.492 233 221 205
97.312 -132.009 980.525 234 222 206
97.312 -131.509 980.517 234 222 206
97.312 -131.009 980.497 234 222 206
97.312 -130.509 980.486 233 221 205
97.812 -141.009 980.557 234 223 205
97.812 -140.509 980.509 234 223 205
97.812 -140.009 980.432 234 222 205
97.812 -139.509 980.372 234 222 206
97.812 -139.009 980.366 234 222 206
97.812 -138.509 980.403 234 222 206
97.812 -138.009 980.447 234 222 206
97.812 -137.509 980.470 234 222 206
97.812 -137.009 980.492 234 222 206
97.812 -136.509 980.529 234 222 206
97.812 -136.009 980.540 233 221 205
97.812 -135.509 980.505 233 221 205
97.812 -135.009 980.426 234 222 206
97.812 -134.509 980.343 234 222 206
97.812 -134.009 980.310 234 222 206
97.812 -133.509 980.328 235 223 207
97.812 -133.009 980.394 233 221 205
97.812 -132.509 980.477 233 221 205
97.812 -132.009 980.532 233 221 205
97.812 -131.509 980.531 234 222 206
97.812 -131.009 980.501 234 222 206
97.812 -130.509 980.481 234 222 206
98.312 -141.009 980.482 234 222 206
98.312 -140.509 980.443 234 222 206
98.312 -140.009 980.386 234 222 206
98.312 -139.509 980.344 234 222 206
98.312 -139.009 980.346 234 222 206
98.312 -138.509 980.375 234 222 206
98.312 -138.009 980.406 234 222 206
98.312 -137.509 980.421 234 222 206
98.312 -137.009 980.440 234 222 206
98.312 -136.509 980.488 234 222 206
98.312 -136.009 980.538 233 221 205
98.312 -135.509 980.568 233 221 205
98.312 -135.009 980.540 234 222 206
98.312 -134.509 980.451 234 222 206
98.312 -134.009 980.364 234 222 206
98.312 -133.509 980.336 234 223 205
98.312 -133.009 980.356 234 223 205
98.312 -132.509 980.423 234 223 205
98.312 -132.009 980.506 234 223 205
98.312 -131.509 980.534 234 223 205
98.312 -131.009 980.507 234 223 205
98.312 -130.509 980.476 233 222 205
98.812 -141.009 980.371 234 222 206
98.812 -140.509 980.366 234 222 206
98.812 -140.009 980.337 234 222 206
98.812 -139.509 980.319 234 222 206
98.812 -139.009 980.329 234 222 206
98.812 -138.509 980.354 234 222 206
98.812 -138.009 980.383 234 222 206
98.812 -137.509 980.395 234 222 206
98.812 -137.009 980.406 234 222 206
98.812 -136.509 980.428 234 222 206
98.812 -136.009 980.480 233 221 205
98.812 -135.509 980.560 233 221 205
98.812 -135.009 980.605 233 221 205
98.812 -134.509 980.551 234 222 206
98.812 -134.009 980.436 234 222 206
98.812 -133.509 980.355 234 223 205
98.812 -133.009 980.324 234 223 205
98.812 -132.509 980.341 234 223 205
98.812 -132.009 980.406 233 222 205
98.812 -131.509 980.452 233 222 205
98.812 -131.009 980.455 234 223 205
98.812 -130.509 980.451 234 222 205
99.312 -141.009 980.320 234 222 206
99.312 -140.509 980.325 234 222 206
99.312 -140.009 980.295 234 222 206
99.312 -139.509 980.276 234 222 206
99.312 -139.009 980.311 234 222 206
99.312 -138.509 980.355 234 222 206
99.312 -138.009 980.383 234 222 206
99.312 -137.509 980.392 234 222 206
99.312 -137.009 980.393 234 222 206
99.312 -136.509 980.399 234 222 206
99.312 -136.009 980.438 233 221 205
99.312 -135.509 980.518 233 221 205
99.312 -135.009 980.590 233 221 205
99.312 -134.509 980.597 233 221 205
99.312 -134.009 980.510 234 222 206
99.312 -133.509 980.386 234 223 205
99.312 -133.009 980.316 234 223 205
99.312 -132.509 980.300 234 223 205
99.312 -132.009 980.328 233 222 205
99.312 -131.509 980.379 233 222 205
99.312 -131.009 980.417 234 223 205
99.312 -130.509 980.432 234 222 205
99.812 -141.009 980.278 234 222 206
99.812 -140.509 980.279 234 222 206
99.812 -140.009 980.256 234 222 206
99.812 -139.509 980.258 234 222 206
99.812 -139.009 980.307 234 222 206
99.812 -138.509 980.356 234 222 206
99.812 -138.009 980.386 234 222 206
99.812 -137.509 980.393 234 222 206
99.812 -137.009 980.390 234 222 206
99.812 -136.509 980.404 234 222 206
99.812 -136.009 980.447 234 222 206
99.812 -135.509 980.493 234 222 206
99.812 -135.009 980.535 233 221 205
99.812 -134.509 980.558 233 221 205
99.812 -134.009 980.516 234 222 206
99.812 -133.509 980.412 234 222 206
99.812 -133.009 980.309 234 222 206
99.812 -132.509 980.258 234 222 206
99.812 -132.009 980.267 233 221 205
99.812 -131.509 980.316 233 221 205
99.812 -131.009 980.361 233 221 205
99.812 -130.509 980.386 233 221 205
100.312 -141.009 980.231 234 222 206
100.312 -140.509 980.255 234 222 206
100.312 -140.009 980.254 234 222 206
100.312 -139.509 980.261 234 222 206
100.312 -139.009 980.307 234 222 206
100.312 -138.509 980.357 234 222 206
100.312 -138.009 980.388 234 222 206
100.312 -137.509 980.395 234 222 206
100.312 -137.009 980.392 234 222 206
100.312 -136.509 980.395 234 222 206
100.312 -136.009 980.421 234 222 206
100.312 -135.509 980.458 234 222 206
100.312 -135.009 980.491 233 221 205
100.312 -134.509 980.522 233 221 205
100.312 -134.009 980.533 233 221 205
100.312 -133.509 980.454 234 222 206
100.312 -133.009 980.321 234 222 206
100.312 -132.509 980.249 234 222 206
100.312 -132.009 980.242 233 221 205
100.312 -131.509 980.267 233 221 205
100.312 -131.009 980.297 233 221 205
100.312 -130.509 980.324 233 221 205
100.812 -141.009 980.228 234 222 206
100.812 -140.509 980.250 234 222 206
100.812 -140.009 980.256 234 222 206
100.812 -139.509 980.265 234 222 206
100.812 -139.009 980.309 234 222 206
100.812 -138.509 980.365 234 222 206
100.812 -138.009 980.395 234 222 206
100.812 -137.509 980.401 234 222 206
100.812 -137.009 980.398 234 222 206
100.812 -136.509 980.393 234 222 206
100.812 -136.009 980.395 234 222 206
100.812 -135.509 980.411 234 222 206
100.812 -135.009 980.441 234 222 206
100.812 -134.509 980.480 233 221 205
100.812 -134.009 980.509 233 221 205
100.812 -133.509 980.445 234 222 206
100.812 -133.009 980.322 234 222 206
100.812 -132.509 980.251 234 222 206
100.812 -132.009 980.230 234 222 206
100.812 -131.509 980.235 234 222 206
100.812 -131.009 980.250 234 222 206
100.812 -130.509 980.273 233 221 205
101.312 -141.009 980.254 234 222 206
101.312 -140.509 980.258 234 222 206
101.312 -140.009 980.251 234 222 206
101.312 -139.509 980.254 234 222 206
101.312 -139.009 980.293 234 222 206
101.312 -138.509 980.357 234 222 206
101.312 -138.009 980.400 234 222 206
101.312 -137.509 980.416 234 222 206
101.312 -137.009 980.412 234 222 206
101.312 -136.509 980.392 234 222 206
101.312 -136.009 980.373 234 222 206
101.312 -135.509 980.369 234 222 206
101.312 -135.009 980.388 233 221 205
101.312 -134.509 980.416 233 221 205
101.312 -134.009 980.426 233 221 205
101.312 -133.509 980.382 234 222 206
101.312 -133.009 980.307 234 222 206
101.312 -132.509 980.247 234 222 206
101.312 -132.009 980.213 233 221 205
101.312 -131.509 980.203 233 221 205
101.312 -131.009 980.211 233 221 205
101.312 -130.509 980.208 233 221 205
101.812 -141.009 980.268 234 222 206
101.812 -140.509 980.247 234 222 206
101.812 -140.009 980.218 234 222 206
101.812 -139.509 980.213 234 222 206
101.812 -139.009 980.251 234 222 206
101.812 -138.509 980.317 234 222 206
101.812 -138.009 980.370 234 222 206
101.812 -137.509 980.406 233 221 205
101.812 -137.009 980.408 234 222 206
101.812 -136.509 980.372 234 222 206
101.812 -136.009 980.346 234 222 206
101.812 -135.509 980.338 234 222 206
101.812 -135.009 980.345 233 221 205
101.812 -134.509 980.365 233 221 205
101.812 -134.009 980.368 233 221 205
101.812 -133.509 980.339 234 222 206
101.812 -133.009 980.291 234 222 206
101.812 -132.509 980.228 234 222 206
101.812 -132.009 980.185 234 222 206
101.812 -131.509 980.175 234 222 206
101.812 -131.009 980.183 234 222 206
101.812 -130.509 980.168 234 222 206
91.312 -130.009 980.397 233 220 206
91.312 -129.509 980.437 231 218 205
91.312 -129.009 980.472 231 218 205
91.312 -128.509 980.483 233 220 206
91.312 -128.009 980.469 233 220 206
91.312 -127.509 980.428 233 220 206
91.312 -127.009 980.395 232 219 204
91.312 -126.509 980.401 230 217 201
91.312 -126.009 980.419 230 217 201
91.312 -125.509 980.439 228 216 200
91.312 -125.009 980.485 230 217 201
91.312 -124.509 980.517 228 216 200
91.312 -124.009 980.526 228 216 200
91.312 -123.509 980.534 228 216 200
91.312 -123.009 980.555 227 215 199
91.312 -122.509 980.570 227 215 199
91.312 -122.009 980.581 227 216 198
91.312 -121.509 980.590 227 216 198
91.312 -121.009 980.580 227 216 198
91.312 -120.509 980.581 230 216 199
91.312 -120.009 980.593 230 216 199
91.312 -119.509 980.592 231 217 200
91.812 -130.009 980.404 233 220 206
91.812 -129.509 980.433 232 219 205
91.812 -129.009 980.465 232 219 205
91.812 -128.509 980.497 232 219 205
91.812 -128.009 980.504 233 221 207
91.812 -127.509 980.481 233 220 206
91.812 -127.009 980.451 233 220 205
91.812 -126.509 980.441 231 218 202
91.812 -126.009 980.463 230 217 201
91.812 -125.509 980.498 228 216 200
91.812 -125.009 980.541 228 216 200
91.812 -124.509 980.562 227 215 199
91.812 -124.009 980.562 227 215 199
91.812 -123.509 980.553 227 215 199
91.812 -123.009 980.555 227 215 199
91.812 -122.509 980.571 227 215 198
91.812 -122.009 980.583 226 215 197
91.812 -121.509 980.589 226 215 197
91.812 -121.009 980.584 227 216 198
91.812 -120.509 980.575 230 216 199
91.812 -120.009 980.583 230 216 199
91.812 -119.509 980.584 231 217 200
92.312 -130.009 980.417 233 220 206
92.312 -129.509 980.439 232 219 205
92.312 -129.009 980.469 232 219 205
92.312 -128.509 980.508 232 219 205
92.312 -128.009 980.524 233 220 206
92.312 -127.509 980.519 233 220 206
92.312 -127.009 980.500 232 219 204
92.312 -126.509 980.485 231 218 202
92.312 -126.009 980.507 230 217 201
92.312 -125.509 980.547 228 216 200
92.312 -125.009 980.584 227 215 199
92.312 -124.509 980.591 227 215 199
92.312 -124.009 980.583 228 216 200
92.312 -123.509 980.573 228 216 200
92.312 -123.009 980.566 227 215 199
92.312 -122.509 980.576 226 215 198
92.312 -122.009 980.586 226 215 197
92.312 -121.509 980.602 226 215 197
92.312 -121.009 980.608 227 216 198
92.312 -120.509 980.587 231 217 200
92.312 -120.009 980.586 231 217 200
92.312 -119.509 980.582 232 218 201
92.812 -130.009 980.445 233 220 206
92.812 -129.509 980.468 232 219 205
92.812 -129.009 980.494 232 219 205
92.812 -128.509 980.533 232 219 205
92.812 -128.009 980.548 233 220 206
92.812 -127.509 980.550 232 219 205
92.812 -127.009 980.536 231 218 202
92.812 -126.509 980.522 230 217 201
92.812 -126.009 980.540 230 217 201
92.812 -125.509 980.581 230 217 201
92.812 -125.009 980.614 228 216 200
92.812 -124.509 980.616 228 216 200
92.812 -124.009 980.610 230 217 201
92.812 -123.509 980.595 230 217 201
92.812 -123.009 980.584 230 217 201
92.812 -122.509 980.584 230 217 201
92.812 -122.009 980.588 228 217 199
92.812 -121.509 980.613 228 217 199
92.812 -121.009 980.623 230 218 200
92.812 -120.509 980.606 232 218 201
92.812 -120.009 980.598 232 218 201
92.812 -119.509 980.582 232 218 201
93.312 -130.009 980.464 232 219 204
93.312 -129.509 980.490 232 219 204
93.312 -129.009 980.518 232 219 204
93.312 -128.509 980.559 232 219 204
93.312 -128.009 980.576 233 220 205
93.312 -127.509 980.573 232 219 204
93.312 -127.009 980.559 231 218 202
93.312 -126.509 980.553 230 217 201
93.312 -126.009 980.567 230 217 201
93.312 -125.509 980.602 230 217 201
93.312 -125.009 980.631 230 217 201
93.312 -124.509 980.637 230 217 201
93.312 -124.009 980.630 230 217 201
93.312 -123.509 980.608 231 218 202
93.312 -123.009 980.596 231 218 202
93.312 -122.509 980.589 231 218 202
93.312 -122.009 980.589 231 218 201
93.312 -121.509 980.619 231 218 201
93.312 -121.009 980.635 231 218 201
93.312 -120.509 980.625 231 219 201
93.312 -120.009 980.614 231 219 201
93.312 -119.509 980.601 232 219 201
93.812 -130.009 980.473 232 219 204
93.812 -129.509 980.506 232 219 204
93.812 -129.009 980.540 232 219 204
93.812 -128.509 980.574 231 218 202
93.812 -128.009 980.589 231 218 202
93.812 -127.509 980.582 231 218 202
93.812 -127.009 980.562 231 218 202
93.812 -126.509 980.562 231 218 202
93.812 -126.009 980.577 231 218 202
93.812 -125.509 980.604 230 217 201
93.812 -125.009 980.631 230 217 201
93.812 -124.509 980.641 230 217 201
93.812 -124.009 980.632 230 217 201
93.812 -123.509 980.610 232 219 204
93.812 -123.009 980.596 232 219 204
93.812 -122.509 980.577 231 218 202
93.812 -122.009 980.578 231 218 202
93.812 -121.509 980.606 231 218 202
93.812 -121.009 980.621 231 218 202
93.812 -120.509 980.630 231 219 201
93.812 -120.009 980.629 231 219 201
93.812 -119.509 980.622 232 220 202
94.312 -130.009 980.480 232 219 204
94.312 -129.509 980.516 232 219 204
94.312 -129.009 980.549 232 219 204
94.312 -128.509 980.576 230 217 201
94.312 -128.009 980.586 231 218 202
94.312 -127.509 980.579 232 219 204
94.312 -127.009 980.567 231 218 202
94.312 -126.509 980.565 231 218 202
94.312 -126.009 980.572 231 218 202
94.312 -125.509 980.585 230 217 201
94.312 -125.009 980.611 230 217 201
94.312 -124.509 980.623 230 217 201
94.312 -124.009 980.619 230 217 201
94.312 -123.509 980.604 232 219 204
94.312 -123.009 980.587 232 219 204
94.312 -122.509 980.568 231 218 202
94.312 -122.009 980.563 231 218 202
94.312 -121.509 980.583 231 218 202
94.312 -121.009 980.603 231 218 202
94.312 -120.509 980.628 231 219 201
94.312 -120.009 980.639 231 219 201
94.312 -119.509 980.635 232 220 202
94.812 -130.009 980.492 232 219 204
94.812 -129.509 980.514 232 219 204
94.812 -129.009 980.536 232 219 204
94.812 -128.509 980.560 228 216 200
94.812 -128.009 980.571 230 217 201
94.812 -127.509 980.562 231 218 202
94.812 -127.009 980.548 230 217 201
94.812 -126.509 980.539 231 218 202
94.812 -126.009 980.539 231 218 202
94.812 -125.509 980.548 230 217 201
94.812 -125.009 980.579 231 218 202
94.812 -124.509 980.593 230 217 201
94.812 -124.009 980.591 231 218 202
94.812 -123.509 980.587 232 219 204
94.812 -123.009 980.574 232 219 204
94.812 -122.509 980.563 231 218 202
94.812 -122.009 980.568 231 218 202
94.812 -121.509 980.586 231 218 202
94.812 -121.009 980.614 231 218 202
94.812 -120.509 980.636 231 219 202
94.812 -120.009 980.641 232 219 202
94.812 -119.509 980.636 232 220 202
95.312 -130.009 980.503 233 220 205
95.312 -129.509 980.513 232 219 204
95.312 -129.009 980.518 232 219 204
95.312 -128.509 980.532 230 217 201
95.312 -128.009 980.541 231 218 202
95.312 -127.509 980.537 231 218 202
95.312 -127.009 980.523 231 218 202
95.312 -126.509 980.511 231 218 202
95.312 -126.009 980.510 231 218 202
95.312 -125.509 980.524 231 218 202
95.312 -125.009 980.557 231 218 202
95.312 -124.509 980.577 231 218 202
95.312 -124.009 980.575 231 218 202
95.312 -123.509 980.570 232 219 204
95.312 -123.009 980.561 232 219 204
95.312 -122.509 980.559 232 219 204
95.312 -122.009 980.571 232 219 204
95.312 -121.509 980.593 232 219 204
95.312 -121.009 980.619 232 219 204
95.312 -120.509 980.634 233 220 205
95.312 -120.009 980.637 233 220 205
95.312 -119.509 980.630 233 220 205
95.812 -130.009 980.512 233 220 205
95.812 -129.509 980.512 233 220 205
95.812 -129.009 980.507 233 220 205
95.812 -128.509 980.510 231 218 202
95.812 -128.009 980.508 231 218 202
95.812 -127.509 980.498 231 218 202
95.812 -127.009 980.490 231 218 202
95.812 -126.509 980.483 230 217 201
95.812 -126.009 980.487 230 217 201
95.812 -125.509 980.495 230 217 201
95.812 -125.009 980.529 230 217 201
95.812 -124.509 980.561 230 217 201
95.812 -124.009 980.564 230 217 201
95.812 -123.509 980.560 231 218 202
95.812 -123.009 980.553 232 219 204
95.812 -122.509 980.554 232 219 204
95.812 -122.009 980.574 232 219 204
95.812 -121.509 980.604 232 219 204
95.812 -121.009 980.621 233 220 205
95.812 -120.509 980.625 233 220 205
95.812 -120.009 980.625 232 219 204
95.812 -119.509 980.618 232 219 204
96.312 -130.009 980.514 233 220 205
96.312 -129.509 980.505 233 220 205
96.312 -129.009 980.487 233 220 205
96.312 -128.509 980.484 231 218 202
96.312 -128.009 980.470 227 215 199
96.312 -127.509 980.456 230 217 201
96.312 -127.009 980.455 230 217 201
96.312 -126.509 980.456 228 216 200
96.312 -126.009 980.469 228 216 200
96.312 -125.509 980.481 230 217 201
96.312 -125.009 980.514 230 217 201
96.312 -124.509 980.543 230 217 201
96.312 -124.009 980.550 230 217 201
96.312 -123.509 980.551 231 218 202
96.312 -123.009 980.539 232 219 204
96.312 -122.509 980.542 232 219 204
96.312 -122.009 980.564 231 218 202
96.312 -121.509 980.597 231 218 202
96.312 -121.009 980.614 232 219 204
96.312 -120.509 980.616 233 220 205
96.312 -120.009 980.612 232 219 204
96.312 -119.509 980.611 231 218 202
96.812 -130.009 980.495 233 221 205
96.812 -129.509 980.476 233 221 205
96.812 -129.009 980.446 233 220 205
96.812 -128.509 980.425 231 218 202
96.812 -128.009 980.414 226 214 198
96.812 -127.509 980.420 228 216 200
96.812 -127.009 980.427 228 216 200
96.812 -126.509 980.432 228 216 200
96.812 -126.009 980.441 228 216 200
96.812 -125.509 980.461 228 216 200
96.812 -125.009 980.497 228 216 200
96.812 -124.509 980.519 230 217 201
96.812 -124.009 980.522 230 217 204
96.812 -123.509 980.521 231 218 205
96.812 -123.009 980.521 232 219 205
96.812 -122.509 980.527 232 219 204
96.812 -122.009 980.546 230 217 201
96.812 -121.509 980.579 230 217 201
96.812 -121.009 980.604 231 218 202
96.812 -120.509 980.616 232 219 204
96.812 -120.009 980.620 232 219 204
96.812 -119.509 980.620 232 219 204
97.312 -130.009 980.480 233 221 205
97.312 -129.509 980.446 233 221 205
97.312 -129.009 980.388 233 221 205
97.312 -128.509 980.358 231 218 202
97.312 -128.009 980.361 228 216 200
97.312 -127.509 980.383 227 215 199
97.312 -127.009 980.390 228 216 200
97.312 -126.509 980.386 228 216 200
97.312 -126.009 980.398 228 216 200
97.312 -125.509 980.428 228 216 200
97.312 -125.009 980.465 228 216 200
97.312 -124.509 980.485 230 217 201
97.312 -124.009 980.488 231 218 204
97.312 -123.509 980.495 231 218 205
97.312 -123.009 980.503 232 219 205
97.312 -122.509 980.513 232 219 204
97.312 -122.009 980.527 230 217 201
97.312 -121.509 980.556 227 215 199
97.312 -121.009 980.589 230 217 201
97.312 -120.509 980.612 232 219 204
97.312 -120.009 980.623 232 219 204
97.312 -119.509 980.626 232 219 204
97.812 -130.009 980.467 233 221 205
97.812 -129.509 980.410 233 221 205
97.812 -129.009 980.349 233 221 205
97.812 -128.509 980.328 231 218 202
97.812 -128.009 980.328 230 217 201
97.812 -127.509 980.353 227 215 199
97.812 -127.009 980.371 230 217 201
97.812 -126.509 980.372 230 217 201
97.812 -126.009 980.382 230 217 201
97.812 -125.509 980.406 228 216 200
97.812 -125.009 980.430 230 217 201
97.812 -124.509 980.456 231 218 202
97.812 -124.009 980.469 231 218 205
97.812 -123.509 980.472 232 219 205
97.812 -123.009 980.474 232 219 205
97.812 -122.509 980.483 232 219 204
97.812 -122.009 980.507 232 219 204
97.812 -121.509 980.559 230 217 201
97.812 -121.009 980.592 230 217 201
97.812 -120.509 980.610 231 218 202
97.812 -120.009 980.626 232 219 204
97.812 -119.509 980.631 232 219 204
98.312 -130.009 980.458 233 221 205
98.312 -129.509 980.405 233 221 205
98.312 -129.009 980.348 233 221 205
98.312 -128.509 980.317 232 219 204
98.312 -128.009 980.306 231 218 202
98.312 -127.509 980.332 230 217 201
98.312 -127.009 980.360 230 217 201
98.312 -126.509 980.366 230 217 201
98.312 -126.009 980.359 230 217 201
98.312 -125.509 980.365 228 216 200
98.312 -125.009 980.382 230 217 201
98.312 -124.509 980.410 231 218 202
98.312 -124.009 980.428 232 219 205
98.312 -123.509 980.433 232 219 205
98.312 -123.009 980.441 232 219 205
98.312 -122.509 980.455 232 219 204
98.312 -122.009 980.480 232 219 204
98.312 -121.509 980.539 232 219 204
98.312 -121.009 980.578 232 219 204
98.312 -120.509 980.599 231 218 202
98.312 -120.009 980.616 231 218 202
98.312 -119.509 980.623 231 218 202
98.812 -130.009 980.445 233 221 205
98.812 -129.509 980.412 233 221 205
98.812 -129.009 980.358 233 221 205
98.812 -128.509 980.313 233 220 205
98.812 -128.009 980.296 232 219 204
98.812 -127.509 980.313 232 219 204
98.812 -127.009 980.331 231 218 202
98.812 -126.509 980.339 230 217 201
98.812 -126.009 980.341 230 217 201
98.812 -125.509 980.343 230 217 201
98.812 -125.009 980.345 231 218 202
98.812 -124.509 980.372 231 218 202
98.812 -124.009 980.396 231 218 205
98.812 -123.509 980.414 232 219 205
98.812 -123.009 980.430 231 218 205
98.812 -122.509 980.447 231 218 202
98.812 -122.009 980.471 231 218 202
98.812 -121.509 980.505 231 218 202
98.812 -121.009 980.546 231 218 202
98.812 -120.509 980.580 231 218 202
98.812 -120.009 980.604 231 218 202
98.812 -119.509 980.611 231 218 202
99.312 -130.009 980.423 234 222 206
99.312 -129.509 980.394 233 221 205
99.312 -129.009 980.341 233 221 205
99.312 -128.509 980.290 233 221 205
99.312 -128.009 980.272 233 220 205
99.312 -127.509 980.293 232 219 204
99.312 -127.009 980.301 232 219 204
99.312 -126.509 980.313 231 218 202
99.312 -126.009 980.329 230 217 201
99.312 -125.509 980.333 230 217 201
99.312 -125.009 980.339 230 217 201
99.312 -124.509 980.362 230 217 201
99.312 -124.009 980.385 231 218 204
99.312 -123.509 980.404 231 218 205
99.312 -123.009 980.418 231 218 205
99.312 -122.509 980.442 230 217 201
99.312 -122.009 980.473 230 217 201
99.312 -121.509 980.500 230 217 201
99.312 -121.009 980.550 230 217 201
99.312 -120.509 980.582 231 218 202
99.312 -120.009 980.600 231 218 202
99.312 -119.509 980.601 232 219 204
99.812 -130.009 980.382 233 221 205
99.812 -129.509 980.350 234 222 206
99.812 -129.009 980.302 233 221 205
99.812 -128.509 980.260 233 221 205
99.812 -128.009 980.254 233 220 205
99.812 -127.509 980.270 231 218 202
99.812 -127.009 980.281 231 218 202
99.812 -126.509 980.302 232 219 204
99.812 -126.009 980.323 231 218 202
99.812 -125.509 980.330 230 217 201
99.812 -125.009 980.337 230 217 201
99.812 -124.509 980.359 230 217 201
99.812 -124.009 980.386 230 217 201
99.812 -123.509 980.407 228 216 200
99.812 -123.009 980.433 228 216 200
99.812 -122.509 980.459 230 217 201
99.812 -122.009 980.485 230 217 201
99.812 -121.509 980.502 230 217 201
99.812 -121.009 980.534 230 217 201
99.812 -120.509 980.566 230 217 201
99.812 -120.009 980.587 231 218 202
99.812 -119.509 980.580 232 219 204
100.312 -130.009 980.325 233 221 205
100.312 -129.509 980.298 233 221 205
100.312 -129.009 980.265 233 221 205
100.312 -128.509 980.251 233 221 205
100.312 -128.009 980.258 233 220 205
100.312 -127.509 980.271 232 219 204
100.312 -127.009 980.284 231 218 202
100.312 -126.509 980.295 232 219 204
100.312 -126.009 980.313 232 219 204
100.312 -125.509 980.322 230 217 201
100.312 -125.009 980.322 230 217 201
100.312 -124.509 980.346 230 217 201
100.312 -124.009 980.380 228 216 200
100.312 -123.509 980.407 227 215 199
100.312 -123.009 980.438 227 215 199
100.312 -122.509 980.461 228 216 200
100.312 -122.009 980.479 230 217 201
100.312 -121.509 980.488 230 217 201
100.312 -121.009 980.521 230 217 201
100.312 -120.509 980.558 230 217 201
100.312 -120.009 980.565 230 217 201
100.312 -119.509 980.545 231 218 202
100.812 -130.009 980.253 234 222 206
100.812 -129.509 980.222 233 221 205
100.812 -129.009 980.216 233 220 205
100.812 -128.509 980.218 233 220 205
100.812 -128.009 980.235 233 220 205
100.812 -127.509 980.263 232 219 204
100.812 -127.009 980.291 232 219 204
100.812 -126.509 980.311 231 218 202
100.812 -126.009 980.319 231 218 202
100.812 -125.509 980.308 232 219 204
100.812 -125.009 980.304 231 218 202
100.812 -124.509 980.324 228 216 200
100.812 -124.009 980.358 228 216 200
100.812 -123.509 980.401 227 215 199
100.812 -123.009 980.442 227 215 199
100.812 -122.509 980.461 228 216 200
100.812 -122.009 980.472 228 216 200
100.812 -121.509 980.482 230 217 201
100.812 -121.009 980.510 230 217 201
100.812 -120.509 980.536 230 217 201
100.812 -120.009 980.533 230 217 201
100.812 -119.509 980.523 231 218 202
101.312 -130.009 980.185 234 222 206
101.312 -129.509 980.168 233 221 205
101.312 -129.009 980.169 232 219 204
101.312 -128.509 980.178 233 220 205
101.312 -128.009 980.199 232 219 204
101.312 -127.509 980.242 232 219 204
101.312 -127.009 980.273 232 219 204
101.312 -126.509 980.283 231 218 202
101.312 -126.009 980.291 231 218 202
101.312 -125.509 980.293 231 218 202
101.312 -125.009 980.301 230 217 201
101.312 -124.509 980.312 228 216 200
101.312 -124.009 980.347 228 216 200
101.312 -123.509 980.394 227 215 199
101.312 -123.009 980.431 227 215 199
101.312 -122.509 980.445 228 216 200
101.312 -122.009 980.456 230 217 201
101.312 -121.509 980.478 230 217 201
101.312 -121.009 980.512 230 217 201
101.312 -120.509 980.532 231 218 202
101.312 -120.009 980.530 231 218 202
101.312 -119.509 980.523 231 218 202
101.812 -130.009 980.141 234 222 206
101.812 -129.509 980.133 233 221 205
101.812 -129.009 980.142 233 220 205
101.812 -128.509 980.162 233 220 205
101.812 -128.009 980.189 232 219 204
101.812 -127.509 980.228 233 220 205
101.812 -127.009 980.262 232 219 204
101.812 -126.509 980.278 231 218 202
101.812 -126.009 980.283 231 218 202
101.812 -125.509 980.279 231 218 202
101.812 -125.009 980.291 231 218 202
101.812 -124.509 980.306 230 217 201
101.812 -124.009 980.345 230 217 201
101.812 -123.509 980.404 227 215 199
101.812 -123.009 980.451 226 214 198
101.812 -122.509 980.468 226 214 198
101.812 -122.009 980.476 228 216 200
101.812 -121.509 980.507 230 217 201
101.812 -121.009 980.539 230 217 201
101.812 -120.509 980.557 231 218 202
101.812 -120.009 980.547 231 218 202
101.812 -119.509 980.533 231 218 202
91.312 -119.009 980.579 233 219 202
91.312 -118.509 980.565 233 219 202
91.312 -118.009 980.562 231 217 200
91.312 -117.509 980.572 230 216 199
91.312 -117.009 980.597 231 217 200
91.312 -116.509 980.627 230 216 199
91.312 -116.009 980.658 232 218 201
91.312 -115.509 980.702 231 217 200
91.312 -115.009 980.722 230 216 199
91.312 -114.509 980.719 230 217 200
91.312 -114.009 980.710 230 218 200
91.312 -113.509 980.691 231 219 201
91.312 -113.009 980.680 231 219 201
91.312 -112.509 980.686 231 218 202
91.312 -112.009 980.681 231 218 202
91.312 -111.509 980.658 232 219 204
91.312 -111.009 980.629 232 219 204
91.312 -110.509 980.608 232 219 204
91.312 -110.009 980.608 232 219 204
91.312 -109.509 980.628 231 218 202
91.312 -109.009 980.631 231 218 202
91.812 -119.009 980.574 232 218 201
91.812 -118.509 980.567 233 219 202
91.812 -118.009 980.569 231 217 200
91.812 -117.509 980.575 231 217 200
91.812 -117.009 980.602 230 216 199
91.812 -116.509 980.631 228 215 198
91.812 -116.009 980.654 230 216 199
91.812 -115.509 980.686 232 218 201
91.812 -115.009 980.712 231 217 200
91.812 -114.509 980.717 232 218 201
91.812 -114.009 980.708 232 220 202
91.812 -113.509 980.695 232 220 202
91.812 -113.009 980.689 231 219 201
91.812 -112.509 980.685 230 217 201
91.812 -112.009 980.663 231 218 202
91.812 -111.509 980.635 232 219 204
91.812 -111.009 980.618 231 218 202
91.812 -110.509 980.604 232 219 204
91.812 -110.009 980.600 231 218 202
91.812 -109.509 980.612 231 218 202
91.812 -109.009 980.609 231 218 202
92.312 -119.009 980.570 232 218 201
92.312 -118.509 980.564 233 219 202
92.312 -118.009 980.566 231 217 200
92.312 -117.509 980.567 232 218 201
92.312 -117.009 980.595 231 217 200
92.312 -116.509 980.627 228 215 198
92.312 -116.009 980.646 230 216 199
92.312 -115.509 980.676 232 218 201
92.312 -115.009 980.707 231 217 200
92.312 -114.509 980.719 232 218 201
92.312 -114.009 980.714 233 221 204
92.312 -113.509 980.705 232 220 202
92.312 -113.009 980.698 231 219 201
92.312 -112.509 980.686 231 218 202
92.312 -112.009 980.660 231 218 202
92.312 -111.509 980.634 231 218 202
92.312 -111.009 980.622 231 218 202
92.312 -110.509 980.611 232 219 204
92.312 -110.009 980.597 231 218 202
92.312 -109.509 980.589 231 218 202
92.312 -109.009 980.573 231 218 202
92.812 -119.009 980.568 232 218 201
92.812 -118.509 980.559 233 219 202
92.812 -118.009 980.559 232 218 201
92.812 -117.509 980.560 231 217 200
92.812 -117.009 980.586 233 219 202
92.812 -116.509 980.618 231 217 200
92.812 -116.009 980.640 231 217 200
92.812 -115.509 980.668 232 218 201
92.812 -115.009 980.690 232 218 201
92.812 -114.509 980.700 232 219 202
