176.312 -19.509 975.918 179 160 143
176.312 -19.009 975.748 197 179 161
176.312 -18.509 975.523 209 190 173
176.812 -20.509 975.724 171 155 141
176.812 -20.009 975.521 159 142 129
168.812 -9.509 976.122 145 130 120
168.812 -9.009 975.816 159 143 130
168.812 -8.509 975.584 186 168 151
169.312 -9.509 975.714 173 155 141
169.312 -9.009 975.483 189 170 154
179.812 -26.509 975.776 177 166 153
179.812 -26.009 975.493 194 183 170
100.312 -32.009 998.478 176 162 151
100.812 -32.509 998.469 175 161 150
100.812 -32.009 998.479 175 161 150
101.312 -32.509 998.481 185 171 160
101.312 -32.009 998.490 179 166 154
101.812 -32.509 998.477 169 155 144
101.812 -32.009 998.478 175 161 150
98.812 -21.009 998.491 160 150 146
99.312 -30.509 998.587 167 153 142
99.312 -22.009 998.529 141 131 126
99.312 -21.509 998.244 153 142 138
99.312 -21.009 998.046 131 120 116
99.812 -31.009 998.555 173 159 150
99.812 -30.509 998.575 159 145 136
99.812 -30.009 998.601 163 150 141
99.812 -23.009 998.516 140 125 117
99.812 -22.509 998.284 138 125 118
99.812 -22.009 998.091 141 128 122
99.812 -21.509 997.888 135 126 122
99.812 -21.009 997.698 123 116 112
100.312 -31.509 998.506 179 166 154
100.312 -31.009 998.534 173 159 150
100.312 -30.509 998.558 154 140 131
100.312 -30.009 998.571 163 150 141
100.312 -29.509 998.598 168 156 144
100.312 -23.509 998.453 159 145 136
100.312 -23.009 998.237 163 150 142
100.312 -22.509 997.982 159 149 140
100.312 -22.009 997.788 149 138 132
100.312 -21.509 997.649 135 127 124
100.312 -21.009 997.419 126 119 116
100.812 -31.509 998.495 170 156 145
100.812 -31.009 998.521 172 158 149
100.812 -30.509 998.550 167 153 144
100.812 -30.009 998.564 171 158 149
100.812 -29.509 998.577 166 153 141
100.812 -29.009 998.610 174 160 147
100.812 -24.509 998.582 133 119 113
100.812 -24.009 998.405 125 112 106
100.812 -23.509 998.201 133 121 116
100.812 -23.009 998.038 151 140 135
100.812 -22.509 997.822 144 135 129
100.812 -22.009 997.627 134 126 120
100.812 -21.509 997.392 132 124 121
100.812 -21.009 997.056 131 123 121
101.312 -31.509 998.498 176 162 151
101.312 -31.009 998.510 180 167 155
101.312 -30.509 998.526 170 157 146
101.312 -30.009 998.540 164 151 142
101.312 -29.509 998.551 173 161 149
101.312 -29.009 998.570 190 176 163
101.312 -28.509 998.595 190 174 159
101.312 -28.009 998.613 195 179 164
101.312 -27.509 998.607 185 169 154
101.312 -27.009 998.586 184 168 155
101.312 -26.509 998.558 183 168 154
101.312 -26.009 998.533 166 151 141
101.312 -25.509 998.495 171 157 148
101.312 -25.009 998.417 168 152 144
101.312 -24.509 998.324 155 144 140
101.312 -24.009 998.187 134 123 121
101.312 -23.509 998.014 124 115 111
101.312 -23.009 997.812 132 122 119
101.312 -22.509 997.561 120 112 109
101.312 -22.009 997.327 118 109 106
101.312 -21.509 997.040 116 107 105
101.312 -21.009 996.722 121 113 111
101.812 -31.509 998.482 179 164 153
101.812 -31.009 998.493 184 170 159
101.812 -30.509 998.501 179 166 154
101.812 -30.009 998.512 161 148 139
101.812 -29.509 998.527 171 159 147
101.812 -29.009 998.547 195 181 171
101.812 -28.509 998.562 190 174 161
101.812 -28.009 998.561 188 172 157
101.812 -27.509 998.539 180 164 151
101.812 -27.009 998.502 176 160 147
101.812 -26.509 998.461 181 168 156
101.812 -26.009 998.417 174 160 151
101.812 -25.509 998.354 149 136 128
101.812 -25.009 998.258 159 146 138
101.812 -24.509 998.148 157 146 142
101.812 -24.009 998.007 125 115 111
101.812 -23.509 997.822 112 102 100
101.812 -23.009 997.571 116 105 103
101.812 -22.509 997.323 118 109 107
101.812 -22.009 997.112 121 113 111
101.812 -21.509 996.829 124 117 114
101.812 -21.009 996.495 126 118 118
98.812 -20.509 998.321 141 131 129
98.812 -20.009 998.099 135 125 124
98.812 -19.509 997.919 129 120 119
98.812 -18.509 997.723 140 132 129
99.312 -20.509 997.848 128 119 116
99.312 -20.009 997.635 123 113 112
99.312 -19.509 997.472 125 118 116
99.312 -19.009 997.307 141 133 131
99.312 -18.509 997.142 161 153 149
99.312 -18.009 997.135 169 161 155
99.812 -20.509 997.443 122 115 113
99.812 -20.009 997.194 123 115 116
99.812 -19.509 996.944 121 116 112
99.812 -19.009 996.771 136 131 127
99.812 -18.509 996.684 153 146 142
99.812 -18.009 996.582 150 141 134
99.812 -17.509 996.404 154 145 138
99.812 -17.009 996.308 172 163 156
100.312 -20.509 997.071 119 111 109
100.312 -20.009 996.745 120 111 112
100.312 -19.509 996.489 122 118 114
100.312 -19.009 996.331 128 123 120
100.312 -18.509 996.241 126 120 116
100.312 -18.009 996.066 130 121 116
100.312 -17.509 995.884 135 126 121
100.312 -17.009 995.806 152 143 136
100.312 -16.509 995.733 174 166 158
100.812 -20.509 996.731 128 119 119
100.812 -20.009 996.458 125 117 117
100.812 -19.509 996.202 127 121 119
100.812 -19.009 995.988 120 116 112
100.812 -18.509 995.814 115 108 105
100.812 -18.009 995.699 121 112 110
100.812 -17.509 995.511 126 118 116
100.812 -17.009 995.322 134 125 123
100.812 -16.509 995.245 136 128 123
100.812 -16.009 995.082 146 138 133
100.812 -15.509 994.991 153 145 140
101.312 -20.509 996.464 131 122 123
101.312 -20.009 996.214 129 120 121
101.312 -19.509 995.970 127 121 121
101.312 -19.009 995.741 119 113 110
101.312 -18.509 995.449 113 108 105
101.312 -18.009 995.183 117 107 108
101.312 -17.509 994.937 119 109 110
101.312 -17.009 994.718 123 115 116
101.312 -16.509 994.577 128 120 118
101.312 -16.009 994.348 129 121 119
101.312 -15.509 994.243 131 123 120
101.312 -15.009 994.186 149 140 132
101.312 -14.509 994.147 174 166 156
101.312 -14.009 994.176 197 188 179
101.812 -20.509 996.221 123 115 116
101.812 -20.009 995.998 121 112 116
101.812 -19.509 995.770 119 113 113
101.812 -19.009 995.448 119 113 113
101.812 -18.509 995.165 115 108 106
101.812 -18.009 994.959 117 107 109
101.812 -17.509 994.732 112 103 104
101.812 -17.009 994.498 115 105 106
101.812 -16.509 994.257 120 111 112
101.812 -16.009 993.983 126 119 116
101.812 -15.509 993.695 122 115 112
101.812 -15.009 993.440 124 115 110
101.812 -14.509 993.305 138 129 123
101.812 -14.009 993.369 167 157 150
101.812 -13.509 993.577 183 173 165
101.812 -13.009 993.814 188 179 171
101.812 -12.509 994.128 192 184 173
101.812 -12.009 994.316 193 184 177
110.312 -44.509 991.148 193 181 167
110.312 -44.009 991.791 203 191 177
110.312 -43.509 992.458 210 198 184
110.312 -43.009 993.080 214 202 188
110.812 -45.509 990.344 204 192 180
110.812 -45.009 990.562 196 184 171
110.812 -44.509 991.122 196 184 171
110.812 -44.009 991.803 205 193 179
110.812 -43.509 992.383 210 198 184
110.812 -43.009 992.992 212 200 186
111.312 -45.509 990.225 204 192 180
111.312 -45.009 990.479 206 194 180
111.312 -44.509 990.969 199 187 173
111.312 -44.009 991.701 206 194 180
111.312 -43.509 992.300 209 197 183
111.312 -43.009 992.911 211 199 185
111.812 -46.009 989.989 169 158 146
111.812 -45.509 990.165 190 179 166
111.812 -45.009 990.562 198 186 172
111.812 -44.509 991.056 195 184 170
111.812 -44.009 991.689 206 194 180
111.812 -43.509 992.273 211 199 185
111.812 -43.009 992.906 213 201 187
112.312 -46.509 989.893 180 170 158
112.312 -46.009 989.943 177 166 153
112.312 -45.509 990.095 183 170 158
112.312 -45.009 990.632 181 169 155
112.312 -44.509 991.148 188 176 162
112.312 -44.009 991.596 207 195 181
112.312 -43.509 992.142 209 197 183
112.312 -43.009 992.711 214 202 188
112.812 -47.509 989.737 173 164 155
112.812 -47.009 989.785 172 162 153
112.812 -46.509 989.841 175 166 155
112.812 -46.009 989.907 172 161 150
112.812 -45.509 990.040 179 167 154
112.812 -45.009 990.445 184 171 157
112.812 -44.509 991.007 191 179 165
112.812 -44.009 991.417 205 192 176
112.812 -43.509 991.928 209 196 180
112.812 -43.009 992.482 216 203 187
102.312 -32.509 998.468 164 150 139
102.312 -32.009 998.471 177 163 152
102.812 -33.009 998.489 174 159 147
102.812 -32.509 998.481 176 161 149
102.812 -32.009 998.482 181 167 155
103.312 -33.509 998.478 177 161 148
103.312 -33.009 998.479 183 167 153
103.312 -32.509 998.483 188 172 159
103.312 -32.009 998.485 195 179 166
103.812 -34.509 998.481 179 166 154
103.812 -34.009 998.477 197 181 168
103.812 -33.509 998.466 184 168 154
103.812 -33.009 998.467 185 169 156
103.812 -32.509 998.472 186 170 157
103.812 -32.009 998.473 186 170 157
104.312 -35.009 998.482 159 146 137
104.312 -34.509 998.469 179 168 155
104.312 -34.009 998.459 184 169 158
104.312 -33.509 998.447 172 158 147
104.312 -33.009 998.436 179 164 153
104.312 -32.509 998.424 174 160 149
104.312 -32.009 998.416 148 134 123
104.812 -35.509 998.496 168 153 146
104.812 -35.009 998.490 163 149 140
104.812 -34.509 998.466 171 157 146
104.812 -34.009 998.441 169 155 144
104.812 -33.509 998.423 164 150 139
104.812 -33.009 998.405 171 157 146
104.812 -32.509 998.383 170 156 145
104.812 -32.009 998.363 171 157 146
105.312 -36.009 998.499 168 152 144
105.312 -35.509 998.496 168 153 144
105.312 -35.009 998.489 162 148 139
105.312 -34.509 998.471 162 148 138
105.312 -34.009 998.453 169 155 144
105.312 -33.509 998.421 174 160 149
105.312 -33.009 998.382 176 162 151
105.312 -32.509 998.355 172 158 147
105.312 -32.009 998.336 179 164 153
105.812 -37.009 998.402 175 161 148
105.812 -36.509 998.475 170 156 145
105.812 -36.009 998.498 161 146 138
105.812 -35.509 998.496 166 151 142
105.812 -35.009 998.486 176 162 153
105.812 -34.509 998.467 179 164 155
105.812 -34.009 998.441 176 162 151
105.812 -33.509 998.404 183 168 157
105.812 -33.009 998.366 180 167 155
105.812 -32.509 998.333 173 159 148
105.812 -32.009 998.296 168 153 142
106.312 -36.509 998.459 168 153 142
106.312 -36.009 998.489 166 151 141
106.312 -35.509 998.490 169 156 147
106.312 -35.009 998.476 185 172 163
106.312 -34.509 998.460 168 154 145
106.312 -34.009 998.436 161 149 139
106.312 -33.509 998.394 171 158 150
106.312 -33.009 998.350 168 155 147
106.312 -32.509 998.306 147 134 126
106.312 -32.009 998.254 152 136 128
106.812 -37.509 998.193 169 152 141
106.812 -37.009 998.311 170 156 145
106.812 -36.509 998.411 169 155 144
106.812 -36.009 998.461 167 152 143
106.812 -35.509 998.472 164 151 142
106.812 -35.009 998.459 164 151 142
106.812 -34.509 998.443 169 156 147
106.812 -34.009 998.418 154 141 133
106.812 -33.509 998.368 155 142 134
106.812 -33.009 998.319 160 147 139
106.812 -32.509 998.267 152 138 129
106.812 -32.009 998.202 149 133 123
107.312 -38.009 998.021 190 172 158
107.312 -37.509 998.145 151 134 124
107.312 -37.009 998.215 160 146 135
107.312 -36.509 998.318 181 168 156
107.312 -36.009 998.391 181 168 157
107.312 -35.509 998.422 168 155 146
107.312 -35.009 998.418 166 152 143
107.312 -34.509 998.409 156 143 134
107.312 -34.009 998.392 130 118 111
107.312 -33.509 998.340 123 110 104
107.312 -33.009 998.289 139 126 118
107.312 -32.509 998.231 160 145 136
107.312 -32.009 998.149 184 168 155
107.812 -39.009 997.502 219 200 183
107.812 -38.509 997.784 215 196 181
107.812 -38.009 997.975 166 147 133
107.812 -37.509 998.119 133 117 105
107.812 -37.009 998.197 150 136 125
107.812 -36.509 998.242 212 198 187
107.812 -36.009 998.292 215 201 191
107.812 -35.509 998.340 187 174 165
107.812 -35.009 998.351 173 160 151
107.812 -34.509 998.349 151 138 130
107.812 -34.009 998.338 129 117 110
107.812 -33.509 998.296 133 120 114
107.812 -33.009 998.241 167 153 145
107.812 -32.509 998.164 170 156 145
107.812 -32.009 998.063 203 185 171
108.312 -40.509 996.280 204 188 172
108.312 -40.009 996.615 207 190 173
108.312 -39.509 996.988 215 196 179
108.312 -39.009 997.403 221 202 185
108.312 -38.509 997.701 217 198 184
108.312 -38.009 997.916 163 145 131
108.312 -37.509 998.087 134 119 105
108.312 -37.009 998.183 150 136 125
108.312 -36.509 998.220 181 168 156
108.312 -36.009 998.252 179 164 155
108.312 -35.509 998.285 164 151 142
108.312 -35.009 998.295 159 146 137
108.312 -34.509 998.298 162 149 140
108.312 -34.009 998.285 158 145 137
108.312 -33.509 998.238 170 157 149
108.312 -33.009 998.168 187 174 166
108.312 -32.509 998.065 198 181 171
108.312 -32.009 997.943 179 160 147
108.812 -40.009 996.491 198 181 164
108.812 -39.509 996.873 207 188 171
108.812 -39.009 997.284 220 201 184
108.812 -38.509 997.627 222 203 188
108.812 -38.009 997.846 206 188 174
108.812 -37.509 998.018 183 167 154
108.812 -37.009 998.149 170 156 145
108.812 -36.509 998.200 158 144 133
108.812 -36.009 998.217 156 142 133
108.812 -35.509 998.233 162 149 140
108.812 -35.009 998.233 175 162 153
108.812 -34.509 998.228 166 152 143
108.812 -34.009 998.199 149 136 127
108.812 -33.509 998.146 147 134 125
108.812 -33.009 998.057 158 145 136
108.812 -32.509 997.936 160 143 132
108.812 -32.009 997.841 156 136 123
109.312 -40.009 996.388 197 181 166
109.312 -39.509 996.821 202 186 170
109.312 -39.009 997.209 211 194 178
109.312 -38.509 997.559 222 203 186
109.312 -38.009 997.741 226 207 192
109.312 -37.509 997.874 221 205 190
109.312 -37.009 998.057 188 172 159
109.312 -36.509 998.146 156 140 130
109.312 -36.009 998.165 160 146 136
109.312 -35.509 998.166 159 145 136
109.312 -35.009 998.163 179 164 155
109.312 -34.509 998.168 175 162 153
109.312 -34.009 998.119 139 127 121
109.312 -33.509 998.012 126 113 105
109.312 -33.009 997.900 153 139 130
109.312 -32.509 997.805 156 139 128
109.312 -32.009 997.717 162 144 130
109.812 -41.509 994.860 195 181 168
109.812 -41.009 995.389 198 184 171
109.812 -40.509 995.822 200 186 172
109.812 -40.009 996.271 200 184 170
109.812 -39.509 996.741 198 183 166
109.812 -39.009 997.101 211 194 178
109.812 -38.509 997.438 223 204 187
109.812 -38.009 997.659 228 209 192
109.812 -37.509 997.781 212 195 180
109.812 -37.009 997.944 175 159 146
109.812 -36.509 998.036 159 142 133
109.812 -36.009 998.066 164 149 140
109.812 -35.509 998.075 156 142 133
109.812 -35.009 998.073 168 154 145
109.812 -34.509 998.061 169 155 146
109.812 -34.009 997.986 148 135 127
109.812 -33.509 997.870 145 132 123
109.812 -33.009 997.771 164 150 139
109.812 -32.509 997.649 168 153 141
109.812 -32.009 997.496 184 168 153
110.312 -42.509 993.808 212 200 186
110.312 -42.009 994.330 201 187 174
110.312 -41.509 994.788 200 186 173
110.312 -41.009 995.254 197 184 171
110.312 -40.509 995.706 198 184 171
110.312 -40.009 996.143 199 184 168
110.312 -39.509 996.582 196 180 164
110.312 -39.009 996.946 204 187 171
110.312 -38.509 997.271 211 192 175
110.312 -38.009 997.519 222 203 186
110.312 -37.509 997.655 210 193 178
110.312 -37.009 997.765 179 162 149
110.312 -36.509 997.849 142 125 116
110.312 -36.009 997.928 146 130 123
110.312 -35.509 997.959 154 139 132
110.312 -35.009 997.932 156 142 133
110.312 -34.509 997.895 160 147 138
110.312 -34.009 997.835 152 139 130
110.312 -33.509 997.747 142 128 119
110.312 -33.009 997.640 161 147 136
110.312 -32.509 997.497 180 167 155
110.312 -32.009 997.352 171 155 143
110.812 -42.509 993.707 208 196 182
110.812 -42.009 994.239 194 180 167
110.812 -41.509 994.675 199 185 172
110.812 -41.009 995.138 199 185 172
110.812 -40.509 995.618 201 187 173
110.812 -40.009 996.082 200 184 170
110.812 -39.509 996.478 200 184 168
110.812 -39.009 996.842 200 184 167
110.812 -38.509 997.159 204 185 168
110.812 -38.009 997.366 224 205 188
110.812 -37.509 997.525 210 193 178
110.812 -37.009 997.646 183 167 153
110.812 -36.509 997.717 135 118 107
110.812 -36.009 997.785 162 145 137
110.812 -35.509 997.821 174 158 150
110.812 -35.009 997.806 167 151 142
110.812 -34.509 997.774 168 154 143
110.812 -34.009 997.725 168 153 142
110.812 -33.509 997.615 160 146 135
110.812 -33.009 997.475 160 144 134
110.812 -32.509 997.351 168 151 141
110.812 -32.009 997.236 143 126 117
111.312 -42.509 993.558 208 196 182
111.312 -42.009 994.072 186 172 159
111.312 -41.509 994.544 188 174 161
111.312 -41.009 995.028 201 187 174
111.312 -40.509 995.510 201 187 173
111.312 -40.009 995.943 196 180 165
111.312 -39.509 996.314 190 174 158
111.312 -39.009 996.695 199 183 166
111.312 -38.509 997.062 209 190 173
111.312 -38.009 997.245 220 201 184
111.312 -37.509 997.389 216 199 183
111.312 -37.009 997.538 201 184 170
111.312 -36.509 997.622 179 160 148
111.312 -36.009 997.665 179 161 151
111.312 -35.509 997.677 172 155 145
111.312 -35.009 997.649 168 151 141
111.312 -34.509 997.589 167 150 137
111.312 -34.009 997.519 164 147 137
111.312 -33.509 997.401 166 149 139
111.312 -33.009 997.254 172 155 145
111.312 -32.509 997.146 157 140 130
111.312 -32.009 997.028 136 119 109
111.812 -42.509 993.479 202 190 176
111.812 -42.009 993.943 181 168 154
111.812 -41.509 994.473 181 168 154
111.812 -41.009 994.965 196 183 170
111.812 -40.509 995.360 199 184 171
111.812 -40.009 995.750 202 186 171
111.812 -39.509 996.162 194 179 162
111.812 -39.009 996.569 207 190 174
111.812 -38.509 996.907 212 193 176
111.812 -38.009 997.116 210 191 174
111.812 -37.509 997.291 212 195 177
111.812 -37.009 997.423 213 196 178
111.812 -36.509 997.492 188 170 155
111.812 -36.009 997.524 185 169 156
111.812 -35.509 997.529 177 161 148
111.812 -35.009 997.493 170 154 141
111.812 -34.509 997.384 168 151 139
111.812 -34.009 997.265 160 143 133
111.812 -33.509 997.123 159 142 132
111.812 -33.009 996.989 175 158 148
111.812 -32.509 996.871 167 149 139
111.812 -32.009 996.722 162 145 135
112.312 -42.509 993.287 208 196 182
112.312 -42.009 993.787 194 180 167
112.312 -41.509 994.298 190 176 163
112.312 -41.009 994.872 199 185 172
112.312 -40.509 995.253 201 187 174
112.312 -40.009 995.642 202 186 171
112.312 -39.509 996.066 198 183 166
112.312 -39.009 996.375 204 187 171
112.312 -38.509 996.626 194 175 158
112.312 -38.009 996.894 209 190 173
112.312 -37.509 997.135 218 201 181
112.312 -37.009 997.289 213 196 178
112.312 -36.509 997.353 179 162 146
112.312 -36.009 997.337 181 163 149
112.312 -35.509 997.311 187 171 156
112.312 -35.009 997.281 185 169 154
112.312 -34.509 997.191 177 161 149
112.312 -34.009 997.037 168 149 139
112.312 -33.509 996.900 159 142 134
112.312 -33.009 996.808 168 150 140
112.312 -32.509 996.675 161 144 134
112.312 -32.009 996.490 167 150 138
112.812 -42.509 993.030 211 197 184
112.812 -42.009 993.603 207 193 180
112.812 -41.509 994.093 201 187 174
112.812 -41.009 994.688 199 185 172
112.812 -40.509 995.126 200 186 173
112.812 -40.009 995.497 191 176 163
112.812 -39.509 995.891 154 138 123
112.812 -39.009 996.174 172 154 140
112.812 -38.509 996.399 198 181 165
112.812 -38.009 996.666 209 190 175
112.812 -37.509 996.920 214 195 178
112.812 -37.009 997.045 210 191 174
112.812 -36.509 997.075 191 172 156
112.812 -36.009 997.028 188 171 155
112.812 -35.509 997.004 190 172 158
112.812 -35.009 997.003 184 167 152
112.812 -34.509 996.946 180 162 148
112.812 -34.009 996.783 160 144 130
112.812 -33.509 996.645 157 140 130
112.812 -33.009 996.537 157 140 130
112.812 -32.509 996.361 152 135 125
112.812 -32.009 996.159 152 135 123
102.312 -31.509 998.483 184 170 159
102.312 -31.009 998.493 177 163 152
102.312 -30.509 998.492 171 157 146
102.312 -30.009 998.504 168 155 145
102.312 -29.509 998.513 184 171 159
102.312 -29.009 998.517 193 179 168
102.312 -28.509 998.521 194 179 165
102.312 -28.009 998.513 183 166 150
102.312 -27.509 998.479 181 166 152
102.312 -27.009 998.429 184 168 154
102.312 -26.509 998.374 177 163 152
102.312 -26.009 998.310 150 136 128
102.312 -25.509 998.245 130 118 109
102.312 -25.009 998.154 144 131 125
102.312 -24.509 998.009 146 133 127
102.312 -24.009 997.831 132 121 116
102.312 -23.509 997.632 120 111 107
102.312 -23.009 997.377 122 112 110
102.312 -22.509 997.125 123 116 114
102.312 -22.009 996.893 128 119 120
102.312 -21.509 996.590 137 129 127
102.312 -21.009 996.312 128 119 120
102.812 -31.509 998.490 181 167 155
102.812 -31.009 998.496 171 157 145
102.812 -30.509 998.494 169 155 144
102.812 -30.009 998.488 171 158 146
102.812 -29.509 998.477 174 161 149
102.812 -29.009 998.472 185 170 157
102.812 -28.509 998.467 196 180 166
102.812 -28.009 998.440 184 167 151
102.812 -27.509 998.396 179 162 149
102.812 -27.009 998.344 187 171 158
102.812 -26.509 998.285 184 169 158
102.812 -26.009 998.221 137 123 113
102.812 -25.509 998.145 121 108 99
102.812 -25.009 998.013 166 152 143
102.812 -24.509 997.830 153 139 131
102.812 -24.009 997.597 151 139 132
102.812 -23.509 997.372 154 143 138
102.812 -23.009 997.147 144 134 131
102.812 -22.509 996.906 128 120 117
102.812 -22.009 996.706 129 122 121
102.812 -21.509 996.457 134 126 125
102.812 -21.009 996.203 125 117 117
103.312 -31.509 998.483 185 169 156
103.312 -31.009 998.474 172 158 147
103.312 -30.509 998.456 168 153 142
103.312 -30.009 998.436 175 161 148
103.312 -29.509 998.418 184 168 154
103.312 -29.009 998.414 184 168 154
103.312 -28.509 998.408 190 174 159
103.312 -28.009 998.381 188 172 157
103.312 -27.509 998.341 183 167 151
103.312 -27.009 998.283 180 164 151
103.312 -26.509 998.211 181 166 152
103.312 -26.009 998.127 164 150 139
103.312 -25.509 998.006 166 151 142
103.312 -25.009 997.833 175 161 152
103.312 -24.509 997.586 166 151 142
103.312 -24.009 997.302 171 158 149
103.312 -23.509 997.110 159 148 142
103.312 -23.009 996.919 149 140 135
103.312 -22.509 996.728 138 130 127
103.312 -22.009 996.505 128 122 119
103.312 -21.509 996.240 129 120 121
103.312 -21.009 996.004 128 119 120
103.812 -31.509 998.470 196 180 167
103.812 -31.009 998.457 186 172 161
103.812 -30.509 998.436 172 158 147
103.812 -30.009 998.414 181 168 154
103.812 -29.509 998.393 177 161 148
103.812 -29.009 998.376 183 167 153
103.812 -28.509 998.368 188 172 157
103.812 -28.009 998.342 191 175 160
103.812 -27.509 998.289 190 174 159
103.812 -27.009 998.207 177 161 148
103.812 -26.509 998.097 184 168 155
103.812 -26.009 997.949 180 167 155
103.812 -25.509 997.767 168 153 144
103.812 -25.009 997.553 170 156 147
103.812 -24.509 997.308 162 148 139
103.812 -24.009 997.047 167 153 144
103.812 -23.509 996.859 150 139 133
103.812 -23.009 996.708 139 128 124
103.812 -22.509 996.499 134 125 120
103.812 -22.009 996.253 125 118 114
103.812 -21.509 995.986 124 117 114
103.812 -21.009 995.685 127 119 117
104.312 -31.509 998.417 173 159 148
104.312 -31.009 998.419 177 163 152
104.312 -30.509 998.408 169 155 143
104.312 -30.009 998.382 180 166 152
104.312 -29.509 998.357 160 144 131
104.312 -29.009 998.330 172 156 143
104.312 -28.509 998.309 186 170 155
104.312 -28.009 998.272 186 168 154
104.312 -27.509 998.196 200 184 170
104.312 -27.009 998.089 184 168 154
104.312 -26.509 997.958 179 162 149
104.312 -26.009 997.799 153 138 127
104.312 -25.509 997.585 149 135 126
104.312 -25.009 997.332 157 143 134
104.312 -24.509 997.092 159 145 136
104.312 -24.009 996.844 163 149 141
104.312 -23.509 996.576 141 128 122
104.312 -23.009 996.337 138 127 121
104.312 -22.509 996.141 135 125 121
104.312 -22.009 995.908 134 125 120
104.312 -21.509 995.650 134 126 123
104.312 -21.009 995.374 137 129 126
104.812 -31.509 998.356 173 159 148
104.812 -31.009 998.354 157 142 132
104.812 -30.509 998.348 168 152 141
104.812 -30.009 998.338 187 171 158
104.812 -29.509 998.320 185 168 155
104.812 -29.009 998.283 185 168 155
104.812 -28.509 998.241 177 159 145
104.812 -28.009 998.189 181 163 149
104.812 -27.509 998.094 187 169 155
104.812 -27.009 997.953 184 167 154
104.812 -26.509 997.798 148 131 119
104.812 -26.009 997.615 131 115 104
104.812 -25.509 997.368 138 121 113
104.812 -25.009 997.101 144 129 121
104.812 -24.509 996.841 157 142 134
104.812 -24.009 996.561 150 135 128
104.812 -23.509 996.321 146 132 124
104.812 -23.009 996.127 157 144 138
104.812 -22.509 995.902 148 136 130
104.812 -22.009 995.650 148 136 132
104.812 -21.509 995.386 143 134 129
104.812 -21.009 995.135 138 129 124
105.312 -31.509 998.326 155 141 130
105.312 -31.009 998.315 138 121 111
105.312 -30.509 998.293 181 166 154
105.312 -30.009 998.272 187 171 158
105.312 -29.509 998.254 176 158 146
105.312 -29.009 998.217 190 172 160
105.312 -28.509 998.157 188 170 156
105.312 -28.009 998.074 179 160 146
105.312 -27.509 997.936 183 164 150
105.312 -27.009 997.798 191 173 161
105.312 -26.509 997.651 161 143 131
105.312 -26.009 997.397 150 133 123
105.312 -25.509 997.116 168 151 143
105.312 -25.009 996.877 153 136 128
105.312 -24.509 996.591 158 143 136
105.312 -24.009 996.315 159 144 137
105.312 -23.509 996.102 157 142 135
105.312 -23.009 995.858 169 154 147
105.312 -22.509 995.658 154 140 133
105.312 -22.009 995.418 152 139 133
105.312 -21.509 995.143 147 137 130
105.312 -21.009 994.833 147 138 131
105.812 -31.509 998.277 158 144 133
105.812 -31.009 998.270 176 159 148
105.812 -30.509 998.250 185 168 157
105.812 -30.009 998.216 157 139 127
105.812 -29.509 998.180 153 135 123
105.812 -29.009 998.117 179 161 149
105.812 -28.509 998.017 188 170 156
105.812 -28.009 997.880 191 173 159
105.812 -27.509 997.724 183 164 150
105.812 -27.009 997.566 187 169 156
105.812 -26.509 997.351 177 159 148
105.812 -26.009 997.089 183 164 154
105.812 -25.509 996.859 167 149 141
105.812 -25.009 996.598 162 145 137
105.812 -24.509 996.328 158 142 135
105.812 -24.009 996.080 158 142 135
105.812 -23.509 995.806 168 152 145
105.812 -23.009 995.535 168 153 146
105.812 -22.509 995.301 167 151 144
105.812 -22.009 995.106 155 140 133
105.812 -21.509 994.843 140 130 121
105.812 -21.009 994.541 150 141 134
106.312 -31.509 998.218 188 170 160
106.312 -31.009 998.189 201 185 171
106.312 -30.509 998.165 192 176 162
106.312 -30.009 998.149 168 150 138
106.312 -29.509 998.080 151 133 121
106.312 -29.009 997.974 171 152 138
106.312 -28.509 997.865 185 167 152
106.312 -28.009 997.723 191 170 156
106.312 -27.509 997.536 176 154 140
106.312 -27.009 997.315 179 156 142
106.312 -26.509 997.091 188 167 152
106.312 -26.009 996.859 181 163 150
106.312 -25.509 996.609 152 138 127
106.312 -25.009 996.376 139 126 117
106.312 -24.509 996.161 137 126 120
106.312 -24.009 995.889 141 130 124
106.312 -23.509 995.611 144 134 125
106.312 -23.009 995.345 162 152 143
106.312 -22.509 995.122 164 151 142
106.312 -22.009 994.864 157 144 135
106.312 -21.509 994.581 148 138 131
106.312 -21.009 994.283 154 143 137
106.812 -31.509 998.145 175 157 145
106.812 -31.009 998.101 197 179 163
106.812 -30.509 998.066 187 169 154
106.812 -30.009 998.013 191 172 158
106.812 -29.509 997.900 179 158 146
106.812 -29.009 997.778 171 151 138
106.812 -28.509 997.679 194 174 159
106.812 -28.009 997.518 179 157 142
106.812 -27.509 997.311 171 149 135
106.812 -27.009 997.102 184 161 147
106.812 -26.509 996.872 192 170 156
106.812 -26.009 996.642 171 152 140
106.812 -25.509 996.442 138 122 111
106.812 -25.009 996.214 124 111 103
106.812 -24.509 995.934 121 108 105
106.812 -24.009 995.644 125 113 108
106.812 -23.509 995.386 127 117 110
106.812 -23.009 995.162 143 132 126
106.812 -22.509 994.880 151 141 133
106.812 -22.009 994.588 149 138 130
106.812 -21.509 994.288 153 142 136
106.812 -21.009 993.990 152 141 135
107.312 -31.509 998.074 192 173 159
107.312 -31.009 998.014 170 149 132
107.312 -30.509 997.945 186 166 149
107.312 -30.009 997.844 200 179 165
107.312 -29.509 997.725 184 162 149
107.312 -29.009 997.601 189 168 153
107.312 -28.509 997.447 197 175 160
107.312 -28.009 997.263 183 163 147
107.312 -27.509 997.075 179 157 143
107.312 -27.009 996.875 176 154 140
107.312 -26.509 996.666 184 163 149
107.312 -26.009 996.473 184 167 153
107.312 -25.509 996.253 155 138 128
107.312 -25.009 995.965 137 122 114
107.312 -24.509 995.667 133 119 116
107.312 -24.009 995.401 131 118 114
107.312 -23.509 995.143 123 112 108
107.312 -23.009 994.895 139 128 124
107.312 -22.509 994.619 143 132 127
107.312 -22.009 994.325 147 136 132
107.312 -21.509 994.023 147 136 130
107.312 -21.009 993.766 150 139 133
107.812 -31.509 997.976 187 168 152
107.812 -31.009 997.902 168 147 128
107.812 -30.509 997.815 185 164 147
107.812 -30.009 997.716 188 167 152
107.812 -29.509 997.610 188 167 153
107.812 -29.009 997.441 187 166 152
107.812 -28.509 997.255 180 158 144
107.812 -28.009 997.090 180 160 146
107.812 -27.509 996.898 172 153 139
107.812 -27.009 996.698 162 140 126
107.812 -26.509 996.488 179 158 144
107.812 -26.009 996.247 183 164 151
107.812 -25.509 996.002 167 149 138
107.812 -25.009 995.752 147 133 123
107.812 -24.509 995.467 135 121 118
107.812 -24.009 995.169 132 119 116
107.812 -23.509 994.915 122 108 105
107.812 -23.009 994.694 134 123 119
107.812 -22.509 994.391 144 133 129
107.812 -22.009 994.105 147 137 132
107.812 -21.509 993.855 147 136 130
107.812 -21.009 993.576 149 138 132
108.312 -31.509 997.840 195 174 157
108.312 -31.009 997.735 189 168 149
108.312 -30.509 997.637 181 160 144
108.312 -30.009 997.563 160 140 126
108.312 -29.509 997.444 161 142 128
108.312 -29.009 997.254 170 151 137
108.312 -28.509 997.069 185 167 152
108.312 -28.009 996.892 177 158 144
108.312 -27.509 996.716 169 150 136
108.312 -27.009 996.513 171 152 137
108.312 -26.509 996.271 168 149 134
108.312 -26.009 996.018 174 155 141
108.312 -25.509 995.783 171 155 142
108.312 -25.009 995.527 150 133 124
108.312 -24.509 995.221 134 119 114
108.312 -24.009 994.948 129 117 110
108.312 -23.509 994.702 134 121 116
108.312 -23.009 994.438 138 127 123
108.312 -22.509 994.158 144 133 129
108.312 -22.009 993.903 145 136 131
108.312 -21.509 993.657 146 135 129
108.312 -21.009 993.342 148 137 131
108.812 -31.509 997.737 180 157 143
108.812 -31.009 997.592 187 168 150
108.812 -30.509 997.445 187 168 152
108.812 -30.009 997.345 164 146 132
108.812 -29.509 997.242 147 129 117
108.812 -29.009 997.080 149 131 120
108.812 -28.509 996.884 168 149 137
108.812 -28.009 996.718 164 147 134
108.812 -27.509 996.551 177 158 144
108.812 -27.009 996.337 168 149 135
108.812 -26.509 996.074 154 135 120
108.812 -26.009 995.806 170 151 137
108.812 -25.509 995.583 174 156 144
108.812 -25.009 995.349 167 149 139
108.812 -24.509 995.062 152 137 129
108.812 -24.009 994.780 146 132 124
108.812 -23.509 994.526 141 128 121
108.812 -23.009 994.227 140 129 122
108.812 -22.509 993.912 143 134 127
108.812 -22.009 993.648 142 133 127
108.812 -21.509 993.343 146 135 129
108.812 -21.009 993.023 149 138 132
109.312 -31.509 997.587 180 161 146
109.312 -31.009 997.422 184 168 151
109.312 -30.509 997.295 188 170 154
109.312 -30.009 997.203 188 169 154
109.312 -29.509 997.075 163 144 131
109.312 -29.009 996.881 137 119 108
109.312 -28.509 996.706 130 111 103
109.312 -28.009 996.558 143 125 114
109.312 -27.509 996.396 163 144 130
109.312 -27.009 996.187 167 147 133
109.312 -26.509 995.916 170 153 137
109.312 -26.009 995.643 169 151 138
109.312 -25.509 995.394 164 147 136
109.312 -25.009 995.136 160 143 135
109.312 -24.509 994.883 154 139 132
109.312 -24.009 994.627 144 130 122
109.312 -23.509 994.302 137 126 120
109.312 -23.009 993.970 138 127 122
109.312 -22.509 993.675 140 130 128
109.312 -22.009 993.371 139 131 128
109.312 -21.509 993.049 134 123 119
109.312 -21.009 992.771 137 126 122
109.812 -31.509 997.358 181 163 149
109.812 -31.009 997.243 197 180 164
109.812 -30.509 997.143 194 175 160
109.812 -30.009 997.057 183 161 147
109.812 -29.509 996.900 189 168 153
109.812 -29.009 996.694 161 141 128
109.812 -28.509 996.535 147 129 118
109.812 -28.009 996.383 143 124 111
109.812 -27.509 996.213 171 152 137
109.812 -27.009 995.988 186 168 152
109.812 -26.509 995.718 171 154 139
109.812 -26.009 995.453 151 134 121
109.812 -25.509 995.217 137 120 112
109.812 -25.009 994.955 140 123 116
109.812 -24.509 994.683 142 129 121
109.812 -24.009 994.401 142 129 122
109.812 -23.509 994.054 141 130 124
109.812 -23.009 993.751 143 132 128
109.812 -22.509 993.507 141 132 127
109.812 -22.009 993.188 136 127 122
109.812 -21.509 992.849 130 119 116
109.812 -21.009 992.543 129 119 114
110.312 -31.509 997.223 177 161 148
110.312 -31.009 997.095 194 175 161
110.312 -30.509 996.969 201 183 167
110.312 -30.009 996.834 184 163 147
110.312 -29.509 996.655 200 179 162
110.312 -29.009 996.472 194 173 156
110.312 -28.509 996.342 179 159 144
110.312 -28.009 996.213 172 149 134
110.312 -27.509 996.023 183 161 144
110.312 -27.009 995.802 188 167 151
110.312 -26.509 995.532 174 155 141
110.312 -26.009 995.257 132 116 104
110.312 -25.509 994.998 119 104 97
110.312 -25.009 994.740 131 118 111
110.312 -24.509 994.481 131 119 112
110.312 -24.009 994.214 128 117 110
110.312 -23.509 993.908 131 120 114
110.312 -23.009 993.605 138 127 121
110.312 -22.509 993.263 142 131 125
110.312 -22.009 992.906 138 127 121
110.312 -21.509 992.608 133 120 114
110.312 -21.009 992.351 138 124 121
110.812 -31.509 997.082 149 132 123
110.812 -31.009 996.916 168 149 136
110.812 -30.509 996.751 181 161 147
110.812 -30.009 996.582 202 179 164
110.812 -29.509 996.426 204 181 163
110.812 -29.009 996.279 203 180 161
110.812 -28.509 996.142 191 170 151
110.812 -28.009 995.994 179 156 137
110.812 -27.509 995.824 185 162 144
110.812 -27.009 995.608 184 162 147
110.812 -26.509 995.329 179 160 146
110.812 -26.009 995.044 138 123 114
110.812 -25.509 994.781 128 116 107
110.812 -25.009 994.541 131 119 111
110.812 -24.509 994.322 125 113 107
110.812 -24.009 994.062 131 119 113
110.812 -23.509 993.763 134 122 116
110.812 -23.009 993.453 147 134 127
110.812 -22.509 993.046 145 132 125
110.812 -22.009 992.685 147 134 127
110.812 -21.509 992.425 150 135 130
110.812 -21.009 992.170 141 128 122
111.312 -31.509 996.844 135 119 108
111.312 -31.009 996.667 129 111 99
111.312 -30.509 996.524 132 113 99
111.312 -30.009 996.381 190 169 153
111.312 -29.509 996.220 204 181 163
111.312 -29.009 996.056 206 184 163
111.312 -28.509 995.911 194 173 152
111.312 -28.009 995.750 191 169 150
111.312 -27.509 995.567 186 166 148
111.312 -27.009 995.341 181 159 145
111.312 -26.509 995.070 181 162 151
111.312 -26.009 994.801 157 140 132
111.312 -25.509 994.556 137 123 114
111.312 -25.009 994.324 130 117 108
111.312 -24.509 994.100 138 125 117
111.312 -24.009 993.837 145 132 124
111.312 -23.509 993.546 144 131 123
111.312 -23.009 993.224 149 136 128
111.312 -22.509 992.866 146 133 125
111.312 -22.009 992.530 150 137 130
111.312 -21.509 992.249 150 137 129
111.312 -21.009 991.949 154 141 135
111.812 -31.509 996.551 160 143 133
111.812 -31.009 996.416 154 138 125
111.812 -30.509 996.300 164 147 132
111.812 -30.009 996.154 186 168 151
111.812 -29.509 995.973 195 174 155
111.812 -29.009 995.806 205 184 165
111.812 -28.509 995.649 203 183 163
111.812 -28.009 995.434 184 162 143
111.812 -27.509 995.207 181 161 144
111.812 -27.009 995.002 177 158 144
111.812 -26.509 994.783 169 151 139
111.812 -26.009 994.550 164 147 137
111.812 -25.509 994.324 163 146 136
111.812 -25.009 994.084 156 139 129
111.812 -24.509 993.832 153 139 130
111.812 -24.009 993.585 147 133 124
111.812 -23.509 993.299 141 126 119
111.812 -23.009 992.940 148 135 127
111.812 -22.509 992.624 145 133 127
111.812 -22.009 992.352 145 134 128
111.812 -21.509 992.032 151 141 132
111.812 -21.009 991.659 152 142 133
112.312 -31.509 996.329 179 162 149
112.312 -31.009 996.196 181 166 152
112.312 -30.509 996.049 184 168 153
112.312 -30.009 995.884 179 161 144
112.312 -29.509 995.693 196 175 158
112.312 -29.009 995.521 213 192 175
112.312 -28.509 995.357 192 171 154
112.312 -28.009 995.169 157 138 121
112.312 -27.509 994.966 168 149 134
112.312 -27.009 994.751 160 142 128
112.312 -26.509 994.543 130 112 100
112.312 -26.009 994.325 139 121 111
112.312 -25.509 994.080 159 142 132
112.312 -25.009 993.818 171 155 142
112.312 -24.509 993.573 168 151 141
112.312 -24.009 993.361 154 137 128
112.312 -23.509 993.068 149 134 127
112.312 -23.009 992.694 151 138 130
112.312 -22.509 992.407 151 140 134
112.312 -22.009 992.133 132 121 116
112.312 -21.509 991.801 140 129 122
112.312 -21.009 991.403 147 137 130
112.812 -31.509 996.012 176 160 145
112.812 -31.009 995.874 183 164 151
112.812 -30.509 995.699 192 175 160
112.812 -30.009 995.525 188 168 152
112.812 -29.509 995.367 188 168 150
112.812 -29.009 995.212 210 189 172
112.812 -28.509 995.070 196 177 162
112.812 -28.009 994.927 181 163 147
112.812 -27.509 994.729 183 167 150
112.812 -27.009 994.519 170 153 138
112.812 -26.509 994.330 160 143 128
112.812 -26.009 994.088 164 147 134
112.812 -25.509 993.808 168 150 138
112.812 -25.009 993.558 179 161 151
112.812 -24.509 993.352 174 157 146
112.812 -24.009 993.124 158 143 134
112.812 -23.509 992.837 147 134 125
112.812 -23.009 992.503 152 141 132
112.812 -22.509 992.232 151 141 133
112.812 -22.009 991.923 130 121 113
112.812 -21.509 991.542 149 140 135
112.812 -21.009 991.196 149 140 135
102.312 -20.509 996.083 117 107 108
102.312 -20.009 995.870 117 107 110
102.312 -19.509 995.504 113 107 107
102.312 -19.009 995.176 119 112 112
102.312 -18.509 994.962 118 112 109
102.312 -18.009 994.736 120 111 112
102.312 -17.509 994.461 117 107 108
102.312 -17.009 994.217 116 106 107
102.312 -16.509 993.895 112 103 104
102.312 -16.009 993.596 122 115 112
102.312 -15.509 993.300 127 119 117
102.312 -15.009 993.064 125 116 113
102.312 -14.509 992.763 117 106 104
102.312 -14.009 992.595 119 108 104
102.312 -13.509 992.664 124 116 110
102.312 -13.009 993.076 144 135 128
102.312 -12.509 993.311 163 154 147
102.312 -12.009 993.250 185 176 168
102.312 -11.509 993.372 193 184 175
102.812 -20.509 995.972 116 106 108
102.812 -20.009 995.717 116 106 108
102.812 -19.509 995.318 116 108 109
102.812 -19.009 994.997 119 111 111
102.812 -18.509 994.738 123 118 114
102.812 -18.009 994.453 123 117 116
102.812 -17.509 994.170 124 119 117
102.812 -17.009 993.847 120 113 112
102.812 -16.509 993.530 111 105 104
102.812 -16.009 993.194 112 106 103
102.812 -15.509 992.820 122 116 113
102.812 -15.009 992.535 123 115 114
102.812 -14.509 992.211 118 108 107
102.812 -14.009 991.973 107 97 97
102.812 -13.509 992.044 103 94 93
102.812 -13.009 992.175 109 100 98
102.812 -12.509 992.204 134 125 121
102.812 -12.009 992.216 146 138 132
102.812 -11.509 992.228 166 157 148
102.812 -11.009 992.408 184 176 167
103.312 -20.509 995.739 119 110 111
103.312 -20.009 995.386 121 112 113
103.312 -19.509 995.048 121 113 112
103.312 -19.009 994.789 124 117 114
103.312 -18.509 994.446 126 119 116
103.312 -18.009 994.160 130 122 120
103.312 -17.509 993.872 126 119 116
103.312 -17.009 993.514 128 120 118
103.312 -16.509 993.194 123 116 113
103.312 -16.009 992.845 111 103 102
103.312 -15.509 992.510 116 107 105
103.312 -15.009 992.191 108 99 100
103.312 -14.509 991.913 107 98 99
103.312 -14.009 991.767 105 96 97
103.312 -13.509 991.685 111 102 103
103.312 -13.009 991.625 111 102 103
103.312 -12.509 991.558 117 107 108
103.312 -12.009 991.491 119 110 107
103.312 -11.509 991.386 129 122 116
103.312 -11.009 991.387 150 143 137
103.312 -10.509 991.771 166 156 148
103.812 -20.509 995.357 132 124 122
103.812 -20.009 995.053 125 118 116
103.812 -19.509 994.776 128 120 118
103.812 -19.009 994.548 128 120 118
103.812 -18.509 994.235 123 116 113
103.812 -18.009 993.941 127 119 117
103.812 -17.509 993.600 119 111 109
103.812 -17.009 993.292 124 117 114
103.812 -16.509 992.884 120 112 110
103.812 -16.009 992.556 118 109 107
103.812 -15.509 992.282 119 111 109
103.812 -15.009 991.982 112 103 104
103.812 -14.509 991.760 113 104 105
103.812 -14.009 991.575 112 103 104
103.812 -13.509 991.435 115 105 106
103.812 -13.009 991.272 110 101 103
103.812 -12.509 991.086 110 101 103
103.812 -12.009 990.883 119 110 109
103.812 -11.509 990.746 120 112 110
103.812 -11.009 990.729 120 112 109
103.812 -10.509 991.041 135 126 120
103.812 -10.009 991.428 161 152 143
104.312 -20.509 995.057 136 128 125
104.312 -20.009 994.801 133 125 123
104.312 -19.509 994.512 132 124 122
104.312 -19.009 994.220 128 120 118
104.312 -18.509 993.916 125 118 116
104.312 -18.009 993.583 126 119 116
104.312 -17.509 993.266 127 119 117
104.312 -17.009 992.872 129 121 119
104.312 -16.509 992.513 130 122 120
104.312 -16.009 992.262 135 127 125
104.312 -15.509 991.967 129 121 119
104.312 -15.009 991.737 129 121 119
104.312 -14.509 991.501 124 117 114
104.312 -14.009 991.273 119 111 109
104.312 -13.509 991.079 119 111 109
104.312 -13.009 990.850 116 107 105
104.312 -12.509 990.668 102 94 93
104.312 -12.009 990.436 106 97 97
104.312 -11.509 990.280 118 108 109
104.312 -11.009 990.225 123 116 113
104.312 -10.509 990.275 129 119 117
104.312 -10.009 990.531 140 131 124
104.812 -20.509 994.832 137 127 124
104.812 -20.009 994.530 130 120 118
104.812 -19.509 994.274 125 116 113
104.812 -19.009 993.966 122 112 111
104.812 -18.509 993.607 125 116 114
104.812 -18.009 993.281 123 113 111
104.812 -17.509 992.894 136 126 124
104.812 -17.009 992.555 137 127 125
104.812 -16.509 992.288 134 124 122
104.812 -16.009 992.008 133 123 121
104.812 -15.509 991.783 136 126 124
104.812 -15.009 991.515 136 126 124
104.812 -14.509 991.263 137 127 125
104.812 -14.009 991.058 134 124 122
104.812 -13.509 990.812 130 120 118
104.812 -13.009 990.476 125 116 113
104.812 -12.509 990.192 113 103 102
104.812 -12.009 990.047 113 104 104
104.812 -11.509 989.919 118 108 109
104.812 -11.009 989.818 125 117 116
104.812 -10.509 989.778 127 118 116
104.812 -10.009 989.810 134 125 122
105.312 -20.509 994.534 132 123 117
105.312 -20.009 994.284 128 119 114
105.312 -19.509 993.959 126 117 114
105.312 -19.009 993.674 123 113 111
105.312 -18.509 993.353 124 115 113
105.312 -18.009 992.974 127 118 116
105.312 -17.509 992.631 127 118 116
105.312 -17.009 992.343 135 125 123
105.312 -16.509 992.064 131 121 119
105.312 -16.009 991.855 134 124 122
105.312 -15.509 991.614 131 121 119
105.312 -15.009 991.308 129 119 117
105.312 -14.509 991.027 138 128 126
105.312 -14.009 990.777 154 144 142
105.312 -13.509 990.465 154 144 142
105.312 -13.009 990.169 136 126 124
105.312 -12.509 990.010 128 119 116
105.312 -12.009 989.844 128 119 117
105.312 -11.509 989.699 133 125 123
105.312 -11.009 989.522 134 126 123
105.312 -10.509 989.400 131 121 119
105.312 -10.009 989.305 131 121 119
105.812 -20.509 994.266 147 138 131
105.812 -20.009 993.985 142 133 128
105.812 -19.509 993.653 139 129 127
105.812 -19.009 993.362 136 126 124
105.812 -18.509 993.018 133 123 122
105.812 -18.009 992.775 132 122 120
105.812 -17.509 992.452 129 119 117
105.812 -17.009 992.138 136 126 124
105.812 -16.509 991.911 136 126 124
105.812 -16.009 991.701 131 121 119
105.812 -15.509 991.359 123 113 111
105.812 -15.009 991.036 123 115 109
105.812 -14.509 990.787 126 118 112
105.812 -14.009 990.493 138 129 124
105.812 -13.509 990.168 145 136 131
105.812 -13.009 989.921 142 133 128
105.812 -12.509 989.722 130 121 116
105.812 -12.009 989.484 122 115 109
105.812 -11.509 989.207 124 118 111
105.812 -11.009 988.886 134 127 121
105.812 -10.509 988.698 135 125 123
105.812 -10.009 988.660 135 125 123
106.312 -20.509 993.985 155 144 138
106.312 -20.009 993.718 147 136 132
106.312 -19.509 993.383 140 131 126
106.312 -19.009 993.050 133 124 119
106.312 -18.509 992.823 133 123 121
106.312 -18.009 992.634 139 129 127
106.312 -17.509 992.341 138 128 126
106.312 -17.009 991.977 138 129 124
106.312 -16.509 991.724 137 128 123
106.312 -16.009 991.479 134 125 120
106.312 -15.509 991.118 136 127 122
106.312 -15.009 990.806 134 125 120
106.312 -14.509 990.522 133 124 119
106.312 -14.009 990.175 134 125 122
106.312 -13.509 989.882 126 117 114
106.312 -13.009 989.627 132 122 120
106.312 -12.509 989.400 132 122 120
106.312 -12.009 989.173 123 113 111
106.312 -11.509 988.853 123 113 111
106.312 -11.009 988.529 127 118 116
106.312 -10.509 988.289 133 123 121
106.312 -10.009 988.118 133 123 121
106.812 -20.509 993.729 155 144 138
106.812 -20.009 993.438 142 131 127
106.812 -19.509 993.085 133 124 119
106.812 -19.009 992.840 132 123 118
106.812 -18.509 992.646 136 126 124
106.812 -18.009 992.346 125 116 113
106.812 -17.509 992.122 119 109 107
106.812 -17.009 991.866 125 117 111
106.812 -16.509 991.558 133 124 119
106.812 -16.009 991.256 137 128 123
106.812 -15.509 990.907 132 123 118
106.812 -15.009 990.508 135 126 121
106.812 -14.509 990.214 136 127 122
106.812 -14.009 989.957 129 119 116
106.812 -13.509 989.647 131 121 119
106.812 -13.009 989.352 133 123 121
106.812 -12.509 989.067 128 119 116
106.812 -12.009 988.768 124 115 112
106.812 -11.509 988.470 126 117 114
106.812 -11.009 988.205 121 111 109
106.812 -10.509 987.971 129 119 117
106.812 -10.009 987.815 132 122 120
107.312 -20.509 993.468 155 144 138
107.312 -20.009 993.189 141 130 126
107.312 -19.509 992.909 131 122 117
107.312 -19.009 992.642 128 119 114
107.312 -18.509 992.357 127 118 116
107.312 -18.009 992.080 117 106 104
107.312 -17.509 991.824 111 101 99
107.312 -17.009 991.567 115 105 100
107.312 -16.509 991.244 134 125 120
107.312 -16.009 990.938 146 137 132
107.312 -15.509 990.557 142 133 128
107.312 -15.009 990.240 139 130 125
107.312 -14.509 989.995 138 129 124
107.312 -14.009 989.688 128 119 116
107.312 -13.509 989.384 129 119 117
107.312 -13.009 989.095 122 112 110
107.312 -12.509 988.779 123 113 111
107.312 -12.009 988.457 124 115 112
107.312 -11.509 988.118 127 118 116
107.312 -11.009 987.826 128 119 116
107.312 -10.509 987.591 143 133 131
107.312 -10.009 987.413 142 132 130
107.812 -20.509 993.262 149 138 132
107.812 -20.009 992.916 133 122 118
107.812 -19.509 992.667 128 119 114
107.812 -19.009 992.406 125 117 111
107.812 -18.509 992.135 129 119 117
107.812 -18.009 991.862 122 112 110
107.812 -17.509 991.584 119 108 106
107.812 -17.009 991.296 125 117 111
107.812 -16.509 990.974 135 126 121
107.812 -16.009 990.717 144 135 130
107.812 -15.509 990.390 142 133 128
107.812 -15.009 990.058 142 133 128
107.812 -14.509 989.807 144 135 130
107.812 -14.009 989.453 137 127 124
107.812 -13.509 989.143 133 123 121
107.812 -13.009 988.844 122 112 110
107.812 -12.509 988.493 116 105 103
107.812 -12.009 988.176 122 112 108
107.812 -11.509 987.858 125 117 111
107.812 -11.009 987.565 133 124 119
107.812 -10.509 987.297 147 138 133
107.812 -10.009 987.093 145 136 131
108.312 -20.509 992.956 139 128 122
108.312 -20.009 992.644 130 119 116
108.312 -19.509 992.403 132 123 118
108.312 -19.009 992.151 133 124 119
108.312 -18.509 991.866 142 132 130
108.312 -18.009 991.615 140 130 128
108.312 -17.509 991.402 131 121 119
108.312 -17.009 991.077 133 124 119
108.312 -16.509 990.776 139 130 125
108.312 -16.009 990.438 133 124 119
108.312 -15.509 990.086 140 131 126
108.312 -15.009 989.820 138 129 124
108.312 -14.509 989.542 138 129 124
108.312 -14.009 989.229 134 125 122
108.312 -13.509 988.888 139 129 127
108.312 -13.009 988.520 140 130 128
108.312 -12.509 988.187 139 129 127
108.312 -12.009 987.847 140 130 126
108.312 -11.509 987.560 136 127 122
108.312 -11.009 987.269 135 126 121
108.812 -20.509 992.722 142 131 125
108.812 -20.009 992.418 141 130 126
108.812 -19.509 992.148 140 131 126
108.812 -19.009 991.886 140 131 126
108.812 -18.509 991.639 142 132 130
108.812 -18.009 991.423 135 125 123
108.812 -17.509 991.189 125 116 113
108.812 -17.009 990.871 115 105 100
108.812 -16.509 990.547 123 115 109
108.812 -16.009 990.202 133 124 119
108.812 -15.509 989.871 140 131 126
108.812 -15.009 989.569 139 130 125
108.812 -14.509 989.260 133 124 119
108.812 -14.009 988.979 131 121 118
108.812 -13.509 988.623 142 132 130
108.812 -13.009 988.281 136 126 124
108.812 -12.509 987.884 132 122 120
108.812 -12.009 987.527 134 124 120
108.812 -11.509 987.256 131 122 117
109.312 -20.509 992.485 133 122 118
109.312 -20.009 992.212 130 121 116
109.312 -19.509 991.934 130 121 116
109.312 -19.009 991.686 137 127 125
109.312 -18.509 991.456 129 121 118
109.312 -18.009 991.229 123 113 114
109.312 -17.509 990.960 121 109 109
109.312 -17.009 990.634 117 105 104
109.312 -16.509 990.333 127 118 114
109.312 -16.009 989.966 137 126 123
109.312 -15.509 989.610 144 131 128
109.312 -15.009 989.337 145 134 128
109.312 -14.509 988.962 133 122 116
109.312 -14.009 988.659 127 118 112
109.312 -13.509 988.346 133 123 121
109.312 -13.009 988.029 134 124 122
109.312 -12.509 987.639 113 103 103
109.312 -12.009 987.292 121 111 110
109.812 -20.509 992.245 129 119 114
109.812 -20.009 991.999 128 118 113
109.812 -19.509 991.754 136 126 124
109.812 -19.009 991.453 124 115 112
109.812 -18.509 991.233 108 98 96
109.812 -18.009 991.047 111 101 103
109.812 -17.509 990.782 124 115 113
109.812 -17.009 990.427 132 122 121
109.812 -16.509 990.083 136 125 123
109.812 -16.009 989.744 138 127 124
109.812 -15.509 989.338 135 124 120
109.812 -15.009 989.048 142 131 125
109.812 -14.509 988.708 146 135 129
109.812 -14.009 988.335 136 127 122
109.812 -13.509 988.045 143 133 131
109.812 -13.009 987.750 131 121 119
109.812 -12.509 987.412 106 96 95
109.812 -12.009 987.142 116 105 106
110.312 -20.509 992.065 133 120 116
