204.812 -172.009 969.507 214 193 174
204.812 -171.509 969.519 216 195 176
204.812 -171.009 969.524 217 196 177
204.812 -170.509 969.514 217 196 177
204.812 -170.009 969.490 220 199 180
204.812 -169.509 969.490 220 199 180
204.812 -169.009 969.502 220 199 180
204.812 -168.509 969.515 220 199 178
204.812 -168.009 969.528 221 200 179
204.812 -167.509 969.541 222 201 180
204.812 -167.009 969.537 223 202 181
204.812 -166.509 969.552 222 201 180
204.812 -166.009 969.581 222 201 180
204.812 -165.509 969.602 220 202 182
204.812 -165.009 969.611 221 203 183
204.812 -164.509 969.610 222 204 184
204.812 -164.009 969.598 223 205 185
204.812 -163.509 969.571 221 203 183
205.312 -172.009 969.511 216 195 175
205.312 -171.509 969.527 217 196 175
205.312 -171.009 969.536 219 198 177
205.312 -170.509 969.519 219 198 177
205.312 -170.009 969.491 220 199 178
205.312 -169.509 969.491 220 199 179
205.312 -169.009 969.511 220 199 179
205.312 -168.509 969.536 219 198 179
205.312 -168.009 969.560 221 200 181
205.312 -167.509 969.567 223 202 182
205.312 -167.009 969.566 223 202 182
205.312 -166.509 969.578 222 201 182
205.312 -166.009 969.597 222 201 182
205.312 -165.509 969.611 222 201 182
205.312 -165.009 969.624 220 199 180
205.312 -164.509 969.624 223 202 183
205.312 -164.009 969.605 226 205 186
205.312 -163.509 969.584 224 203 184
205.812 -170.509 969.552 220 199 178
205.812 -170.009 969.525 220 199 178
205.812 -169.509 969.503 221 200 179
205.812 -169.009 969.521 221 200 179
205.812 -168.509 969.564 220 199 180
205.812 -168.009 969.598 221 200 181
205.812 -167.509 969.595 223 202 183
205.812 -167.009 969.585 223 202 183
205.812 -166.509 969.588 223 202 183
205.812 -166.009 969.596 223 202 183
205.812 -165.509 969.604 222 201 182
205.812 -165.009 969.613 219 198 179
205.812 -164.509 969.615 219 198 179
205.812 -164.009 969.600 221 200 181
205.812 -163.509 969.595 226 205 186
206.312 -170.009 969.537 219 198 177
206.312 -169.509 969.533 221 200 179
206.312 -169.009 969.559 222 201 180
206.312 -168.509 969.600 221 200 181
206.312 -168.009 969.630 221 200 181
206.312 -167.509 969.634 223 202 183
206.312 -167.009 969.619 223 202 183
206.312 -166.509 969.608 223 202 183
206.312 -166.009 969.603 223 202 183
206.312 -165.509 969.598 223 202 183
206.312 -165.009 969.598 221 200 181
206.312 -164.509 969.602 218 197 178
206.312 -164.009 969.602 219 198 179
206.312 -163.509 969.612 223 202 183
206.812 -170.009 969.534 219 198 177
206.812 -169.509 969.541 221 200 179
206.812 -169.009 969.571 221 200 179
206.812 -168.509 969.610 222 201 182
206.812 -168.009 969.648 222 201 182
206.812 -167.509 969.659 224 203 184
206.812 -167.009 969.647 223 202 183
206.812 -166.509 969.625 223 202 183
206.812 -166.009 969.609 223 202 183
206.812 -165.509 969.599 222 201 182
206.812 -165.009 969.591 221 200 181
206.812 -164.509 969.592 218 197 178
206.812 -164.009 969.608 219 198 179
206.812 -163.509 969.628 220 199 180
207.312 -169.009 969.577 221 200 179
207.312 -168.509 969.613 221 200 181
207.312 -168.009 969.657 223 202 183
207.312 -167.509 969.672 225 204 185
207.312 -167.009 969.664 224 203 184
207.312 -166.509 969.649 224 203 184
207.312 -166.009 969.625 224 203 184
207.312 -165.509 969.605 224 203 184
207.312 -165.009 969.587 222 201 182
207.312 -164.509 969.578 220 199 180
207.312 -164.009 969.596 219 198 179
207.312 -163.509 969.625 220 199 180
207.812 -168.509 969.619 220 199 180
207.812 -168.009 969.647 224 203 184
207.812 -167.509 969.672 225 204 185
207.812 -167.009 969.673 225 204 185
207.812 -166.509 969.662 224 203 184
207.812 -166.009 969.636 224 203 184
207.812 -165.509 969.605 223 202 183
207.812 -165.009 969.580 222 201 182
207.812 -164.509 969.567 221 200 181
207.812 -164.009 969.573 219 198 179
207.812 -163.509 969.590 219 198 179
208.312 -168.009 969.645 223 202 183
208.312 -167.509 969.662 223 202 183
208.312 -167.009 969.668 224 203 184
208.312 -166.509 969.668 224 203 184
208.312 -166.009 969.643 224 203 184
208.312 -165.509 969.616 224 203 184
208.312 -165.009 969.596 222 201 182
208.312 -164.509 969.574 222 201 182
208.312 -164.009 969.563 220 199 180
208.312 -163.509 969.570 219 198 179
208.812 -167.509 969.655 223 202 181
208.812 -167.009 969.645 223 202 181
208.812 -166.509 969.643 224 203 182
208.812 -166.009 969.633 223 202 181
208.812 -165.509 969.611 223 202 181
208.812 -165.009 969.590 223 202 181
208.812 -164.509 969.569 222 201 180
208.812 -164.009 969.548 222 201 180
208.812 -163.509 969.545 221 200 179
209.312 -167.009 969.612 223 202 181
209.312 -166.509 969.599 223 202 181
209.312 -166.009 969.598 223 202 181
209.312 -165.509 969.594 222 201 180
209.312 -165.009 969.570 222 201 180
209.312 -164.509 969.539 222 201 180
209.312 -164.009 969.529 222 201 180
209.312 -163.509 969.541 220 199 178
209.812 -167.009 969.582 223 202 181
209.812 -166.509 969.562 222 201 180
209.812 -166.009 969.554 224 203 182
209.812 -165.509 969.555 222 201 180
209.812 -165.009 969.541 222 201 180
209.812 -164.509 969.523 222 201 180
209.812 -164.009 969.514 222 201 180
209.812 -163.509 969.516 220 199 178
210.312 -166.509 969.544 223 202 181
210.312 -166.009 969.522 223 202 181
210.312 -165.509 969.510 222 201 180
210.312 -165.009 969.505 221 200 179
210.312 -164.509 969.500 221 200 179
210.312 -164.009 969.489 221 200 179
210.312 -163.509 969.482 220 199 178
210.812 -166.009 969.490 222 201 180
210.812 -165.509 969.466 222 201 180
210.812 -165.009 969.464 222 201 180
210.812 -164.509 969.459 221 200 179
210.812 -164.009 969.454 220 199 178
210.812 -163.509 969.462 220 199 178
211.312 -165.509 969.460 221 200 179
211.312 -165.009 969.443 221 200 179
211.312 -164.509 969.419 220 199 178
211.312 -164.009 969.415 219 198 177
211.312 -163.509 969.431 220 199 178
211.812 -165.009 969.425 221 200 179
211.812 -164.509 969.397 219 198 177
211.812 -164.009 969.387 219 198 177
211.812 -163.509 969.403 220 199 178
212.312 -164.509 969.384 219 198 177
212.312 -164.009 969.374 218 197 176
212.312 -163.509 969.379 219 198 177
201.812 -163.009 969.449 219 201 181
201.812 -162.509 969.453 216 197 178
201.812 -162.009 969.468 214 195 178
201.812 -161.509 969.485 213 194 177
201.812 -161.009 969.512 214 195 178
201.812 -160.509 969.538 217 198 181
201.812 -160.009 969.567 218 199 182
201.812 -159.509 969.621 218 199 182
201.812 -159.009 969.677 217 198 181
201.812 -158.509 969.720 218 199 182
201.812 -158.009 969.757 219 200 181
201.812 -157.509 969.785 219 201 181
201.812 -157.009 969.815 219 198 179
201.812 -156.509 969.841 219 198 179
201.812 -156.009 969.868 219 198 177
201.812 -155.509 969.902 216 195 174
201.812 -155.009 969.934 218 197 176
201.812 -154.509 969.956 216 198 178
201.812 -154.009 970.056 214 196 176
201.812 -153.509 970.188 213 195 175
201.812 -153.009 970.265 217 198 181
201.812 -152.509 970.363 210 193 175
202.312 -163.009 969.472 221 203 183
202.312 -162.509 969.459 216 198 178
202.312 -162.009 969.465 214 196 176
202.312 -161.509 969.485 214 196 176
202.312 -161.009 969.518 214 196 176
202.312 -160.509 969.545 214 196 176
202.312 -160.009 969.563 216 198 178
202.312 -159.509 969.597 217 199 179
202.312 -159.009 969.654 219 198 179
202.312 -158.509 969.708 222 201 182
202.312 -158.009 969.745 222 201 182
202.312 -157.509 969.764 222 201 182
202.312 -157.009 969.782 221 200 181
202.312 -156.509 969.797 221 200 181
202.312 -156.009 969.831 221 200 181
202.312 -155.509 969.881 217 196 177
202.312 -155.009 969.918 219 198 179
202.312 -154.509 969.939 216 195 176
202.312 -154.009 970.010 215 194 175
202.312 -153.509 970.115 215 194 175
202.312 -153.009 970.218 216 197 178
202.312 -152.509 970.336 214 197 179
202.812 -163.009 969.493 221 203 183
202.812 -162.509 969.476 220 202 182
202.812 -162.009 969.470 217 199 179
202.812 -161.509 969.485 214 196 176
202.812 -161.009 969.522 214 196 176
202.812 -160.509 969.550 213 195 175
202.812 -160.009 969.568 215 197 177
202.812 -159.509 969.597 219 201 181
202.812 -159.009 969.645 219 198 179
202.812 -158.509 969.688 221 200 181
202.812 -158.009 969.717 221 200 181
202.812 -157.509 969.733 222 201 182
202.812 -157.009 969.740 221 200 181
202.812 -156.509 969.743 221 200 181
202.812 -156.009 969.773 222 201 182
202.812 -155.509 969.830 218 197 178
202.812 -155.009 969.884 218 197 178
202.812 -154.509 969.931 219 198 179
202.812 -154.009 969.976 219 198 179
202.812 -153.509 970.045 219 198 179
202.812 -153.009 970.191 218 198 179
202.812 -152.509 970.316 211 194 176
203.312 -163.009 969.507 224 206 186
203.312 -162.509 969.488 220 202 182
203.312 -162.009 969.472 218 200 180
203.312 -161.509 969.480 218 200 180
203.312 -161.009 969.518 215 197 177
203.312 -160.509 969.555 215 197 177
203.312 -160.009 969.580 216 198 178
203.312 -159.509 969.604 219 201 181
203.312 -159.009 969.635 220 199 180
203.312 -158.509 969.659 220 199 180
203.312 -158.009 969.679 220 199 180
203.312 -157.509 969.694 223 202 183
203.312 -157.009 969.701 223 202 183
203.312 -156.509 969.705 220 199 180
203.312 -156.009 969.731 220 199 180
203.312 -155.509 969.785 219 198 179
203.312 -155.009 969.844 216 195 176
203.312 -154.509 969.898 220 199 180
203.312 -154.009 969.945 221 200 181
203.312 -153.509 970.013 218 197 178
203.312 -153.009 970.161 215 194 175
203.312 -152.509 970.282 214 196 177
203.812 -163.009 969.516 225 207 187
203.812 -162.509 969.499 222 204 184
203.812 -162.009 969.486 219 201 181
203.812 -161.509 969.482 219 201 181
203.812 -161.009 969.508 218 200 180
203.812 -160.509 969.556 218 200 180
203.812 -160.009 969.587 218 200 180
203.812 -159.509 969.609 218 200 180
203.812 -159.009 969.634 220 199 180
203.812 -158.509 969.644 218 197 178
203.812 -158.009 969.650 219 198 179
203.812 -157.509 969.663 222 201 182
203.812 -157.009 969.671 224 203 184
203.812 -156.509 969.673 222 201 182
203.812 -156.009 969.689 221 200 181
203.812 -155.509 969.739 220 199 180
203.812 -155.009 969.797 218 197 178
203.812 -154.509 969.852 220 199 180
203.812 -154.009 969.905 222 201 182
203.812 -153.509 969.965 219 198 179
203.812 -153.009 970.088 218 197 178
203.812 -152.509 970.221 213 195 175
204.312 -163.009 969.522 223 205 185
204.312 -162.509 969.505 225 207 187
204.312 -162.009 969.502 217 199 179
204.312 -161.509 969.508 219 201 181
204.312 -161.009 969.530 220 202 182
204.312 -160.509 969.558 219 201 181
204.312 -160.009 969.580 218 200 180
204.312 -159.509 969.605 218 200 180
204.312 -159.009 969.628 219 198 179
204.312 -158.509 969.634 219 198 179
204.312 -158.009 969.637 220 199 180
204.312 -157.509 969.648 221 200 181
204.312 -157.009 969.657 224 203 184
204.312 -156.509 969.658 223 202 183
204.312 -156.009 969.664 224 203 184
204.312 -155.509 969.698 220 199 180
204.312 -155.009 969.752 220 199 180
204.312 -154.509 969.810 220 199 180
204.312 -154.009 969.866 220 199 180
204.312 -153.509 969.921 218 197 178
204.312 -153.009 969.992 218 197 178
204.312 -152.509 970.133 218 200 178
204.812 -163.009 969.537 221 203 183
204.812 -162.509 969.516 224 206 186
204.812 -162.009 969.514 220 202 182
204.812 -161.509 969.528 219 201 181
204.812 -161.009 969.547 220 202 182
204.812 -160.509 969.564 220 202 182
204.812 -160.009 969.581 221 203 183
204.812 -159.509 969.599 218 200 180
204.812 -159.009 969.610 219 198 179
204.812 -158.509 969.611 219 198 179
204.812 -158.009 969.616 220 199 180
204.812 -157.509 969.625 220 199 180
204.812 -157.009 969.628 221 200 181
204.812 -156.509 969.625 221 200 181
204.812 -156.009 969.639 223 202 183
204.812 -155.509 969.672 223 202 183
204.812 -155.009 969.708 222 201 182
204.812 -154.509 969.759 220 199 180
204.812 -154.009 969.808 218 197 178
204.812 -153.509 969.871 218 197 178
204.812 -153.009 969.934 218 197 177
204.812 -152.509 970.063 218 200 176
205.312 -163.009 969.568 221 201 182
205.312 -162.509 969.548 223 202 183
205.312 -162.009 969.541 223 205 185
205.312 -161.509 969.557 219 201 181
205.312 -161.009 969.575 220 202 182
205.312 -160.509 969.581 221 203 183
205.312 -160.009 969.585 222 204 184
205.312 -159.509 969.595 220 202 182
205.312 -159.009 969.603 219 200 180
205.312 -158.509 969.602 218 199 180
205.312 -158.009 969.604 217 199 179
205.312 -157.509 969.609 216 198 178
205.312 -157.009 969.608 218 199 180
205.312 -156.509 969.603 218 200 180
205.312 -156.009 969.625 219 201 181
205.312 -155.509 969.654 222 204 184
205.312 -155.009 969.680 221 202 182
205.312 -154.509 969.718 221 200 181
205.312 -154.009 969.772 220 199 178
205.312 -153.509 969.852 220 199 178
205.312 -153.009 969.924 218 197 176
205.312 -152.509 970.023 219 198 177
205.812 -163.009 969.597 223 202 183
205.812 -162.509 969.595 222 202 182
205.812 -162.009 969.602 223 205 185
205.812 -161.509 969.613 221 203 183
205.812 -161.009 969.625 219 201 181
205.812 -160.509 969.626 221 203 183
205.812 -160.009 969.617 221 203 183
205.812 -159.509 969.614 220 202 182
205.812 -159.009 969.607 219 201 181
205.812 -158.509 969.590 216 198 178
205.812 -158.009 969.585 216 198 178
205.812 -157.509 969.592 218 200 180
205.812 -157.009 969.598 219 201 181
205.812 -156.509 969.597 216 198 178
205.812 -156.009 969.616 217 199 179
205.812 -155.509 969.643 221 203 183
205.812 -155.009 969.667 221 203 183
205.812 -154.509 969.701 222 201 182
205.812 -154.009 969.762 219 198 177
205.812 -153.509 969.842 218 197 176
205.812 -153.009 969.919 218 197 176
205.812 -152.509 969.995 218 197 176
206.312 -163.009 969.624 224 203 184
206.312 -162.509 969.626 223 203 183
206.312 -162.009 969.627 222 204 184
206.312 -161.509 969.639 225 207 187
206.312 -161.009 969.655 224 206 186
206.312 -160.509 969.655 221 203 183
206.312 -160.009 969.642 221 203 183
206.312 -159.509 969.629 219 201 181
206.312 -159.009 969.618 218 200 180
206.312 -158.509 969.598 215 197 177
206.312 -158.009 969.582 213 195 175
206.312 -157.509 969.580 215 197 177
206.312 -157.009 969.583 218 200 180
206.312 -156.509 969.583 216 198 178
206.312 -156.009 969.588 216 198 178
206.312 -155.509 969.606 220 202 182
206.312 -155.009 969.643 220 202 182
206.312 -154.509 969.690 223 202 182
206.312 -154.009 969.760 220 199 178
206.312 -153.509 969.838 219 198 177
206.312 -153.009 969.908 219 198 177
206.312 -152.509 969.960 217 196 175
206.812 -163.009 969.639 224 203 184
206.812 -162.509 969.641 224 204 184
206.812 -162.009 969.646 220 202 182
206.812 -161.509 969.659 224 206 186
206.812 -161.009 969.667 227 209 189
206.812 -160.509 969.666 222 204 184
206.812 -160.009 969.652 221 203 183
206.812 -159.509 969.630 219 201 181
206.812 -159.009 969.618 217 199 179
206.812 -158.509 969.600 215 197 177
206.812 -158.009 969.575 212 194 174
206.812 -157.509 969.556 215 197 177
206.812 -157.009 969.553 217 199 179
206.812 -156.509 969.560 215 197 177
206.812 -156.009 969.570 213 195 175
206.812 -155.509 969.581 218 200 180
206.812 -155.009 969.616 220 202 182
206.812 -154.509 969.670 222 201 182
206.812 -154.009 969.730 222 201 180
206.812 -153.509 969.797 221 200 179
206.812 -153.009 969.856 219 198 177
206.812 -152.509 969.914 217 196 175
207.312 -163.009 969.637 221 200 181
207.312 -162.509 969.643 224 204 185
207.312 -162.009 969.654 223 205 185
207.312 -161.509 969.664 222 204 184
207.312 -161.009 969.670 226 208 188
207.312 -160.509 969.667 224 206 186
207.312 -160.009 969.644 221 203 183
207.312 -159.509 969.615 219 201 181
207.312 -159.009 969.599 217 199 179
207.312 -158.509 969.591 216 198 178
207.312 -158.009 969.575 213 195 175
207.312 -157.509 969.553 215 197 177
207.312 -157.009 969.544 216 198 178
207.312 -156.509 969.544 216 198 178
207.312 -156.009 969.546 214 196 176
207.312 -155.509 969.550 217 199 179
207.312 -155.009 969.567 221 203 183
207.312 -154.509 969.617 224 203 184
207.312 -154.009 969.673 223 202 181
207.312 -153.509 969.734 220 199 178
207.312 -153.009 969.802 219 198 177
207.312 -152.509 969.860 216 195 174
207.812 -163.009 969.599 218 197 178
207.812 -162.509 969.610 224 203 184
207.812 -162.009 969.628 225 207 187
207.812 -161.509 969.643 222 204 184
207.812 -161.009 969.651 224 206 186
207.812 -160.509 969.647 225 207 187
207.812 -160.009 969.624 222 204 184
207.812 -159.509 969.599 219 201 181
207.812 -159.009 969.577 218 200 180
207.812 -158.509 969.556 217 199 179
207.812 -158.009 969.548 214 196 176
207.812 -157.509 969.547 214 196 176
207.812 -157.009 969.554 216 198 178
207.812 -156.509 969.550 217 199 179
207.812 -156.009 969.539 220 202 182
207.812 -155.509 969.533 221 203 183
207.812 -155.009 969.536 222 204 184
207.812 -154.509 969.572 225 204 184
207.812 -154.009 969.617 223 202 181
207.812 -153.509 969.677 220 199 178
207.812 -153.009 969.747 219 198 177
207.812 -152.509 969.798 218 196 175
208.312 -163.009 969.587 220 199 180
208.312 -162.509 969.605 221 200 181
208.312 -162.009 969.625 224 206 186
208.312 -161.509 969.638 222 204 184
208.312 -161.009 969.635 222 204 184
208.312 -160.509 969.619 225 207 187
208.312 -160.009 969.596 226 208 188
208.312 -159.509 969.571 221 203 183
208.312 -159.009 969.552 218 200 180
208.312 -158.509 969.535 217 199 179
208.312 -158.009 969.524 217 199 179
208.312 -157.509 969.517 215 197 177
208.312 -157.009 969.525 217 199 179
208.312 -156.509 969.524 216 198 178
208.312 -156.009 969.509 219 201 181
208.312 -155.509 969.496 222 204 184
208.312 -155.009 969.488 223 205 185
208.312 -154.509 969.528 224 203 184
208.312 -154.009 969.578 224 203 182
208.312 -153.509 969.615 221 200 179
208.312 -153.009 969.681 219 198 177
208.312 -152.509 969.752 220 198 177
208.812 -163.009 969.561 220 199 178
208.812 -162.509 969.586 220 200 179
208.812 -162.009 969.610 220 202 180
208.812 -161.509 969.627 224 206 184
208.812 -161.009 969.622 221 203 181
208.812 -160.509 969.601 224 206 184
208.812 -160.009 969.584 227 209 187
208.812 -159.509 969.558 222 204 182
208.812 -159.009 969.528 219 201 182
208.812 -158.509 969.502 218 199 181
208.812 -158.009 969.490 217 198 180
208.812 -157.509 969.471 216 197 179
208.812 -157.009 969.455 217 198 180
208.812 -156.509 969.463 219 200 182
208.812 -156.009 969.469 221 201 182
208.812 -155.509 969.459 223 202 183
208.812 -155.009 969.453 226 205 186
208.812 -154.509 969.478 224 203 184
208.812 -154.009 969.531 223 202 183
208.812 -153.509 969.578 220 199 180
208.812 -153.009 969.636 217 196 177
208.812 -152.509 969.706 217 196 177
209.312 -163.009 969.565 220 199 178
209.312 -162.509 969.600 219 199 178
209.312 -162.009 969.626 217 199 177
209.312 -161.509 969.629 222 204 182
209.312 -161.009 969.610 223 205 183
209.312 -160.509 969.576 222 204 182
209.312 -160.009 969.547 225 207 185
209.312 -159.509 969.508 223 205 183
209.312 -159.009 969.469 218 200 180
209.312 -158.509 969.449 216 198 178
209.312 -158.009 969.440 216 198 178
209.312 -157.509 969.432 215 197 177
209.312 -157.009 969.427 217 199 179
209.312 -156.509 969.442 220 202 182
209.312 -156.009 969.454 222 202 182
209.312 -155.509 969.443 223 202 183
209.312 -155.009 969.439 225 204 185
209.312 -154.509 969.459 224 203 184
209.312 -154.009 969.508 223 202 183
209.312 -153.509 969.558 220 199 180
209.312 -153.009 969.610 217 196 177
209.312 -152.509 969.673 217 196 177
209.812 -163.009 969.535 219 198 177
209.812 -162.509 969.576 218 198 177
209.812 -162.009 969.606 217 199 177
209.812 -161.509 969.594 218 200 178
209.812 -161.009 969.573 223 205 183
209.812 -160.509 969.549 220 202 180
209.812 -160.009 969.510 222 204 182
209.812 -159.509 969.467 224 206 184
209.812 -159.009 969.439 218 200 180
209.812 -158.509 969.426 214 196 176
209.812 -158.009 969.420 216 198 178
209.812 -157.509 969.423 213 195 175
209.812 -157.009 969.427 215 197 177
209.812 -156.509 969.439 219 201 181
209.812 -156.009 969.444 222 202 183
209.812 -155.509 969.435 223 202 183
209.812 -155.009 969.433 225 204 185
209.812 -154.509 969.451 225 204 185
209.812 -154.009 969.499 224 203 184
209.812 -153.509 969.541 221 200 181
209.812 -153.009 969.593 218 197 178
209.812 -152.509 969.654 216 195 176
210.312 -163.009 969.506 219 198 177
210.312 -162.509 969.554 218 197 176
210.312 -162.009 969.595 219 198 177
210.312 -161.509 969.595 222 201 180
210.312 -161.009 969.557 225 204 183
210.312 -160.509 969.521 223 202 181
210.312 -160.009 969.493 223 202 181
210.312 -159.509 969.462 225 204 183
210.312 -159.009 969.433 225 204 185
210.312 -158.509 969.419 217 196 177
210.312 -158.009 969.417 218 197 178
210.312 -157.509 969.427 217 196 177
210.312 -157.009 969.435 217 196 177
210.312 -156.509 969.433 219 198 179
210.312 -156.009 969.432 222 201 182
210.312 -155.509 969.431 224 203 184
210.312 -155.009 969.431 225 204 185
210.312 -154.509 969.457 224 203 184
210.312 -154.009 969.506 223 202 183
210.312 -153.509 969.547 223 202 183
210.312 -153.009 969.589 221 200 181
210.312 -152.509 969.626 215 194 175
210.812 -163.009 969.482 219 198 177
210.812 -162.509 969.506 218 197 176
210.812 -162.009 969.533 220 199 178
210.812 -161.509 969.542 222 201 180
210.812 -161.009 969.516 223 202 181
210.812 -160.509 969.481 225 204 183
210.812 -160.009 969.458 223 202 181
210.812 -159.509 969.446 223 202 181
210.812 -159.009 969.432 227 206 185
210.812 -158.509 969.419 222 201 180
210.812 -158.009 969.415 220 199 178
210.812 -157.509 969.414 218 197 176
210.812 -157.009 969.422 219 198 177
210.812 -156.509 969.424 220 199 178
210.812 -156.009 969.425 222 201 182
210.812 -155.509 969.423 224 203 184
210.812 -155.009 969.428 224 203 184
210.812 -154.509 969.466 223 202 183
210.812 -154.009 969.514 222 201 182
210.812 -153.509 969.547 222 201 182
210.812 -153.009 969.572 220 199 180
210.812 -152.509 969.602 217 196 177
211.312 -163.009 969.460 219 198 177
211.312 -162.509 969.483 219 198 177
211.312 -162.009 969.496 220 199 178
211.312 -161.509 969.497 221 200 179
211.312 -161.009 969.476 222 201 180
211.312 -160.509 969.455 226 205 184
211.312 -160.009 969.447 223 202 181
211.312 -159.509 969.444 223 202 181
211.312 -159.009 969.438 225 204 183
211.312 -158.509 969.425 224 203 182
211.312 -158.009 969.415 221 200 179
211.312 -157.509 969.422 219 198 177
211.312 -157.009 969.433 221 200 179
211.312 -156.509 969.432 220 199 178
211.312 -156.009 969.427 222 201 182
211.312 -155.509 969.425 224 203 184
211.312 -155.009 969.435 223 202 183
211.312 -154.509 969.476 222 201 182
211.312 -154.009 969.518 219 198 179
211.312 -153.509 969.546 219 198 179
211.312 -153.009 969.570 220 199 180
211.312 -152.509 969.588 218 197 178
211.812 -163.009 969.436 218 197 176
211.812 -162.509 969.451 219 198 177
211.812 -162.009 969.446 222 201 180
211.812 -161.509 969.440 222 201 180
211.812 -161.009 969.431 222 201 180
211.812 -160.509 969.426 223 202 181
211.812 -160.009 969.428 224 203 182
211.812 -159.509 969.432 223 202 181
211.812 -159.009 969.436 223 202 181
211.812 -158.509 969.440 226 205 184
211.812 -158.009 969.431 223 202 181
211.812 -157.509 969.427 220 199 178
211.812 -157.009 969.438 220 199 178
211.812 -156.509 969.439 222 201 180
211.812 -156.009 969.429 223 202 181
211.812 -155.509 969.421 223 202 181
211.812 -155.009 969.428 222 201 180
211.812 -154.509 969.466 220 199 178
211.812 -154.009 969.505 220 199 178
211.812 -153.509 969.539 219 198 177
211.812 -153.009 969.566 220 199 178
211.812 -152.509 969.584 219 198 179
212.312 -163.009 969.393 219 198 177
212.312 -162.509 969.395 221 200 179
212.312 -162.009 969.385 222 201 180
212.312 -161.509 969.384 222 201 180
212.312 -161.009 969.388 222 201 180
212.312 -160.509 969.391 222 201 180
212.312 -160.009 969.402 225 204 183
212.312 -159.509 969.417 223 202 181
212.312 -159.009 969.426 221 200 179
212.312 -158.509 969.432 224 203 182
212.312 -158.009 969.442 225 204 183
212.312 -157.509 969.449 220 199 178
212.312 -157.009 969.460 221 200 179
212.312 -156.509 969.463 224 203 182
212.312 -156.009 969.452 224 203 182
212.312 -155.509 969.447 224 203 182
212.312 -155.009 969.459 222 201 180
212.312 -154.509 969.494 221 200 179
212.312 -154.009 969.519 220 199 178
212.312 -153.509 969.544 219 198 177
212.312 -153.009 969.564 220 199 178
212.312 -152.509 969.580 220 199 180
201.812 -152.009 970.549 201 184 166
201.812 -151.509 970.748 212 195 179
201.812 -151.009 970.982 204 187 171
201.812 -150.509 971.213 203 186 171
201.812 -150.009 971.421 209 192 176
201.812 -149.509 971.745 206 189 171
201.812 -149.009 972.047 204 187 171
201.812 -148.509 972.263 213 196 180
201.812 -148.009 972.530 207 190 174
201.812 -147.509 972.832 210 191 176
201.812 -147.009 973.098 187 168 153
201.812 -146.509 973.352 171 154 139
201.812 -146.009 973.662 179 162 147
201.812 -145.509 974.017 191 175 160
201.812 -145.009 974.294 180 164 149
201.812 -144.509 974.677 177 161 146
201.812 -144.009 975.044 161 145 130
201.812 -143.509 975.261 172 156 141
202.312 -152.009 970.511 194 176 161
202.312 -151.509 970.695 185 168 153
202.312 -151.009 970.868 193 177 162
202.312 -150.509 971.081 196 180 165
202.312 -150.009 971.281 199 184 167
202.312 -149.509 971.587 205 188 171
202.312 -149.009 971.888 208 191 175
202.312 -148.509 972.148 214 197 181
202.312 -148.009 972.394 203 186 171
202.312 -147.509 972.676 191 173 159
202.312 -147.009 973.031 167 148 134
202.312 -146.509 973.279 175 157 143
202.312 -146.009 973.539 184 168 153
202.312 -145.509 973.830 173 157 142
202.312 -145.009 974.130 164 148 133
202.312 -144.509 974.573 163 147 132
202.312 -144.009 974.982 177 161 146
202.312 -143.509 975.214 192 176 161
202.812 -152.009 970.448 188 171 155
202.812 -151.509 970.632 164 146 132
202.812 -151.009 970.778 164 147 132
202.812 -150.509 970.968 185 169 154
202.812 -150.009 971.185 196 180 164
202.812 -149.509 971.485 202 185 167
202.812 -149.009 971.775 199 183 166
202.812 -148.509 972.063 206 189 173
202.812 -148.009 972.263 208 191 175
202.812 -147.509 972.540 185 168 153
202.812 -147.009 972.922 157 139 125
202.812 -146.509 973.163 175 158 144
202.812 -146.009 973.355 192 176 161
202.812 -145.509 973.680 173 157 142
202.812 -145.009 974.036 154 138 123
202.812 -144.509 974.334 181 166 150
202.812 -144.009 974.743 193 177 162
202.812 -143.509 975.088 210 194 179
202.812 -143.009 975.323 217 201 185
203.312 -152.009 970.387 196 179 162
203.312 -151.509 970.553 168 150 135
203.312 -151.009 970.741 168 149 135
203.312 -150.509 970.895 187 169 155
203.312 -150.009 971.106 196 180 164
203.312 -149.509 971.374 201 184 166
203.312 -149.009 971.639 203 186 171
203.312 -148.509 971.924 207 190 174
203.312 -148.009 972.146 210 193 177
203.312 -147.509 972.351 195 177 163
203.312 -147.009 972.709 185 168 153
203.312 -146.509 973.037 186 169 154
203.312 -146.009 973.221 193 177 162
203.312 -145.509 973.582 196 180 165
203.312 -145.009 973.899 176 160 145
203.312 -144.509 974.174 169 153 138
203.312 -144.009 974.566 174 158 143
203.312 -143.509 974.877 203 187 172
203.312 -143.009 975.143 204 188 173
203.812 -152.009 970.351 216 197 180
203.812 -151.509 970.461 199 183 166
203.812 -151.009 970.631 177 159 145
203.812 -150.509 970.819 179 160 146
203.812 -150.009 971.036 195 179 163
203.812 -149.509 971.222 199 183 164
203.812 -149.009 971.505 206 189 173
203.812 -148.509 971.826 209 192 176
203.812 -148.009 972.016 207 190 174
203.812 -147.509 972.235 200 183 168
203.812 -147.009 972.602 199 181 167
203.812 -146.509 972.907 185 168 153
203.812 -146.009 973.126 174 158 143
203.812 -145.509 973.499 186 170 155
203.812 -145.009 973.786 198 183 167
203.812 -144.509 974.058 186 170 155
203.812 -144.009 974.414 160 144 129
203.812 -143.509 974.712 179 162 147
203.812 -143.009 974.957 203 187 172
203.812 -142.509 975.274 201 185 171
204.312 -152.009 970.315 221 203 182
204.312 -151.509 970.420 220 201 186
204.312 -151.009 970.550 199 181 167
204.312 -150.509 970.734 171 153 139
204.312 -150.009 970.909 191 173 158
204.312 -149.509 971.079 203 186 168
204.312 -149.009 971.367 205 188 172
204.312 -148.509 971.675 212 195 179
204.312 -148.009 971.882 207 190 174
204.312 -147.509 972.144 211 193 179
204.312 -147.009 972.511 202 184 171
204.312 -146.509 972.763 179 161 147
204.312 -146.009 972.995 154 138 123
204.312 -145.509 973.323 138 122 107
204.312 -145.009 973.641 158 142 127
204.312 -144.509 973.897 190 174 159
204.312 -144.009 974.217 190 174 159
204.312 -143.509 974.528 199 184 168
204.312 -143.009 974.794 205 189 174
204.312 -142.509 975.136 200 184 170
204.812 -152.009 970.246 219 201 180
204.812 -151.509 970.373 220 201 185
204.812 -151.009 970.457 209 190 175
204.812 -150.509 970.635 174 156 142
204.812 -150.009 970.793 188 170 156
204.812 -149.509 970.932 201 184 166
204.812 -149.009 971.226 197 180 164
204.812 -148.509 971.533 209 192 176
204.812 -148.009 971.737 216 199 183
204.812 -147.509 971.994 216 198 184
204.812 -147.009 972.376 206 188 174
204.812 -146.509 972.680 186 168 154
204.812 -146.009 972.879 148 132 117
204.812 -145.509 973.156 137 121 106
204.812 -145.009 973.473 147 131 116
204.812 -144.509 973.753 167 150 135
204.812 -144.009 974.049 179 162 147
204.812 -143.509 974.329 202 186 171
204.812 -143.009 974.656 202 186 171
204.812 -142.509 975.042 186 170 155
204.812 -142.009 975.353 181 166 149
205.312 -152.009 970.157 215 196 176
205.312 -151.509 970.287 216 198 178
205.312 -151.009 970.392 216 197 181
205.312 -150.509 970.571 193 174 159
205.312 -150.009 970.733 177 160 144
205.312 -149.509 970.873 189 171 157
205.312 -149.009 971.074 196 179 164
205.312 -148.509 971.331 214 198 183
205.312 -148.009 971.620 217 201 186
205.312 -147.509 971.860 214 198 182
205.312 -147.009 972.134 209 193 177
205.312 -146.509 972.501 196 180 164
205.312 -146.009 972.790 168 151 135
205.312 -145.509 973.063 157 140 124
205.312 -145.009 973.360 177 160 144
205.312 -144.509 973.616 196 180 164
205.312 -144.009 973.852 201 185 171
205.312 -143.509 974.166 192 176 161
205.312 -143.009 974.516 193 177 162
205.312 -142.509 974.840 187 171 156
205.312 -142.009 975.164 187 171 155
205.812 -152.009 970.067 216 197 177
205.812 -151.509 970.176 217 199 179
205.812 -151.009 970.321 218 199 182
205.812 -150.509 970.477 203 184 168
205.812 -150.009 970.651 184 168 151
205.812 -149.509 970.824 191 173 161
205.812 -149.009 970.999 197 179 165
205.812 -148.509 971.191 212 194 180
205.812 -148.009 971.462 213 197 182
205.812 -147.509 971.751 212 196 180
205.812 -147.009 971.977 209 193 177
205.812 -146.509 972.259 198 183 166
205.812 -146.009 972.650 172 155 139
205.812 -145.509 972.930 201 184 168
205.812 -145.009 973.140 201 184 168
205.812 -144.509 973.441 198 183 167
205.812 -144.009 973.724 212 196 181
205.812 -143.509 974.013 201 185 171
205.812 -143.009 974.330 184 168 152
205.812 -142.509 974.650 190 174 159
205.812 -142.009 974.972 179 163 148
205.812 -141.509 975.301 194 179 163
206.312 -152.009 970.009 218 197 177
206.312 -151.509 970.073 215 197 177
206.312 -151.009 970.246 215 197 177
206.312 -150.509 970.415 217 198 181
206.312 -150.009 970.567 201 183 165
206.312 -149.509 970.765 187 170 155
206.312 -149.009 970.905 203 185 171
206.312 -148.509 971.114 210 193 179
206.312 -148.009 971.378 209 193 177
206.312 -147.509 971.620 211 195 179
206.312 -147.009 971.856 211 195 179
206.312 -146.509 972.111 203 187 171
206.312 -146.009 972.476 190 173 157
206.312 -145.509 972.772 203 186 171
206.312 -145.009 972.954 199 183 166
206.312 -144.509 973.222 192 176 161
206.312 -144.009 973.529 198 183 167
206.312 -143.509 973.838 183 167 151
206.312 -143.009 974.163 199 184 168
206.312 -142.509 974.458 202 186 171
206.312 -142.009 974.775 196 180 165
206.312 -141.509 975.162 196 180 165
206.812 -152.009 969.959 217 196 175
206.812 -151.509 970.038 215 194 175
206.812 -151.009 970.183 213 194 174
206.812 -150.509 970.332 215 197 179
206.812 -150.009 970.460 214 195 177
206.812 -149.509 970.664 200 183 166
206.812 -149.009 970.827 197 180 164
206.812 -148.509 971.077 202 185 170
206.812 -148.009 971.297 210 193 177
206.812 -147.509 971.526 211 195 179
206.812 -147.009 971.828 211 195 179
206.812 -146.509 972.024 209 193 177
206.812 -146.009 972.302 209 192 176
206.812 -145.509 972.625 207 190 175
206.812 -145.009 972.829 207 189 175
206.812 -144.509 973.113 199 184 168
206.812 -144.009 973.346 187 171 156
206.812 -143.509 973.643 167 150 136
206.812 -143.009 974.022 184 168 152
206.812 -142.509 974.273 193 177 162
206.812 -142.009 974.554 186 170 155
206.812 -141.509 974.925 189 173 158
207.312 -152.009 969.905 216 195 174
207.312 -151.509 970.015 213 192 172
207.312 -151.009 970.142 212 191 172
207.312 -150.509 970.223 214 194 175
207.312 -150.009 970.334 216 198 178
207.312 -149.509 970.529 208 189 172
207.312 -149.009 970.735 180 161 144
207.312 -148.509 971.002 176 157 140
207.312 -148.009 971.210 203 186 171
207.312 -147.509 971.393 207 190 174
207.312 -147.009 971.663 204 187 171
207.312 -146.509 971.899 210 194 178
207.312 -146.009 972.173 213 195 181
207.312 -145.509 972.435 216 198 184
207.312 -145.009 972.714 208 190 176
207.312 -144.509 973.055 172 156 141
207.312 -144.009 973.268 166 149 136
207.312 -143.509 973.499 180 164 151
207.312 -143.009 973.805 190 174 159
207.312 -142.509 974.088 191 175 160
207.312 -142.009 974.336 183 167 151
207.312 -141.509 974.663 172 156 141
207.812 -152.009 969.849 216 194 173
207.812 -151.509 969.921 213 192 171
207.812 -151.009 970.053 212 191 171
207.812 -150.509 970.160 214 193 172
207.812 -150.009 970.227 217 196 175
207.812 -149.509 970.358 215 196 178
207.812 -149.009 970.602 208 189 172
207.812 -148.509 970.831 195 177 160
207.812 -148.009 970.948 192 175 158
207.812 -147.509 971.181 196 179 163
207.812 -147.009 971.485 207 190 174
207.812 -146.509 971.719 211 194 179
207.812 -146.009 972.060 212 194 180
207.812 -145.509 972.345 210 192 178
207.812 -145.009 972.633 197 179 165
207.812 -144.509 972.941 176 160 147
207.812 -144.009 973.166 158 142 129
207.812 -143.509 973.368 168 151 138
207.812 -143.009 973.622 191 175 160
207.812 -142.509 973.880 195 179 164
207.812 -142.009 974.217 197 181 166
207.812 -141.509 974.570 195 179 164
208.312 -152.009 969.804 217 195 174
208.312 -151.509 969.857 214 193 172
208.312 -151.009 969.983 214 193 172
208.312 -150.509 970.099 214 193 172
208.312 -150.009 970.182 217 196 175
208.312 -149.509 970.282 215 197 177
208.312 -149.009 970.463 214 195 178
208.312 -148.509 970.671 206 187 171
208.312 -148.009 970.842 202 184 168
208.312 -147.509 971.102 202 185 170
208.312 -147.009 971.349 204 187 171
208.312 -146.509 971.527 213 195 180
208.312 -146.009 971.872 214 196 182
208.312 -145.509 972.194 208 190 176
208.312 -145.009 972.457 195 177 163
208.312 -144.509 972.754 177 161 148
208.312 -144.009 973.060 150 134 121
208.312 -143.509 973.299 166 149 136
208.312 -143.009 973.494 200 184 170
208.312 -142.509 973.757 200 184 170
208.312 -142.009 974.096 204 188 173
208.312 -141.509 974.424 199 184 168
208.812 -152.009 969.762 213 192 173
208.812 -151.509 969.817 212 191 172
208.812 -151.009 969.897 214 193 174
208.812 -150.509 970.019 215 194 175
208.812 -150.009 970.123 215 194 175
208.812 -149.509 970.250 216 198 178
208.812 -149.009 970.363 216 198 178
208.812 -148.509 970.556 199 183 162
208.812 -148.009 970.715 198 181 163
208.812 -147.509 970.936 199 183 166
208.812 -147.009 971.158 200 184 168
208.812 -146.509 971.326 213 197 181
208.812 -146.009 971.675 213 197 181
208.812 -145.509 972.061 211 195 179
208.812 -145.009 972.296 206 190 175
208.812 -144.509 972.548 193 177 162
208.812 -144.009 972.860 163 147 132
208.812 -143.509 973.110 191 175 162
208.812 -143.009 973.357 206 189 179
208.812 -142.509 973.617 193 176 165
208.812 -142.009 973.922 187 171 158
208.812 -141.509 974.189 179 162 149
209.312 -152.009 969.723 213 192 173
209.312 -151.509 969.764 213 192 173
209.312 -151.009 969.806 211 190 171
209.312 -150.509 969.946 215 194 175
209.312 -150.009 970.062 215 194 175
209.312 -149.509 970.182 215 197 177
209.312 -149.009 970.296 215 197 177
209.312 -148.509 970.415 200 184 163
209.312 -148.009 970.592 183 166 147
209.312 -147.509 970.774 191 174 158
209.312 -147.009 970.974 195 179 163
209.312 -146.509 971.248 208 192 176
209.312 -146.009 971.569 211 195 179
209.312 -145.509 971.832 214 198 182
209.312 -145.009 972.146 213 197 182
209.312 -144.509 972.354 206 190 175
209.312 -144.009 972.639 196 180 165
209.312 -143.509 972.917 204 188 175
209.312 -143.009 973.140 194 177 167
209.312 -142.509 973.396 158 141 131
209.312 -142.009 973.651 164 148 135
209.312 -141.509 973.973 166 149 136
209.812 -152.009 969.700 214 193 174
209.812 -151.509 969.732 215 194 175
209.812 -151.009 969.765 215 194 175
209.812 -150.509 969.886 216 195 176
209.812 -150.009 970.005 214 193 174
209.812 -149.509 970.063 213 195 175
209.812 -149.009 970.186 216 198 178
209.812 -148.509 970.302 214 196 176
209.812 -148.009 970.430 201 184 166
209.812 -147.509 970.626 185 168 152
209.812 -147.009 970.909 203 186 171
209.812 -146.509 971.191 212 196 180
209.812 -146.009 971.500 212 196 180
209.812 -145.509 971.764 216 200 184
209.812 -145.009 972.082 214 198 183
209.812 -144.509 972.309 211 195 180
209.812 -144.009 972.521 200 184 170
209.812 -143.509 972.766 175 159 146
209.812 -143.009 973.023 146 129 119
209.812 -142.509 973.254 144 128 117
209.812 -142.009 973.500 161 145 132
209.812 -141.509 973.805 180 164 151
210.312 -152.009 969.675 213 192 173
210.312 -151.509 969.712 213 192 173
210.312 -151.009 969.735 216 195 176
210.312 -150.509 969.768 217 196 177
210.312 -150.009 969.879 213 192 173
210.312 -149.509 969.991 213 195 175
210.312 -149.009 970.057 215 197 177
210.312 -148.509 970.187 215 197 178
210.312 -148.009 970.304 204 185 168
210.312 -147.509 970.461 190 173 157
210.312 -147.009 970.781 194 177 161
210.312 -146.509 971.052 208 191 175
210.312 -146.009 971.304 211 195 179
210.312 -145.509 971.624 213 197 181
210.312 -145.009 971.935 215 199 184
210.312 -144.509 972.206 209 193 178
210.312 -144.009 972.454 177 161 146
210.312 -143.509 972.678 141 125 112
210.312 -143.009 972.892 141 124 114
210.312 -142.509 973.113 142 125 116
210.312 -142.009 973.304 163 147 134
210.312 -141.509 973.544 192 176 163
210.812 -152.009 969.646 215 194 175
210.812 -151.509 969.691 214 193 174
210.812 -151.009 969.727 217 196 177
210.812 -150.509 969.751 217 196 177
210.812 -150.009 969.779 214 193 174
210.812 -149.509 969.907 212 191 172
210.812 -149.009 970.011 215 196 176
210.812 -148.509 970.070 215 197 178
210.812 -148.009 970.217 210 191 174
210.812 -147.509 970.428 205 187 171
210.812 -147.009 970.656 199 183 166
210.812 -146.509 970.939 202 185 170
210.812 -146.009 971.214 210 194 178
210.812 -145.509 971.477 213 197 181
210.812 -145.009 971.716 216 200 185
210.812 -144.509 972.037 212 196 181
210.812 -144.009 972.269 191 175 160
210.812 -143.509 972.554 166 149 136
210.812 -143.009 972.804 153 136 126
210.812 -142.509 972.950 164 147 136
210.812 -142.009 973.154 186 170 157
210.812 -141.509 973.376 190 174 161
211.312 -152.009 969.610 217 196 177
211.312 -151.509 969.653 216 195 176
211.312 -151.009 969.705 216 195 176
211.312 -150.509 969.735 217 196 177
211.312 -150.009 969.762 217 196 177
211.312 -149.509 969.861 212 191 172
211.312 -149.009 969.971 214 193 174
211.312 -148.509 970.040 216 196 177
211.312 -148.009 970.170 201 183 165
211.312 -147.509 970.365 184 166 150
211.312 -147.009 970.566 185 167 151
211.312 -146.509 970.804 185 168 152
211.312 -146.009 971.091 194 179 162
211.312 -145.509 971.388 209 193 177
211.312 -145.009 971.568 211 195 180
211.312 -144.509 971.832 213 197 182
211.312 -144.009 972.127 205 189 174
211.312 -143.509 972.403 202 186 173
211.312 -143.009 972.639 185 168 158
211.312 -142.509 972.823 168 150 140
211.312 -142.009 973.020 160 144 131
211.312 -141.509 973.244 176 160 147
211.812 -152.009 969.600 219 198 179
211.812 -151.509 969.631 217 196 177
211.812 -151.009 969.671 215 194 175
211.812 -150.509 969.709 214 193 174
211.812 -150.009 969.748 217 196 177
211.812 -149.509 969.789 211 190 171
211.812 -149.009 969.892 212 191 174
211.812 -148.509 969.979 215 195 178
211.812 -148.009 970.108 190 171 155
211.812 -147.509 970.220 172 155 139
211.812 -147.009 970.413 187 169 155
211.812 -146.509 970.658 191 174 158
211.812 -146.009 970.947 193 176 158
211.812 -145.509 971.232 203 186 171
211.812 -145.009 971.446 211 194 178
211.812 -144.509 971.632 215 197 182
211.812 -144.009 971.888 214 196 182
211.812 -143.509 972.204 209 191 177
211.812 -143.009 972.452 193 177 164
211.812 -142.509 972.677 153 137 124
211.812 -142.009 972.918 144 128 113
211.812 -141.509 973.129 164 148 133
212.312 -152.009 969.588 220 199 180
212.312 -151.509 969.598 218 197 178
212.312 -151.009 969.620 217 196 177
212.312 -150.509 969.663 215 194 175
212.312 -150.009 969.706 217 196 177
212.312 -149.509 969.776 215 194 175
212.312 -149.009 969.866 213 192 173
212.312 -148.509 969.916 214 193 176
212.312 -148.009 970.013 195 176 160
212.312 -147.509 970.147 171 154 138
212.312 -147.009 970.300 181 163 149
212.312 -146.509 970.508 200 183 168
212.312 -146.009 970.801 184 168 149
212.312 -145.509 971.077 200 184 167
212.312 -145.009 971.292 212 195 179
212.312 -144.509 971.486 214 197 181
212.312 -144.009 971.690 214 196 182
212.312 -143.509 972.008 212 194 180
212.312 -143.009 972.298 196 180 167
212.312 -142.509 972.551 159 143 130
212.312 -142.009 972.772 147 131 116
212.312 -141.509 972.968 168 152 137
206.812 -141.009 975.366 192 176 161
207.312 -141.009 975.080 181 166 150
207.312 -140.509 975.394 194 179 163
207.812 -141.009 974.870 190 174 159
207.812 -140.509 975.191 187 171 156
208.312 -141.009 974.703 185 169 154
208.312 -140.509 975.056 192 176 161
208.312 -140.009 975.356 187 169 155
208.812 -141.009 974.544 175 159 146
208.812 -140.509 974.897 172 156 141
208.812 -140.009 975.126 183 164 151
208.812 -139.509 975.393 199 181 167
209.312 -141.009 974.274 166 149 136
209.312 -140.509 974.634 161 145 130
209.312 -140.009 974.952 184 167 152
209.312 -139.509 975.187 203 185 171
209.812 -141.009 974.154 179 162 149
209.812 -140.509 974.534 185 169 154
209.812 -140.009 974.795 199 181 167
209.812 -139.509 975.028 200 183 168
209.812 -139.009 975.342 184 168 151
210.312 -141.009 973.857 195 179 166
210.312 -140.509 974.231 195 179 164
210.312 -140.009 974.580 200 184 168
210.312 -139.509 974.841 200 184 167
210.312 -139.009 975.103 201 184 168
210.312 -138.509 975.375 206 189 171
210.812 -141.009 973.661 185 169 156
210.812 -140.509 973.988 181 166 150
210.812 -140.009 974.354 201 184 170
210.812 -139.509 974.681 206 189 173
210.812 -139.009 974.920 210 193 175
210.812 -138.509 975.156 209 192 174
210.812 -138.009 975.428 201 184 167
211.312 -141.009 973.537 191 175 162
211.312 -140.509 973.823 198 183 167
211.312 -140.009 974.120 205 189 173
211.312 -139.509 974.411 211 194 178
211.312 -139.009 974.676 218 201 183
211.312 -138.509 974.979 218 201 183
211.312 -138.009 975.263 208 191 175
211.812 -141.009 973.348 195 179 164
211.812 -140.509 973.641 210 194 178
211.812 -140.009 973.952 208 191 175
211.812 -139.509 974.230 206 189 173
211.812 -139.009 974.472 207 190 174
211.812 -138.509 974.740 197 180 164
211.812 -138.009 975.037 186 169 153
211.812 -137.509 975.328 200 184 167
212.312 -141.009 973.206 196 180 165
212.312 -140.509 973.516 206 190 174
212.312 -140.009 973.791 180 163 147
212.312 -139.509 974.052 191 174 158
212.312 -139.009 974.303 201 184 168
212.312 -138.509 974.554 185 168 152
212.312 -138.009 974.803 185 168 152
212.312 -137.509 975.083 206 189 173
212.312 -137.009 975.367 214 197 181
212.812 -164.509 969.381 219 198 177
212.812 -164.009 969.359 218 197 176
212.812 -163.509 969.352 216 195 174
213.312 -164.009 969.364 218 197 176
213.312 -163.509 969.345 218 197 176
213.812 -163.509 969.378 219 198 177
212.812 -163.009 969.362 218 197 176
212.812 -162.509 969.369 221 200 179
212.812 -162.009 969.367 222 201 180
212.812 -161.509 969.366 222 201 180
212.812 -161.009 969.367 222 201 180
212.812 -160.509 969.370 221 200 179
212.812 -160.009 969.383 224 203 182
212.812 -159.509 969.401 224 203 182
212.812 -159.009 969.412 219 198 177
212.812 -158.509 969.425 220 199 178
212.812 -158.009 969.451 225 204 183
212.812 -157.509 969.473 223 202 181
212.812 -157.009 969.482 222 201 180
212.812 -156.509 969.489 223 202 181
212.812 -156.009 969.489 225 204 183
212.812 -155.509 969.492 224 203 182
212.812 -155.009 969.504 222 201 180
212.812 -154.509 969.526 221 200 179
212.812 -154.009 969.536 220 199 178
212.812 -153.509 969.553 219 198 177
212.812 -153.009 969.574 219 198 177
212.812 -152.509 969.582 219 198 179
213.312 -163.009 969.347 219 198 177
213.312 -162.509 969.350 220 199 178
213.312 -162.009 969.348 221 200 179
213.312 -161.509 969.344 222 201 180
213.312 -161.009 969.341 222 201 180
213.312 -160.509 969.340 222 201 180
213.312 -160.009 969.341 222 201 180
213.312 -159.509 969.357 224 203 182
213.312 -159.009 969.380 220 199 178
213.312 -158.509 969.402 218 197 176
213.312 -158.009 969.430 224 203 182
213.312 -157.509 969.462 226 205 184
213.312 -157.009 969.483 223 202 181
213.312 -156.509 969.497 222 201 180
213.312 -156.009 969.507 223 202 181
213.312 -155.509 969.515 223 202 181
213.312 -155.009 969.520 220 199 178
213.312 -154.509 969.523 220 199 178
213.312 -154.009 969.531 218 197 176
213.312 -153.509 969.549 218 197 176
213.312 -153.009 969.560 218 197 176
213.312 -152.509 969.567 218 197 178
213.812 -163.009 969.377 220 199 178
213.812 -162.509 969.367 221 200 179
213.812 -162.009 969.352 222 201 180
213.812 -161.509 969.339 222 201 180
213.812 -161.009 969.328 223 202 181
213.812 -160.509 969.322 223 202 181
213.812 -160.009 969.321 221 200 179
213.812 -159.509 969.333 221 200 179
213.812 -159.009 969.357 222 201 180
213.812 -158.509 969.385 218 197 176
213.812 -158.009 969.412 220 199 178
213.812 -157.509 969.439 226 205 184
213.812 -157.009 969.466 223 202 181
213.812 -156.509 969.488 221 200 179
213.812 -156.009 969.504 221 200 179
213.812 -155.509 969.521 223 202 181
213.812 -155.009 969.538 220 199 178
213.812 -154.509 969.544 218 197 176
213.812 -154.009 969.549 218 197 176
213.812 -153.509 969.563 218 197 176
213.812 -153.009 969.569 218 197 176
213.812 -152.509 969.569 217 196 177
214.312 -163.009 969.393 220 199 178
214.312 -162.509 969.382 221 200 179
214.312 -162.009 969.366 221 200 179
214.312 -161.509 969.351 222 201 180
214.312 -161.009 969.342 223 202 181
214.312 -160.509 969.331 224 203 182
214.312 -160.009 969.325 223 202 181
214.312 -159.509 969.332 221 200 179
214.312 -159.009 969.346 222 201 180
214.312 -158.509 969.369 220 199 178
214.312 -158.009 969.396 219 198 177
214.312 -157.509 969.423 223 202 181
214.312 -157.009 969.447 225 204 183
214.312 -156.509 969.469 221 200 179
214.312 -156.009 969.488 221 200 179
214.312 -155.509 969.509 222 201 180
214.312 -155.009 969.530 219 198 177
214.312 -154.509 969.531 218 197 176
214.312 -154.009 969.538 217 196 175
214.312 -153.509 969.554 218 197 176
214.312 -153.009 969.561 219 198 177
214.312 -152.509 969.559 218 197 178
214.812 -162.509 969.372 220 199 178
214.812 -162.009 969.365 220 199 178
214.812 -161.509 969.359 222 201 180
214.812 -161.009 969.359 223 202 181
214.812 -160.509 969.356 224 203 182
214.812 -160.009 969.345 224 203 182
214.812 -159.509 969.340 222 201 180
214.812 -159.009 969.345 221 200 179
214.812 -158.509 969.365 221 200 179
214.812 -158.009 969.392 221 200 179
214.812 -157.509 969.413 220 199 178
214.812 -157.009 969.431 226 205 184
214.812 -156.509 969.450 222 201 180
214.812 -156.009 969.461 221 200 179
214.812 -155.509 969.473 221 200 179
214.812 -155.009 969.489 218 197 176
214.812 -154.509 969.504 218 197 176
214.812 -154.009 969.527 217 196 175
214.812 -153.509 969.548 216 195 174
214.812 -153.009 969.563 217 196 175
214.812 -152.509 969.556 219 198 178
215.312 -162.009 969.368 219 198 177
215.312 -161.509 969.365 220 199 178
215.312 -161.009 969.368 221 200 179
215.312 -160.509 969.376 223 202 181
215.312 -160.009 969.370 223 202 181
215.312 -159.509 969.361 222 201 180
215.312 -159.009 969.360 221 200 179
215.312 -158.509 969.373 222 201 180
215.312 -158.009 969.390 221 200 179
215.312 -157.509 969.407 221 200 179
215.312 -157.009 969.419 225 204 183
215.312 -156.509 969.435 224 203 182
215.312 -156.009 969.439 220 199 178
215.312 -155.509 969.430 221 200 179
