105.312 52.991 979.756 158 148 146
105.312 53.491 979.558 163 153 151
105.312 53.991 979.329 151 143 140
105.312 54.491 979.061 145 137 134
105.312 54.991 978.663 147 139 135
105.312 55.491 978.363 142 134 131
105.812 45.491 976.166 191 184 172
105.812 45.991 977.034 184 174 165
105.812 46.491 977.886 167 157 150
105.812 46.991 978.625 149 140 135
105.812 47.491 979.097 138 128 126
105.812 47.991 979.394 136 128 126
105.812 48.491 979.546 133 124 125
105.812 48.991 979.606 130 124 124
105.812 49.491 979.644 137 128 129
105.812 49.991 979.658 135 127 126
105.812 50.491 979.668 132 124 122
105.812 50.991 979.663 128 119 117
105.812 51.491 979.512 134 124 123
105.812 51.991 979.274 141 131 130
105.812 52.491 979.159 148 138 137
105.812 52.991 979.116 135 127 125
105.812 53.491 978.945 134 126 123
105.812 53.991 978.667 134 126 123
105.812 54.491 978.368 128 123 119
105.812 54.991 978.101 133 128 124
105.812 55.491 977.859 127 119 117
106.312 45.991 975.877 194 186 175
106.312 46.491 976.778 186 177 168
106.312 46.991 977.616 169 160 153
106.312 47.491 978.275 150 141 136
106.312 47.991 978.666 140 130 128
106.312 48.491 978.805 137 127 126
106.312 48.991 978.906 135 127 125
106.312 49.491 979.061 134 126 124
106.312 49.991 979.138 134 126 124
106.312 50.491 979.132 133 124 125
106.312 50.991 979.089 124 116 116
106.312 51.491 978.897 123 115 116
106.312 51.991 978.644 135 126 124
106.312 52.491 978.532 150 140 138
106.312 52.991 978.403 141 133 130
106.312 53.491 978.225 128 120 117
106.312 53.991 978.007 132 126 123
106.312 54.491 977.758 126 121 118
106.312 54.991 977.621 128 123 120
106.312 55.491 977.445 129 123 123
106.812 46.491 975.708 190 183 172
106.812 46.991 976.329 184 175 166
106.812 47.491 977.123 173 164 157
106.812 47.991 977.765 154 145 140
106.812 48.491 977.999 147 137 134
106.812 48.991 978.128 143 135 132
106.812 49.491 978.283 142 134 132
106.812 49.991 978.385 142 134 132
106.812 50.491 978.398 145 137 135
106.812 50.991 978.331 139 130 131
106.812 51.491 978.208 129 120 121
106.812 51.991 978.091 143 134 132
106.812 52.491 977.971 157 149 146
106.812 52.991 977.789 148 140 137
106.812 53.491 977.581 139 131 128
106.812 53.991 977.422 133 127 124
106.812 54.491 977.199 135 130 127
106.812 54.991 976.984 134 129 126
106.812 55.491 976.800 129 124 121
107.312 46.991 975.469 177 169 158
107.312 47.491 976.061 184 175 166
107.312 47.991 976.649 172 163 156
107.312 48.491 977.036 153 144 137
107.312 48.991 977.309 143 134 132
107.312 49.491 977.540 143 134 132
107.312 49.991 977.614 140 132 130
107.312 50.491 977.597 135 127 125
107.312 50.991 977.558 131 122 123
107.312 51.491 977.465 129 120 121
107.312 51.991 977.325 134 126 125
107.312 52.491 977.157 147 139 137
107.312 52.991 977.025 153 145 143
107.312 53.491 976.944 149 141 139
107.312 53.991 976.850 153 145 143
107.312 54.491 976.652 141 133 131
107.312 54.991 976.384 131 123 121
107.312 55.491 976.034 132 127 124
107.812 47.991 975.704 181 171 162
107.812 48.491 976.229 170 160 152
107.812 48.991 976.615 154 145 139
107.812 49.491 976.764 145 136 131
107.812 49.991 976.781 142 133 130
107.812 50.491 976.840 134 126 124
107.812 50.991 976.893 128 119 120
107.812 51.491 976.823 129 123 123
107.812 51.991 976.666 130 123 122
107.812 52.491 976.439 129 121 119
107.812 52.991 976.265 132 124 122
107.812 53.491 976.148 141 133 131
107.812 53.991 976.087 154 146 144
107.812 54.491 975.965 140 132 130
107.812 54.991 975.689 135 127 125
108.312 48.491 975.461 184 174 165
108.312 48.991 975.933 169 160 153
108.312 49.491 976.174 151 142 137
108.312 49.991 976.297 146 137 134
108.312 50.491 976.363 138 130 128
108.312 50.991 976.365 127 122 119
108.312 51.491 976.245 126 120 120
108.312 51.991 976.086 121 116 116
108.312 52.491 975.874 124 119 118
108.312 52.991 975.618 124 119 118
108.812 49.991 975.608 150 142 138
108.812 50.491 975.720 145 137 135
108.812 50.991 975.713 137 132 129
108.812 51.491 975.598 131 125 125
108.812 51.991 975.461 124 119 120
102.312 55.991 981.808 122 119 119
102.312 56.491 981.275 121 117 120
102.312 56.991 980.707 121 117 120
102.312 57.491 980.258 120 116 119
102.312 57.991 979.887 122 118 121
102.312 58.491 979.475 121 117 122
102.312 58.991 978.947 112 107 114
102.312 59.491 978.419 107 102 109
102.312 59.991 977.978 104 99 105
102.312 60.491 977.608 104 99 105
102.312 60.991 977.138 105 100 106
102.312 61.491 976.685 107 102 108
102.312 61.991 976.292 111 106 112
102.312 62.491 975.856 119 112 116
102.812 55.991 981.116 136 130 131
102.812 56.491 980.651 136 130 131
102.812 56.991 980.192 130 124 127
102.812 57.491 979.747 127 122 125
102.812 57.991 979.390 128 123 127
102.812 58.491 979.023 129 123 129
102.812 58.991 978.491 115 108 116
102.812 59.491 977.997 107 101 107
102.812 59.991 977.560 105 100 106
102.812 60.491 977.185 111 106 112
102.812 60.991 976.744 108 103 109
102.812 61.491 976.263 109 104 110
102.812 61.991 975.779 107 102 108
103.312 55.991 980.501 137 129 127
103.312 56.491 980.078 138 129 130
103.312 56.991 979.770 134 125 126
103.312 57.491 979.422 122 117 118
103.312 57.991 979.015 121 116 118
103.312 58.491 978.572 118 111 116
103.312 58.991 978.046 107 101 105
103.312 59.491 977.611 104 98 103
103.312 59.991 977.176 107 102 108
103.312 60.491 976.783 112 107 113
103.312 60.991 976.337 109 104 110
103.312 61.491 975.775 109 104 111
103.812 55.991 979.920 143 135 132
103.812 56.491 979.565 152 144 142
103.812 56.991 979.245 141 133 132
103.812 57.491 978.854 123 118 117
103.812 57.991 978.481 111 105 107
103.812 58.491 978.033 106 100 104
103.812 58.991 977.575 105 99 103
103.812 59.491 977.193 105 100 104
103.812 59.991 976.819 116 110 116
103.812 60.491 976.407 115 109 116
103.812 60.991 975.934 106 101 107
104.312 55.991 979.262 142 134 130
104.312 56.491 978.984 148 140 137
104.312 56.991 978.651 143 135 133
104.312 57.491 978.322 135 130 128
104.312 57.991 977.949 119 112 112
104.312 58.491 977.568 115 108 110
104.312 58.991 977.151 112 106 110
104.312 59.491 976.764 113 107 111
104.312 59.991 976.396 121 117 120
104.312 60.491 975.974 116 110 116
104.812 55.991 978.670 150 142 138
104.812 56.491 978.357 147 139 136
104.812 56.991 978.075 146 138 136
104.812 57.491 977.810 143 138 136
104.812 57.991 977.495 123 118 118
104.812 58.491 977.151 117 110 112
104.812 58.991 976.689 125 119 121
104.812 59.491 976.332 123 118 121
104.812 59.991 975.969 122 118 121
105.312 55.991 978.084 148 140 137
105.312 56.491 977.851 146 137 137
105.312 56.991 977.552 147 138 139
105.312 57.491 977.269 128 122 124
105.312 57.991 977.027 122 117 118
105.312 58.491 976.637 117 110 112
105.312 58.991 976.194 127 121 123
105.312 59.491 975.908 131 126 127
105.312 59.991 975.502 126 122 125
105.812 55.991 977.575 134 125 125
105.812 56.491 977.319 132 123 124
105.812 56.991 976.994 126 118 120
105.812 57.491 976.643 123 118 119
105.812 57.991 976.397 121 116 119
105.812 58.491 976.075 125 119 121
105.812 58.991 975.741 128 122 124
106.312 55.991 977.105 129 123 123
106.312 56.491 976.702 129 123 123
106.312 56.991 976.387 125 119 119
106.312 57.491 976.087 125 119 121
106.312 57.991 975.806 125 119 121
106.312 58.491 975.504 126 120 122
106.812 55.991 976.514 132 127 125
106.812 56.491 976.115 135 129 129
106.812 56.991 975.804 127 121 121
106.812 57.491 975.490 124 119 118
107.312 55.991 975.667 135 130 127
113.312 26.491 984.565 142 133 128
113.312 26.991 984.529 141 131 129
113.312 27.491 984.378 135 125 123
113.312 27.991 984.196 134 127 127
113.312 28.491 984.020 125 121 122
113.312 28.991 983.814 120 116 119
113.312 29.491 983.437 112 110 116
113.312 29.991 983.051 110 108 113
113.312 30.491 982.645 101 99 104
113.312 30.991 982.200 101 99 104
113.312 31.491 981.644 102 100 105
113.312 31.991 981.089 107 105 110
113.312 32.491 980.509 105 103 108
113.312 32.991 980.049 104 102 107
113.312 33.491 979.560 105 103 108
113.812 25.991 983.868 156 145 139
113.812 26.491 984.057 151 142 137
113.812 26.991 984.129 135 125 123
113.812 27.491 984.072 130 120 118
113.812 27.991 983.950 121 116 114
113.812 28.491 983.798 119 116 116
113.812 28.991 983.524 117 111 116
113.812 29.491 983.175 115 112 117
113.812 29.991 982.830 110 108 113
113.812 30.491 982.459 105 103 108
113.812 30.991 982.042 100 98 103
113.812 31.491 981.549 102 100 105
113.812 31.991 981.058 102 100 105
113.812 32.491 980.490 107 105 110
113.812 32.991 979.944 108 106 111
113.812 33.491 979.352 105 103 108
114.312 26.491 983.554 157 148 143
114.312 26.991 983.657 142 132 130
114.312 27.491 983.662 131 121 119
114.312 27.991 983.607 121 115 114
114.312 28.491 983.458 119 115 116
114.312 28.991 983.186 117 111 116
114.312 29.491 982.861 113 111 116
114.312 29.991 982.514 109 107 112
114.312 30.491 982.180 103 101 106
114.312 30.991 981.846 106 104 109
114.312 31.491 981.400 104 102 107
114.312 31.991 980.942 100 98 103
114.312 32.491 980.413 110 108 113
114.312 32.991 979.843 108 106 111
114.312 33.491 979.204 106 104 109
114.812 26.991 983.216 150 140 138
114.812 27.491 983.239 141 131 129
114.812 27.991 983.208 132 125 125
114.812 28.491 983.102 120 117 117
114.812 28.991 982.893 117 111 116
114.812 29.491 982.556 107 105 110
114.812 29.991 982.233 111 109 114
114.812 30.491 981.928 104 102 107
114.812 30.991 981.607 106 104 109
114.812 31.491 981.198 107 105 110
114.812 31.991 980.749 104 102 107
114.812 32.491 980.262 109 107 112
114.812 32.991 979.725 109 107 112
114.812 33.491 979.055 106 104 109
115.312 27.491 982.975 149 139 137
115.312 27.991 982.886 134 128 127
115.312 28.491 982.759 122 119 119
115.312 28.991 982.553 109 104 108
115.312 29.491 982.257 102 100 105
115.312 29.991 981.953 99 97 103
115.312 30.491 981.643 101 99 104
115.312 30.991 981.379 103 101 106
115.312 31.491 981.060 106 104 109
115.312 31.991 980.630 103 101 106
115.312 32.491 980.170 115 112 117
115.312 32.991 979.639 111 109 114
115.312 33.491 978.950 107 105 110
115.812 27.991 982.585 130 124 122
115.812 28.491 982.409 119 116 116
115.812 28.991 982.209 109 104 108
115.812 29.491 981.944 103 100 106
115.812 29.991 981.663 99 96 103
115.812 30.491 981.428 95 92 99
115.812 30.991 981.212 98 96 102
115.812 31.491 980.922 100 98 103
115.812 31.991 980.554 105 103 107
115.812 32.491 980.137 110 108 111
115.812 32.991 979.613 108 106 111
115.812 33.491 978.930 103 101 106
116.312 28.491 982.167 116 111 112
116.312 28.991 981.964 108 103 107
116.312 29.491 981.722 101 99 103
116.312 29.991 981.478 98 95 103
116.312 30.491 981.265 96 93 100
116.312 30.991 981.044 105 103 108
116.312 31.491 980.782 104 102 107
116.312 31.991 980.423 104 102 107
116.312 32.491 979.994 104 102 105
116.312 32.991 979.475 102 100 105
116.312 33.491 978.833 102 100 105
116.812 28.991 981.809 110 106 108
116.812 29.491 981.590 101 97 102
116.812 29.991 981.333 96 93 99
116.812 30.491 981.104 98 95 102
116.812 30.991 980.915 105 103 108
116.812 31.491 980.637 104 102 107
116.812 31.991 980.255 104 102 107
116.812 32.491 979.794 104 102 107
116.812 32.991 979.293 104 102 107
116.812 33.491 978.736 105 103 108
117.312 29.491 981.424 108 104 108
117.312 29.991 981.159 98 96 102
117.312 30.491 980.955 101 99 104
117.312 30.991 980.752 108 106 111
117.312 31.491 980.411 106 104 109
117.312 31.991 980.058 103 101 106
117.312 32.491 979.631 104 102 107
117.312 32.991 979.153 104 102 107
117.312 33.491 978.690 105 103 108
117.812 29.991 981.004 101 99 104
117.812 30.491 980.799 100 98 103
117.812 30.991 980.529 108 106 111
117.812 31.491 980.169 105 103 109
117.812 31.991 979.792 104 101 108
117.812 32.491 979.385 106 103 110
117.812 32.991 978.928 108 106 111
117.812 33.491 978.555 110 108 113
118.312 29.991 980.839 105 103 108
118.312 30.491 980.609 103 101 106
118.312 30.991 980.306 105 103 108
118.312 31.491 979.954 101 98 104
118.312 31.991 979.577 100 97 104
118.312 32.491 979.190 104 101 108
118.312 32.991 978.757 107 105 110
118.312 33.491 978.389 110 108 113
118.812 29.991 980.604 105 102 106
118.812 30.491 980.338 100 98 103
118.812 30.991 980.059 100 98 103
118.812 31.491 979.769 100 97 103
118.812 31.991 979.408 95 92 99
118.812 32.491 979.037 98 95 103
118.812 32.991 978.638 100 98 104
118.812 33.491 978.246 104 101 107
119.312 29.991 980.283 109 104 108
119.312 30.491 980.043 101 96 103
119.312 30.991 979.833 96 94 99
119.312 31.491 979.593 101 98 105
119.312 31.991 979.243 97 94 102
119.312 32.491 978.874 98 95 104
119.312 32.991 978.468 99 96 103
119.312 33.491 978.092 99 96 103
119.812 30.491 979.789 104 99 103
119.812 30.991 979.626 99 94 100
119.812 31.491 979.417 97 95 102
119.812 31.991 979.050 99 96 103
119.812 32.491 978.677 100 97 104
119.812 32.991 978.287 100 97 104
119.812 33.491 977.911 103 100 107
120.312 30.491 979.550 116 111 112
120.312 30.991 979.413 106 101 105
120.312 31.491 979.167 97 95 100
120.312 31.991 978.774 98 95 103
120.312 32.491 978.457 97 94 102
120.312 32.991 978.145 97 94 102
120.312 33.491 977.766 96 93 100
120.812 30.991 979.162 116 110 112
120.812 31.491 978.944 107 102 106
120.812 31.991 978.604 104 101 108
120.812 32.491 978.267 97 96 103
120.812 32.991 978.006 93 91 97
120.812 33.491 977.584 92 90 96
121.312 31.491 978.741 117 112 116
121.312 31.991 978.442 116 113 118
121.312 32.491 978.116 104 103 109
121.312 32.991 977.872 96 93 100
121.312 33.491 977.448 93 91 97
121.812 31.991 978.176 109 107 111
121.812 32.491 977.894 106 105 111
121.812 32.991 977.593 98 95 103
121.812 33.491 977.266 91 87 94
122.312 31.991 977.964 108 105 108
122.312 32.491 977.660 107 105 110
122.312 32.991 977.325 99 94 102
122.312 33.491 977.083 99 94 102
122.812 32.491 977.424 110 108 113
122.812 32.991 977.125 107 102 108
122.812 33.491 976.926 102 97 103
123.312 32.991 976.951 112 107 113
123.312 33.491 976.717 101 96 103
123.812 32.991 976.721 113 108 114
123.812 33.491 976.478 108 103 109
113.312 33.991 978.887 110 108 113
113.312 34.491 978.012 111 109 114
113.312 34.991 977.439 108 106 111
113.312 35.491 976.976 112 110 116
113.312 35.991 976.457 117 115 119
113.312 36.491 975.951 118 116 120
113.312 36.991 975.489 110 108 113
113.812 33.991 978.687 105 103 108
113.812 34.491 977.935 106 104 109
113.812 34.991 977.382 102 100 105
113.812 35.491 976.859 106 104 109
113.812 35.991 976.292 108 106 111
113.812 36.491 975.842 115 112 117
113.812 36.991 975.502 115 112 117
114.312 33.991 978.509 104 102 107
114.312 34.491 977.848 102 100 105
114.312 34.991 977.314 100 98 103
114.312 35.491 976.781 103 101 106
114.312 35.991 976.145 104 102 107
114.312 36.491 975.697 109 107 112
114.812 33.991 978.373 104 102 107
114.812 34.491 977.777 102 100 105
114.812 34.991 977.232 100 98 103
114.812 35.491 976.696 103 101 106
114.812 35.991 976.120 106 102 108
114.812 36.491 975.606 109 104 110
115.312 33.991 978.319 104 102 107
115.312 34.491 977.751 103 101 106
115.312 34.991 977.167 104 102 107
115.312 35.491 976.609 106 104 109
115.312 35.991 976.075 107 103 109
115.312 36.491 975.520 110 105 111
115.812 33.991 978.300 105 103 108
115.812 34.491 977.746 102 100 105
115.812 34.991 977.130 104 102 107
115.812 35.491 976.542 111 109 114
115.812 35.991 975.982 110 108 113
115.812 36.491 975.457 109 107 112
116.312 33.991 978.256 99 97 103
116.312 34.491 977.748 99 97 103
116.312 34.991 977.135 97 95 100
116.312 35.491 976.521 103 101 106
116.312 35.991 975.869 104 102 107
116.812 33.991 978.222 99 97 103
116.812 34.491 977.745 97 95 100
116.812 34.991 977.115 98 96 102
116.812 35.491 976.477 99 97 103
116.812 35.991 975.785 97 95 100
117.312 33.991 978.183 102 100 105
117.312 34.491 977.682 97 95 100
117.312 34.991 977.054 97 95 100
117.312 35.491 976.390 97 95 100
117.312 35.991 975.721 98 96 103
117.812 33.991 978.100 108 106 111
117.812 34.491 977.559 101 99 104
117.812 34.991 976.959 101 99 104
117.812 35.491 976.284 98 96 102
117.812 35.991 975.663 100 97 104
118.312 33.991 977.971 108 106 111
118.312 34.491 977.395 108 106 111
118.312 34.991 976.856 107 105 110
118.312 35.491 976.173 100 98 103
118.312 35.991 975.584 98 96 103
118.812 33.991 977.791 105 103 109
118.812 34.491 977.249 106 104 109
118.812 34.991 976.782 109 106 112
118.812 35.491 976.101 106 104 110
118.812 35.991 975.538 96 94 100
119.312 33.991 977.661 101 98 105
119.312 34.491 977.181 102 99 106
119.312 34.991 976.658 106 103 110
119.312 35.491 976.008 107 104 111
119.312 35.991 975.513 96 94 99
119.812 33.991 977.519 103 100 107
119.812 34.491 977.096 99 96 103
119.812 34.991 976.505 101 98 105
119.812 35.491 975.863 102 99 106
120.312 33.991 977.362 101 98 105
120.312 34.491 976.982 97 94 102
120.312 34.991 976.433 98 95 103
120.312 35.491 975.809 100 97 104
120.812 33.991 977.186 97 94 102
120.812 34.491 976.810 97 94 102
120.812 34.991 976.364 102 99 106
120.812 35.491 975.823 103 100 107
121.312 33.991 977.051 98 95 103
121.312 34.491 976.675 102 99 106
121.312 34.991 976.273 102 99 106
121.312 35.491 975.796 103 100 107
121.812 33.991 976.907 99 96 103
121.812 34.491 976.480 103 100 107
121.812 34.991 976.030 97 94 102
121.812 35.491 975.619 97 94 102
122.312 33.991 976.778 105 100 107
122.312 34.491 976.312 105 100 107
122.312 34.991 975.859 105 100 107
122.812 33.991 976.565 103 98 104
122.812 34.491 976.115 101 96 103
122.812 34.991 975.706 111 106 112
123.312 33.991 976.317 105 100 106
123.312 34.491 975.851 107 102 108
123.812 33.991 976.122 102 97 103
123.812 34.491 975.645 109 104 110
124.312 33.491 976.184 112 107 111
124.312 33.991 975.804 113 108 112
124.812 33.991 975.540 122 118 121
46.812 82.991 998.063 102 100 105
46.812 83.491 997.002 107 105 110
46.812 83.991 996.087 100 99 103
46.812 84.491 995.390 99 98 103
46.812 84.991 994.667 111 110 114
46.812 85.491 994.005 109 109 112
46.812 85.991 993.414 106 105 108
46.812 86.491 992.732 102 102 105
46.812 86.991 991.837 94 94 97
46.812 87.491 990.381 101 100 105
46.812 87.991 988.575 92 91 95
46.812 88.491 987.414 91 90 94
47.312 82.491 998.605 92 92 96
47.312 82.991 997.888 102 101 106
47.312 83.491 996.857 97 96 102
47.312 83.991 995.965 103 103 106
47.312 84.491 995.272 108 108 110
47.312 84.991 994.578 111 110 116
47.312 85.491 993.931 110 109 114
47.312 85.991 993.419 109 108 113
47.312 86.491 992.724 102 101 106
47.312 86.991 991.622 93 92 97
47.312 87.491 990.101 97 96 103
47.312 87.991 988.306 87 86 93
47.312 88.491 987.152 88 87 94
47.812 82.491 998.516 98 97 103
47.812 82.991 997.872 102 101 106
47.812 83.491 996.863 99 98 103
47.812 83.991 995.896 106 106 109
47.812 84.491 995.156 111 111 113
47.812 84.991 994.527 104 103 108
47.812 85.491 993.924 105 104 109
47.812 85.991 993.396 105 104 110
47.812 86.491 992.701 98 97 103
47.812 86.991 991.575 96 95 102
47.812 87.491 989.829 97 96 103
47.812 87.991 988.006 87 86 93
48.312 82.491 998.488 98 97 103
48.312 82.991 997.839 104 103 108
48.312 83.491 996.808 103 102 107
48.312 83.991 995.721 108 108 111
48.312 84.491 994.971 107 107 109
48.312 84.991 994.469 109 108 113
48.312 85.491 993.931 115 113 118
48.312 85.991 993.299 106 105 111
48.312 86.491 992.606 96 95 102
48.312 86.991 991.492 99 98 104
48.312 87.491 989.623 98 97 103
48.312 87.991 987.735 86 85 92
48.812 82.491 998.434 103 102 108
48.812 82.991 997.689 104 103 109
48.812 83.491 996.730 100 99 105
48.812 83.991 995.755 101 101 106
48.812 84.491 995.035 93 94 98
48.812 84.991 994.540 103 104 108
48.812 85.491 994.000 106 107 111
48.812 85.991 993.288 105 104 109
48.812 86.491 992.546 100 99 104
48.812 86.991 991.436 100 98 103
48.812 87.491 989.625 97 96 102
48.812 87.991 987.725 85 84 90
49.312 82.491 998.396 104 103 109
49.312 82.991 997.569 104 103 109
49.312 83.491 996.565 99 98 104
49.312 83.991 995.816 96 96 103
49.312 84.491 995.163 88 90 94
49.312 84.991 994.581 95 96 102
49.312 85.491 994.063 96 96 102
49.312 85.991 993.304 100 99 105
49.312 86.491 992.449 97 96 103
49.312 86.991 991.271 98 97 103
49.312 87.491 989.729 94 93 98
49.312 87.991 987.837 85 84 89
49.812 82.491 998.344 92 92 97
49.812 82.991 997.562 94 93 99
49.812 83.491 996.673 97 96 103
49.812 83.991 995.964 98 98 103
49.812 84.491 995.267 91 92 96
49.812 84.991 994.612 90 88 94
49.812 85.491 994.055 92 92 97
49.812 85.991 993.298 95 94 100
49.812 86.491 992.252 93 92 98
49.812 86.991 991.048 92 92 97
49.812 87.491 989.808 100 99 104
49.812 87.991 987.937 86 85 90
50.312 82.491 998.222 91 90 95
50.312 82.991 997.558 93 92 98
50.312 83.491 996.780 97 96 103
50.312 83.991 996.103 96 95 102
50.312 84.491 995.401 95 94 100
50.312 84.991 994.628 90 88 94
50.312 85.491 993.999 90 88 94
50.312 85.991 993.302 94 93 99
50.312 86.491 992.320 94 95 100
50.312 86.991 990.987 90 91 95
50.312 87.491 989.743 104 103 108
50.312 87.991 987.965 91 90 94
50.812 82.491 998.081 91 90 95
50.812 82.991 997.475 100 99 105
50.812 83.491 996.877 97 96 103
50.812 83.991 996.175 107 106 112
50.812 84.491 995.480 108 107 114
50.812 84.991 994.721 92 92 98
50.812 85.491 994.025 93 92 99
50.812 85.991 993.405 92 92 99
50.812 86.491 992.618 96 97 103
50.812 86.991 991.224 90 91 95
50.812 87.491 989.814 101 100 105
50.812 87.991 988.146 92 92 96
51.312 82.491 998.105 91 90 95
51.312 82.991 997.479 92 91 96
51.312 83.491 996.879 95 94 100
51.312 83.991 996.199 110 108 116
51.312 84.491 995.509 113 112 120
51.312 84.991 994.810 95 94 103
51.312 85.491 994.083 90 90 97
51.312 85.991 993.372 91 91 98
51.312 86.491 992.649 92 92 99
51.312 86.991 991.523 88 88 95
51.312 87.491 990.099 97 96 102
51.312 87.991 988.471 95 94 99
51.812 82.491 998.081 90 88 96
51.812 82.991 997.498 90 88 96
51.812 83.491 996.906 92 91 98
51.812 83.991 996.224 100 100 108
51.812 84.491 995.540 104 104 112
51.812 84.991 994.824 94 94 103
51.812 85.491 994.104 87 87 95
51.812 85.991 993.388 86 86 94
51.812 86.491 992.682 86 86 94
51.812 86.991 991.672 84 84 93
51.812 87.491 990.421 91 88 97
51.812 87.991 989.045 96 95 103
51.812 88.491 987.575 92 92 97
52.312 81.991 998.567 92 91 98
52.312 82.491 998.041 91 90 97
52.312 82.991 997.567 95 94 103
52.312 83.491 997.006 94 93 102
52.312 83.991 996.360 92 91 98
52.312 84.491 995.697 92 92 99
52.312 84.991 994.899 92 92 100
52.312 85.491 994.105 86 86 94
52.312 85.991 993.383 84 84 93
52.312 86.491 992.806 82 82 90
52.312 86.991 991.945 81 81 88
52.312 87.491 990.682 81 81 90
52.312 87.991 989.175 93 92 100
52.312 88.491 987.826 94 93 99
52.812 81.991 998.445 92 92 99
52.812 82.491 997.931 96 95 103
52.812 82.991 997.563 105 104 112
52.812 83.491 997.139 103 102 110
52.812 83.991 996.573 92 92 99
52.812 84.491 995.813 88 88 96
52.812 84.991 994.944 92 92 100
52.812 85.491 994.168 88 88 96
52.812 85.991 993.480 84 84 93
52.812 86.491 992.902 82 82 90
52.812 86.991 992.186 81 81 89
52.812 87.491 991.166 81 80 89
52.812 87.991 989.635 91 90 97
52.812 88.491 988.196 94 93 99
53.312 81.991 998.398 92 91 100
53.312 82.491 997.937 96 94 105
53.312 82.991 997.637 102 100 111
53.312 83.491 997.244 103 101 112
53.312 83.991 996.724 90 88 98
53.312 84.491 995.938 87 87 96
53.312 84.991 995.068 88 88 98
53.312 85.491 994.325 86 86 96
53.312 85.991 993.745 84 84 94
53.312 86.491 993.175 81 81 92
53.312 86.991 992.410 82 82 93
53.312 87.491 991.589 81 78 88
53.312 87.991 990.324 90 88 96
53.312 88.491 988.824 95 94 100
53.812 81.991 998.349 87 85 96
53.812 82.491 997.995 88 86 97
53.812 82.991 997.689 92 91 102
53.812 83.491 997.258 92 91 102
53.812 83.991 996.753 85 84 95
53.812 84.491 996.056 84 84 94
53.812 84.991 995.208 85 85 95
53.812 85.491 994.445 84 84 94
53.812 85.991 993.868 83 83 94
53.812 86.491 993.266 83 83 94
53.812 86.991 992.578 83 83 94
53.812 87.491 991.814 84 82 94
53.812 87.991 990.650 88 87 95
53.812 88.491 989.128 98 97 103
54.312 81.991 998.370 85 83 94
54.312 82.491 998.114 84 82 94
54.312 82.991 997.799 85 83 94
54.312 83.491 997.330 86 84 95
54.312 83.991 996.840 84 84 94
54.312 84.491 996.189 83 83 94
54.312 84.991 995.386 82 82 93
54.312 85.491 994.613 81 81 92
54.312 85.991 993.990 84 84 94
54.312 86.491 993.412 84 84 94
54.312 86.991 992.889 85 85 95
54.312 87.491 992.026 84 83 94
54.312 87.991 990.860 84 83 92
54.312 88.491 989.504 97 96 103
54.812 81.991 998.407 85 84 94
54.812 82.491 998.104 83 82 94
54.812 82.991 997.768 82 81 92
54.812 83.491 997.385 86 85 94
54.812 83.991 996.988 87 87 97
54.812 84.491 996.347 84 84 94
54.812 84.991 995.553 81 81 92
54.812 85.491 994.846 81 81 90
54.812 85.991 994.238 88 88 98
54.812 86.491 993.646 88 88 98
54.812 86.991 993.005 88 88 98
54.812 87.491 992.225 88 87 96
54.812 87.991 991.409 85 84 93
54.812 88.491 990.184 91 90 96
55.312 81.991 998.461 86 86 96
55.312 82.491 998.052 82 82 93
55.312 82.991 997.700 82 82 90
55.312 83.491 997.342 86 86 94
55.312 83.991 996.940 95 95 104
55.312 84.491 996.355 88 88 98
55.312 84.991 995.651 84 84 94
55.312 85.491 994.967 85 85 95
55.312 85.991 994.357 90 90 99
55.312 86.491 993.829 88 88 98
55.312 86.991 993.191 90 90 99
55.312 87.491 992.611 93 92 100
55.312 87.991 991.795 94 93 102
55.312 88.491 990.551 90 88 96
55.812 81.991 998.443 91 91 100
55.812 82.491 997.957 84 84 93
55.812 82.991 997.588 83 83 92
55.812 83.491 997.231 86 86 94
55.812 83.991 996.819 94 93 103
55.812 84.491 996.330 90 87 98
55.812 84.991 995.687 87 85 96
55.812 85.491 995.057 86 84 95
55.812 85.991 994.519 92 90 100
55.812 86.491 993.973 86 84 95
55.812 86.991 993.421 87 85 96
55.812 87.491 992.777 93 92 100
55.812 87.991 991.950 98 97 105
55.812 88.491 991.083 92 92 99
56.312 81.991 998.356 98 98 106
56.312 82.491 997.898 92 92 99
56.312 82.991 997.510 88 88 96
56.312 83.491 997.114 88 88 96
56.312 83.991 996.716 93 92 103
56.312 84.491 996.258 84 82 94
56.312 84.991 995.641 86 84 95
56.312 85.491 995.047 88 86 97
56.312 85.991 994.577 94 93 103
56.312 86.491 994.087 88 87 95
56.312 86.991 993.490 86 85 94
56.312 87.491 992.806 93 92 100
56.312 87.991 992.041 93 92 100
56.312 88.491 991.152 96 95 103
56.812 81.991 998.272 108 107 116
56.812 82.491 997.782 103 102 110
56.812 82.991 997.319 92 91 98
56.812 83.491 996.927 90 88 96
56.812 83.991 996.500 88 86 96
56.812 84.491 996.036 84 82 94
56.812 84.991 995.492 84 82 94
56.812 85.491 994.977 92 91 100
56.812 85.991 994.512 100 99 106
56.812 86.491 994.057 96 95 103
56.812 86.991 993.480 90 88 94
56.812 87.491 992.741 95 94 103
56.812 87.991 991.996 93 92 100
56.812 88.491 991.142 94 93 102
57.312 81.991 998.262 110 109 116
57.312 82.491 997.655 103 102 110
57.312 82.991 997.100 92 92 99
57.312 83.491 996.658 87 86 94
57.312 83.991 996.161 85 83 94
57.312 84.491 995.716 87 84 95
57.312 84.991 995.284 92 90 100
57.312 85.491 994.859 104 101 110
57.312 85.991 994.388 107 104 112
57.312 86.491 993.979 101 98 105
57.312 86.991 993.444 95 92 98
57.312 87.491 992.620 93 92 100
57.312 87.991 991.890 92 92 99
57.312 88.491 991.151 93 92 100
57.812 81.991 998.117 110 109 116
57.812 82.491 997.499 101 100 108
57.812 82.991 996.898 91 90 97
57.812 83.491 996.388 86 85 94
57.812 83.991 995.930 84 82 93
57.812 84.491 995.514 92 88 99
57.812 84.991 995.113 97 94 104
57.812 85.491 994.743 107 104 113
57.812 85.991 994.346 113 110 118
57.812 86.491 993.931 107 105 110
57.812 86.991 993.366 98 95 102
57.812 87.491 992.566 93 92 100
57.812 87.991 991.800 92 91 98
57.812 88.491 991.136 88 87 95
58.312 81.491 998.496 116 113 118
58.312 81.991 997.799 107 105 111
58.312 82.491 997.244 96 95 103
58.312 82.991 996.713 92 91 98
58.312 83.491 996.209 85 84 94
58.312 83.991 995.814 84 84 93
58.312 84.491 995.457 90 88 96
58.312 84.991 995.012 97 96 104
58.312 85.491 994.634 104 102 109
58.312 85.991 994.315 115 111 118
58.312 86.491 993.928 111 109 114
58.312 86.991 993.361 100 98 103
58.312 87.491 992.566 93 92 100
58.312 87.991 991.754 91 90 97
58.312 88.491 991.113 86 85 94
58.812 81.491 998.225 109 107 112
58.812 81.991 997.534 102 100 106
58.812 82.491 997.029 97 95 102
58.812 82.991 996.551 93 92 100
58.812 83.491 996.111 88 86 96
58.812 83.991 995.756 88 86 95
58.812 84.491 995.378 90 88 95
58.812 84.991 994.941 95 94 103
58.812 85.491 994.559 105 103 109
58.812 85.991 994.274 113 110 117
58.812 86.491 993.909 110 107 114
58.812 86.991 993.395 101 99 104
58.812 87.491 992.678 94 93 102
58.812 87.991 991.845 92 91 98
58.812 88.491 991.144 87 86 94
59.312 80.991 998.577 119 118 122
59.312 81.491 998.006 105 103 108
59.312 81.991 997.411 99 96 103
59.312 82.491 996.910 104 101 108
59.312 82.991 996.455 100 98 105
59.312 83.491 996.021 94 92 100
59.312 83.991 995.612 93 91 98
59.312 84.491 995.235 90 86 94
59.312 84.991 994.876 93 91 97
59.312 85.491 994.524 104 101 108
59.312 85.991 994.252 108 105 112
59.312 86.491 993.959 104 101 108
59.312 86.991 993.485 97 94 102
59.312 87.491 992.780 94 93 102
59.312 87.991 992.011 95 94 103
59.312 88.491 991.316 93 92 100
59.812 80.991 998.357 107 105 110
59.812 81.491 997.875 99 97 103
59.812 81.991 997.316 98 96 102
59.812 82.491 996.849 104 101 108
59.812 82.991 996.468 101 98 105
59.812 83.491 996.000 95 92 99
59.812 83.991 995.491 95 92 99
59.812 84.491 995.167 88 86 92
59.812 84.991 994.879 90 87 93
59.812 85.491 994.521 96 94 99
59.812 85.991 994.252 99 96 103
59.812 86.491 993.968 99 96 103
59.812 86.991 993.520 96 93 100
59.812 87.491 992.954 98 97 103
59.812 87.991 992.365 100 99 105
59.812 88.491 991.681 99 98 104
60.312 80.491 998.583 102 100 105
60.312 80.991 998.228 105 103 108
60.312 81.491 997.860 100 98 103
60.312 81.991 997.323 98 96 102
60.312 82.491 996.848 100 95 102
60.312 82.991 996.520 101 96 103
60.312 83.491 996.072 98 93 99
60.312 83.991 995.597 97 92 98
60.312 84.491 995.259 92 86 93
60.312 84.991 994.923 92 86 93
60.312 85.491 994.558 93 88 94
60.312 85.991 994.281 96 93 99
60.312 86.491 993.988 96 93 100
60.312 86.991 993.627 99 96 103
60.312 87.491 993.235 102 101 107
60.312 87.991 992.721 104 103 109
60.312 88.491 992.055 101 100 106
60.812 80.491 998.544 99 97 103
60.812 80.991 998.224 100 98 103
60.812 81.491 997.905 102 100 105
60.812 81.991 997.443 107 103 108
60.812 82.491 996.979 104 99 105
60.812 82.991 996.632 103 98 104
60.812 83.491 996.242 104 98 104
60.812 83.991 995.847 106 99 104
60.812 84.491 995.442 100 95 99
60.812 84.991 995.033 104 99 104
60.812 85.491 994.690 106 101 107
60.812 85.991 994.394 101 98 104
60.812 86.491 994.099 104 101 108
60.812 86.991 993.796 107 104 111
60.812 87.491 993.446 106 105 111
60.812 87.991 993.006 104 103 109
60.812 88.491 992.343 100 99 105
61.312 80.491 998.569 94 92 99
61.312 80.991 998.292 93 92 96
61.312 81.491 998.042 97 95 100
61.312 81.991 997.672 102 100 105
61.312 82.491 997.234 102 100 105
61.312 82.991 996.845 104 102 107
61.312 83.491 996.492 110 105 111
61.312 83.991 996.142 113 108 112
61.312 84.491 995.744 112 107 111
61.312 84.991 995.316 121 119 121
61.312 85.491 994.937 123 121 124
61.312 85.991 994.614 115 111 117
61.312 86.491 994.329 113 111 116
61.312 86.991 993.979 107 105 110
61.312 87.491 993.683 104 103 109
61.312 87.991 993.376 105 104 110
61.312 88.491 992.738 98 97 103
61.812 80.991 998.462 90 86 93
61.812 81.491 998.241 93 92 96
61.812 81.991 997.953 101 99 104
61.812 82.491 997.578 112 110 116
61.812 82.991 997.142 111 109 114
61.812 83.491 996.742 116 113 118
61.812 83.991 996.460 112 110 114
61.812 84.491 996.145 119 117 119
61.812 84.991 995.717 116 113 116
61.812 85.491 995.263 110 108 113
61.812 85.991 994.913 109 107 112
61.812 86.491 994.608 108 106 111
61.812 86.991 994.267 103 101 106
61.812 87.491 993.946 101 100 106
61.812 87.991 993.647 104 103 109
61.812 88.491 993.088 99 98 104
62.312 81.491 998.456 104 102 107
62.312 81.991 998.196 113 111 116
62.312 82.491 997.901 123 121 126
62.312 82.991 997.505 113 111 116
62.312 83.491 997.090 107 105 110
62.312 83.991 996.767 107 105 108
62.312 84.491 996.447 116 113 116
62.312 84.991 996.082 109 107 110
62.312 85.491 995.661 109 107 112
62.312 85.991 995.259 107 105 110
62.312 86.491 994.889 106 104 109
62.312 86.991 994.566 101 98 105
62.312 87.491 994.207 98 97 103
62.312 87.991 993.846 93 92 98
62.312 88.491 993.319 92 92 97
62.812 81.991 998.399 121 119 124
62.812 82.491 998.115 115 112 117
62.812 82.991 997.753 105 103 108
62.812 83.491 997.398 98 96 102
62.812 83.991 997.005 106 104 108
62.812 84.491 996.661 111 109 114
62.812 84.991 996.362 109 107 112
62.812 85.491 996.025 107 104 110
62.812 85.991 995.588 108 105 112
62.812 86.491 995.129 108 105 112
62.812 86.991 994.768 104 101 108
62.812 87.491 994.439 105 104 110
62.812 87.991 994.100 99 98 104
62.812 88.491 993.575 93 92 98
63.312 81.991 998.559 112 110 116
63.312 82.491 998.231 108 106 111
63.312 82.991 997.901 99 97 103
63.312 83.491 997.604 102 100 105
63.312 83.991 997.235 106 104 109
63.312 84.491 996.865 106 104 109
63.312 84.991 996.559 105 103 108
63.312 85.491 996.299 103 100 107
63.312 85.991 995.842 103 100 107
63.312 86.491 995.329 104 101 108
63.312 86.991 994.921 106 103 110
63.312 87.491 994.630 106 105 111
63.312 87.991 994.312 101 100 106
63.312 88.491 993.781 99 98 104
63.812 82.491 998.263 108 106 111
63.812 82.991 997.953 103 101 106
63.812 83.491 997.700 105 103 108
63.812 83.991 997.377 109 107 112
63.812 84.491 996.989 108 106 111
63.812 84.991 996.687 107 105 110
63.812 85.491 996.435 103 100 107
63.812 85.991 995.960 98 95 103
63.812 86.491 995.435 106 103 110
63.812 86.991 995.050 100 97 106
63.812 87.491 994.778 100 99 105
63.812 87.991 994.388 102 101 107
63.812 88.491 993.873 100 99 105
64.312 82.491 998.288 109 107 112
64.312 82.991 997.977 115 112 117
64.312 83.491 997.726 107 105 110
64.312 83.991 997.418 115 112 117
64.312 84.491 997.031 115 112 117
64.312 84.991 996.735 111 108 116
64.312 85.491 996.470 101 98 105
64.312 85.991 996.022 95 92 99
64.312 86.491 995.485 102 99 108
64.312 86.991 995.126 104 101 110
64.312 87.491 994.844 99 98 104
64.312 87.991 994.423 99 98 104
64.312 88.491 993.946 98 97 103
64.812 82.491 998.302 108 107 112
64.812 82.991 998.018 109 108 113
64.812 83.491 997.752 108 107 113
64.812 83.991 997.428 105 104 109
64.812 84.491 997.036 116 115 119
64.812 84.991 996.732 112 110 116
64.812 85.491 996.438 98 96 103
64.812 85.991 996.030 94 93 99
64.812 86.491 995.513 95 94 102
64.812 86.991 995.155 99 97 106
64.812 87.491 994.872 103 100 107
64.812 87.991 994.521 101 99 105
64.812 88.491 994.068 104 103 109
65.312 81.991 998.611 109 107 112
65.312 82.491 998.302 107 105 110
65.312 82.991 998.014 110 108 113
65.312 83.491 997.699 109 107 112
65.312 83.991 997.377 99 97 103
65.312 84.491 996.976 111 109 114
65.312 84.991 996.681 112 110 116
65.312 85.491 996.394 105 102 109
65.312 85.991 995.971 100 97 104
65.312 86.491 995.505 97 94 102
65.312 86.991 995.180 95 92 99
65.312 87.491 994.876 101 98 105
65.312 87.991 994.559 105 102 109
65.312 88.491 994.102 106 105 111
65.812 81.991 998.567 112 110 116
65.812 82.491 998.281 108 106 111
65.812 82.991 997.919 109 107 112
65.812 83.491 997.524 105 103 108
65.812 83.991 997.252 103 101 106
65.812 84.491 996.914 106 104 109
65.812 84.991 996.638 116 113 118
65.812 85.491 996.338 110 108 113
65.812 85.991 995.911 104 101 108
65.812 86.491 995.493 102 99 106
65.812 86.991 995.202 106 103 110
65.812 87.491 994.842 110 107 114
65.812 87.991 994.426 111 108 116
65.812 88.491 993.976 106 103 110
66.312 81.991 998.448 112 110 116
66.312 82.491 998.173 115 112 117
66.312 82.991 997.816 117 115 119
66.312 83.491 997.410 110 108 113
66.312 83.991 997.174 106 104 107
66.312 84.491 996.865 115 112 117
66.312 84.991 996.543 119 117 121
66.312 85.491 996.239 109 107 112
66.312 85.991 995.847 107 104 110
66.312 86.491 995.463 106 103 110
66.312 86.991 995.174 109 106 113
66.312 87.491 994.782 113 109 116
66.312 87.991 994.322 111 108 116
66.312 88.491 993.876 104 101 108
66.812 81.491 998.603 111 106 110
66.812 81.991 998.263 110 105 109
66.812 82.491 997.988 111 106 110
66.812 82.991 997.683 124 119 123
66.812 83.491 997.339 119 115 118
66.812 83.991 997.107 117 111 116
66.812 84.491 996.793 119 115 118
66.812 84.991 996.396 117 111 116
66.812 85.491 996.104 108 103 109
66.812 85.991 995.766 112 107 113
66.812 86.491 995.398 109 104 110
66.812 86.991 995.064 107 102 109
66.812 87.491 994.684 113 108 116
66.812 87.991 994.275 113 108 116
66.812 88.491 993.844 105 102 109
67.312 81.491 998.404 115 109 113
67.312 81.991 998.054 109 104 108
67.312 82.491 997.799 104 99 103
67.312 82.991 997.562 117 111 116
67.312 83.491 997.246 117 111 116
67.312 83.991 996.989 119 115 118
67.312 84.491 996.708 119 115 118
67.312 84.991 996.328 116 110 114
67.312 85.491 995.952 112 107 112
67.312 85.991 995.564 108 103 109
67.312 86.491 995.243 108 103 109
67.312 86.991 994.930 106 101 107
67.312 87.491 994.516 112 107 114
67.312 87.991 994.132 109 104 111
67.312 88.491 993.732 108 104 111
67.812 80.991 998.538 119 115 118
67.812 81.491 998.177 120 116 119
67.812 81.991 997.877 116 110 114
67.812 82.491 997.660 112 107 111
67.812 82.991 997.384 115 109 113
67.812 83.491 997.065 113 108 112
67.812 83.991 996.832 120 116 119
67.812 84.491 996.586 120 116 119
67.812 84.991 996.250 119 113 117
67.812 85.491 995.845 116 110 114
67.812 85.991 995.407 108 103 109
67.812 86.491 995.069 109 104 110
67.812 86.991 994.731 107 102 108
67.812 87.491 994.334 108 106 111
67.812 87.991 993.937 106 104 109
67.812 88.491 993.516 105 103 108
68.312 80.491 998.476 127 122 126
68.312 80.991 998.170 120 116 119
68.312 81.491 997.907 119 115 118
68.312 81.991 997.684 117 111 116
68.312 82.491 997.434 119 113 117
68.312 82.991 997.117 119 113 117
68.312 83.491 996.828 113 108 112
68.312 83.991 996.600 118 112 116
68.312 84.491 996.327 122 118 121
68.312 84.991 995.978 119 113 117
68.312 85.491 995.656 116 110 114
68.312 85.991 995.297 109 104 110
68.312 86.491 994.919 111 106 112
68.312 86.991 994.544 110 105 111
68.312 87.491 994.157 102 100 105
68.312 87.991 993.748 107 105 110
68.312 88.491 993.358 107 105 110
78.812 30.491 998.528 186 170 160
78.812 30.991 998.498 172 157 147
78.812 31.491 998.522 170 153 143
79.312 28.991 998.605 116 106 105
79.312 29.491 998.356 135 124 121
79.312 29.991 998.159 172 159 153
79.312 30.491 998.049 171 158 150
79.312 30.991 997.951 155 140 133
79.312 31.491 997.872 158 144 135
79.312 31.991 997.912 167 152 142
79.312 32.491 997.934 192 175 165
79.312 32.991 998.145 183 168 157
79.312 33.491 998.337 173 159 148
79.312 33.991 998.597 193 179 167
77.312 48.991 998.523 124 119 119
77.312 49.491 998.441 130 123 124
77.312 49.991 998.440 126 118 118
77.312 50.491 998.465 129 119 118
77.312 50.991 998.592 128 119 117
77.812 48.491 998.411 95 90 94
77.812 48.991 998.250 110 104 106
77.812 49.491 998.120 126 119 119
77.812 49.991 998.035 130 121 122
77.812 50.491 998.066 129 119 118
77.812 50.991 998.198 132 122 121
77.812 51.491 998.439 141 130 128
78.312 47.991 998.422 90 84 90
78.312 48.491 998.158 94 87 94
78.312 48.991 997.967 109 103 105
78.312 49.491 997.820 122 117 118
78.312 49.991 997.712 128 120 121
78.312 50.491 997.716 133 125 123
78.312 50.991 997.808 136 126 125
78.312 51.491 997.961 134 124 122
78.312 51.991 998.227 137 127 123
78.312 52.491 998.469 151 142 135
78.812 47.491 998.562 104 99 106
78.812 47.991 998.178 98 93 100
78.812 48.491 997.928 103 98 104
78.812 48.991 997.713 107 102 106
78.812 49.491 997.528 117 110 113
78.812 49.991 997.390 130 123 124
78.812 50.491 997.352 137 129 128
78.812 50.991 997.405 133 124 123
78.812 51.491 997.499 132 122 120
78.812 51.991 997.731 141 132 129
78.812 52.491 998.048 166 156 152
78.812 52.991 998.284 154 145 138
78.812 53.491 998.599 157 148 141
79.312 47.491 998.303 102 98 105
79.312 47.991 997.978 107 102 109
79.312 48.491 997.689 105 100 107
79.312 48.991 997.368 100 95 102
79.312 49.491 997.034 105 100 104
79.312 49.991 996.808 128 122 124
79.312 50.491 996.814 146 137 138
79.312 50.991 996.952 132 124 122
79.312 51.491 997.150 134 124 122
79.312 51.991 997.369 141 131 129
79.312 52.491 997.607 161 151 149
79.312 52.991 997.849 159 150 145
79.312 53.491 998.128 168 159 154
79.312 53.991 998.455 184 175 170
77.812 65.991 998.413 125 120 124
77.812 66.491 998.233 125 120 124
78.312 65.491 998.381 121 117 120
78.312 65.991 998.160 123 119 122
78.312 66.491 998.010 123 119 122
78.812 64.991 998.347 117 111 116
78.812 65.491 998.100 120 116 119
78.812 65.991 997.878 119 115 118
78.812 66.491 997.668 120 116 119
79.312 63.991 998.566 123 118 119
79.312 64.491 998.282 120 115 116
79.312 64.991 997.990 118 112 116
79.312 65.491 997.728 120 116 119
79.312 65.991 997.519 121 117 120
79.312 66.491 997.379 116 110 114
70.312 77.491 998.549 121 117 120
70.812 76.991 998.455 116 112 116
70.812 77.491 998.181 113 109 113
71.312 75.991 998.481 129 126 129
71.312 76.491 998.333 124 122 125
71.312 76.991 998.129 112 110 113
71.312 77.491 997.887 104 102 105
71.812 72.991 998.574 152 147 144
71.812 73.491 998.503 161 156 153
71.812 73.991 998.422 147 139 137
71.812 74.491 998.334 134 128 128
71.812 74.991 998.278 125 121 120
71.812 75.491 998.168 123 119 120
71.812 75.991 997.957 120 117 117
71.812 76.491 997.740 119 118 118
71.812 76.991 997.586 121 119 122
71.812 77.491 997.482 121 119 122
72.312 71.991 998.513 117 111 116
72.312 72.491 998.276 130 124 126
72.312 72.991 998.122 143 137 137
72.312 73.491 997.955 148 141 141
72.312 73.991 997.715 150 142 140
72.312 74.491 997.617 145 139 139
72.312 74.991 997.630 132 126 126
72.312 75.491 997.584 144 138 138
72.312 75.991 997.393 138 134 134
72.312 76.491 997.161 128 124 125
72.312 76.991 997.046 122 119 119
72.312 77.491 996.999 124 120 121
72.812 71.491 998.508 96 94 100
72.812 71.991 998.167 108 105 111
72.812 72.491 997.860 121 117 121
72.812 72.991 997.642 135 129 132
72.812 73.491 997.469 147 141 141
72.812 73.991 997.256 159 151 149
72.812 74.491 997.096 161 153 151
72.812 74.991 996.971 139 132 130
72.812 75.491 996.842 141 134 133
72.812 75.991 996.769 139 133 132
72.812 76.491 996.734 139 135 134
72.812 76.991 996.627 132 127 127
72.812 77.491 996.450 124 119 120
73.312 70.991 998.550 83 81 93
73.312 71.491 998.152 87 86 93
73.312 71.991 997.769 96 94 100
73.312 72.491 997.411 108 103 110
73.312 72.991 997.138 121 117 121
73.312 73.491 996.975 137 130 132
73.312 73.991 996.787 157 149 147
73.312 74.491 996.546 170 162 159
73.312 74.991 996.386 152 144 141
73.312 75.491 996.269 135 127 125
73.312 75.991 996.170 128 120 119
73.312 76.491 996.072 137 132 129
73.312 76.991 995.956 140 134 134
73.312 77.491 995.787 129 123 123
73.812 70.991 998.223 80 77 89
73.812 71.491 997.796 83 82 88
73.812 71.991 997.378 84 82 90
73.812 72.491 996.953 90 86 94
73.812 72.991 996.492 103 98 104
73.812 73.491 996.132 117 109 111
73.812 73.991 995.953 138 130 128
73.812 74.491 995.784 159 149 147
73.812 74.991 995.586 159 149 147
73.812 75.491 995.459 163 155 152
73.812 75.991 995.359 157 149 147
73.812 76.491 995.193 156 148 146
73.812 76.991 995.032 142 137 134
73.812 77.491 994.921 133 127 127
74.312 70.491 998.517 84 83 89
74.312 70.991 998.040 82 81 90
74.312 71.491 997.499 83 83 93
74.312 71.991 996.960 83 82 90
74.312 72.491 996.462 84 81 88
74.312 72.991 996.002 90 87 93
74.312 73.491 995.664 103 98 103
74.312 73.991 995.443 116 109 113
74.312 74.491 995.211 132 123 126
74.312 74.991 994.930 142 132 133
74.312 75.491 994.658 154 144 143
74.312 75.991 994.465 156 148 145
74.312 76.491 994.361 166 157 154
74.312 76.991 994.285 160 152 149
74.312 77.491 994.237 153 145 143
74.812 70.491 998.371 88 86 93
74.812 70.991 997.732 84 83 89
74.812 71.491 997.060 84 83 92
74.812 71.991 996.531 83 82 89
74.812 72.491 996.072 85 82 89
74.812 72.991 995.576 95 93 98
74.812 73.491 995.099 103 98 104
74.812 73.991 994.686 109 103 108
74.812 74.491 994.255 118 108 112
74.812 74.991 993.956 123 115 117
74.812 75.491 993.812 130 121 121
74.812 75.991 993.640 138 130 127
74.812 76.491 993.515 151 143 140
74.812 76.991 993.482 156 148 146
74.812 77.491 993.441 167 158 156
75.312 70.491 998.273 95 92 99
75.312 70.991 997.560 90 86 94
75.312 71.491 996.832 91 90 95
75.312 71.991 996.153 92 88 95
75.312 72.491 995.523 91 87 94
75.312 72.991 994.987 100 97 103
75.312 73.491 994.596 108 103 109
75.312 73.991 994.067 109 104 110
75.312 74.491 993.379 105 98 105
75.312 74.991 992.884 104 98 103
75.312 75.491 992.690 110 104 106
75.312 75.991 992.698 117 110 110
75.312 76.491 992.803 136 128 126
75.312 76.991 992.834 147 139 137
75.312 77.491 992.768 161 153 151
75.812 70.491 997.901 102 99 106
75.812 70.991 997.067 98 95 103
75.812 71.491 996.343 107 105 110
75.812 71.991 995.578 104 102 107
75.812 72.491 994.939 98 95 103
75.812 72.991 994.592 101 98 105
75.812 73.491 994.146 105 102 109
75.812 73.991 993.291 101 96 103
75.812 74.491 992.457 92 86 93
75.812 74.991 992.029 92 87 94
75.812 75.491 991.851 98 93 99
75.812 75.991 991.971 106 100 103
75.812 76.491 992.224 123 118 117
75.812 76.991 992.259 136 131 128
75.812 77.491 992.157 151 143 141
76.312 69.991 998.374 113 110 116
76.312 70.491 997.460 109 107 112
76.312 70.991 996.490 103 101 106
76.312 71.491 995.601 116 113 118
76.312 71.991 994.855 110 108 113
76.312 72.491 994.493 103 101 106
76.312 72.991 994.130 102 99 106
76.312 73.491 993.324 98 95 103
76.312 73.991 992.352 90 86 95
76.312 74.491 991.720 83 81 87
76.312 74.991 991.415 86 83 90
76.312 75.491 991.212 92 88 95
76.312 75.991 991.158 103 98 103
76.312 76.491 991.245 119 112 114
76.312 76.991 991.353 126 120 120
76.312 77.491 991.406 137 129 127
76.812 68.491 998.569 122 117 118
76.812 68.991 998.467 118 112 114
76.812 69.491 998.353 113 108 112
76.812 69.991 997.841 119 113 118
76.812 70.491 996.937 103 100 105
76.812 70.991 995.883 109 106 111
76.812 71.491 994.917 117 115 117
76.812 71.991 994.271 109 107 111
76.812 72.491 993.816 101 99 104
76.812 72.991 993.231 98 95 103
76.812 73.491 992.398 93 91 99
76.812 73.991 991.564 86 83 94
76.812 74.491 990.942 83 82 90
76.812 74.991 990.703 86 84 93
76.812 75.491 990.627 92 88 97
76.812 75.991 990.561 99 94 102
76.812 76.491 990.623 115 108 112
76.812 76.991 990.719 124 119 119
76.812 77.491 990.723 133 125 123
77.312 67.491 998.485 124 119 122
77.312 67.991 998.366 120 116 117
77.312 68.491 998.153 121 118 118
77.312 68.991 997.969 117 112 113
77.312 69.491 997.731 119 116 116
77.312 69.991 997.109 119 116 119
77.312 70.491 996.192 108 106 109
77.312 70.991 995.364 118 116 118
77.312 71.491 994.583 116 110 116
77.312 71.991 993.843 101 98 104
77.312 72.491 993.144 96 93 100
77.312 72.991 992.269 95 92 102
77.312 73.491 991.379 92 92 99
77.312 73.991 990.706 87 86 94
77.312 74.491 990.323 85 82 92
77.312 74.991 990.195 85 82 92
77.312 75.491 990.069 92 90 96
77.312 75.991 989.899 98 93 99
77.312 76.491 989.911 117 111 116
77.312 76.991 990.030 123 119 118
77.312 77.491 989.973 127 121 121
77.812 66.991 998.078 126 121 125
77.812 67.491 997.989 122 118 121
77.812 67.991 997.865 124 119 121
77.812 68.491 997.642 123 119 120
77.812 68.991 997.356 115 110 111
77.812 69.491 996.990 113 109 110
77.812 69.991 996.364 117 113 116
77.812 70.491 995.559 119 118 120
77.812 70.991 994.667 119 117 119
77.812 71.491 993.860 107 103 110
77.812 71.991 993.031 97 94 102
77.812 72.491 991.991 94 92 98
77.812 72.991 991.142 92 90 98
77.812 73.491 990.621 91 90 97
77.812 73.991 990.206 86 85 94
77.812 74.491 989.912 85 82 92
77.812 74.991 989.710 88 85 93
77.812 75.491 989.538 93 90 96
77.812 75.991 989.437 106 101 106
77.812 76.491 989.350 116 111 112
77.812 76.991 989.221 122 119 119
77.812 77.491 989.115 125 119 119
78.312 66.991 997.891 127 122 126
78.312 67.491 997.684 122 118 121
78.312 67.991 997.420 131 125 128
78.312 68.491 997.101 128 124 125
78.312 68.991 996.738 120 117 117
78.312 69.491 996.289 118 112 116
78.312 69.991 995.586 119 117 119
78.312 70.491 994.735 121 119 122
78.312 70.991 993.980 117 115 118
78.312 71.491 993.228 107 104 111
78.312 71.991 992.249 99 96 103
78.312 72.491 991.301 92 88 95
78.312 72.991 990.662 91 87 94
78.312 73.491 990.214 87 86 94
78.312 73.991 989.880 85 84 93
78.312 74.491 989.544 88 85 93
78.312 74.991 989.196 96 93 100
78.312 75.491 988.933 105 102 108
78.312 75.991 988.731 119 113 118
78.312 76.491 988.565 120 117 117
78.312 76.991 988.437 126 122 123
78.312 77.491 988.367 127 121 123
78.812 66.991 997.467 118 112 116
78.812 67.491 997.175 121 117 120
78.812 67.991 996.966 123 118 121
78.812 68.491 996.652 125 121 123
