276.812 -116.509 955.373 143 133 126
276.812 -116.009 955.124 132 124 118
276.812 -115.509 954.839 129 122 117
276.812 -115.009 954.654 133 127 124
276.812 -114.509 954.483 139 133 130
276.812 -114.009 954.317 137 129 126
276.812 -113.509 954.165 130 120 118
276.812 -113.009 954.033 126 117 114
276.812 -112.509 953.867 132 121 117
276.812 -112.009 953.699 141 128 121
276.812 -111.509 953.518 142 128 119
276.812 -111.009 953.276 138 123 116
276.812 -110.509 953.073 148 133 124
276.812 -110.009 952.925 168 149 137
276.812 -109.509 952.768 169 151 137
276.812 -109.009 952.572 168 150 138
277.312 -119.009 956.174 150 140 131
277.312 -118.509 955.872 164 151 143
277.312 -118.009 955.648 173 160 151
277.312 -117.509 955.415 186 172 163
277.312 -117.009 955.159 175 162 153
277.312 -116.509 954.966 153 141 133
277.312 -116.009 954.732 141 130 124
277.312 -115.509 954.494 137 129 122
277.312 -115.009 954.315 138 130 125
277.312 -114.509 954.183 145 138 132
277.312 -114.009 954.051 138 129 124
277.312 -113.509 953.905 140 131 126
277.312 -113.009 953.750 136 125 121
277.312 -112.509 953.558 132 121 117
277.312 -112.009 953.373 133 120 112
277.312 -111.509 953.156 137 124 116
277.312 -111.009 952.887 142 126 119
277.312 -110.509 952.670 154 137 129
277.312 -110.009 952.481 158 141 130
277.312 -109.509 952.287 168 149 135
277.812 -119.009 955.786 127 117 110
277.812 -118.509 955.519 139 128 122
277.812 -118.009 955.287 152 139 131
277.812 -117.509 955.051 173 159 150
277.812 -117.009 954.765 179 166 156
277.812 -116.509 954.565 184 170 161
277.812 -116.009 954.410 171 158 150
277.812 -115.509 954.233 155 145 136
277.812 -115.009 954.066 144 134 126
277.812 -114.509 953.898 149 138 131
277.812 -114.009 953.709 139 128 122
277.812 -113.509 953.562 138 127 123
277.812 -113.009 953.403 133 122 118
277.812 -112.509 953.189 136 123 119
277.812 -112.009 952.969 143 130 123
277.812 -111.509 952.715 152 139 130
277.812 -111.009 952.507 156 140 133
277.812 -110.509 952.328 156 139 131
278.312 -119.009 955.507 129 120 116
278.312 -118.509 955.259 133 122 118
278.312 -118.009 954.997 124 113 109
278.312 -117.509 954.700 133 119 112
278.312 -117.009 954.374 150 136 127
278.312 -116.509 954.184 175 161 152
278.312 -116.009 954.049 188 175 166
278.312 -115.509 953.885 192 179 171
278.312 -115.009 953.722 179 168 156
278.312 -114.509 953.535 157 145 134
278.312 -114.009 953.281 145 134 128
278.312 -113.509 953.064 129 119 114
278.312 -113.009 952.856 128 118 113
278.312 -112.509 952.676 135 121 118
278.312 -112.009 952.505 147 134 127
278.812 -119.009 955.296 134 124 122
278.812 -118.509 955.023 131 121 119
278.812 -118.009 954.723 120 110 108
278.812 -117.509 954.388 120 110 104
278.812 -117.009 954.076 124 115 107
278.812 -116.509 953.900 140 128 120
278.812 -116.009 953.739 154 141 132
278.812 -115.509 953.533 170 156 146
278.812 -115.009 953.325 177 163 151
278.812 -114.509 953.098 168 153 142
278.812 -114.009 952.832 142 128 121
278.812 -113.509 952.624 135 122 116
278.812 -113.009 952.440 136 122 117
268.312 -108.509 958.096 164 146 134
268.312 -108.009 957.943 156 138 126
268.312 -107.509 957.805 173 155 142
268.312 -107.009 957.644 184 167 151
268.312 -106.509 957.436 184 163 146
268.312 -106.009 957.165 193 172 153
268.312 -105.509 956.816 195 174 155
268.312 -105.009 956.524 195 172 156
268.312 -104.509 956.245 186 163 145
268.312 -104.009 955.952 190 168 149
268.312 -103.509 955.628 197 174 156
268.312 -103.009 955.325 190 168 149
268.312 -102.509 955.052 192 171 152
268.312 -102.009 954.721 199 179 159
268.812 -108.509 957.887 147 129 117
268.812 -108.009 957.693 142 124 116
268.812 -107.509 957.490 134 117 107
268.812 -107.009 957.321 151 133 119
268.812 -106.509 957.111 179 159 143
268.812 -106.009 956.809 196 175 156
268.812 -105.509 956.525 191 170 151
268.812 -105.009 956.302 197 174 156
268.812 -104.509 956.032 195 169 152
268.812 -104.009 955.679 194 170 152
268.812 -103.509 955.331 187 164 146
268.812 -103.009 955.056 180 157 139
268.812 -102.509 954.760 194 173 154
268.812 -102.009 954.394 195 174 155
268.812 -101.509 954.054 188 166 147
269.312 -108.509 957.599 151 132 118
269.312 -108.009 957.404 140 121 109
269.312 -107.509 957.192 139 117 108
269.312 -107.009 956.968 155 134 121
269.312 -106.509 956.734 177 155 141
269.312 -106.009 956.508 191 169 153
269.312 -105.509 956.270 184 162 143
269.312 -105.009 955.982 187 167 147
269.312 -104.509 955.667 192 169 153
269.312 -104.009 955.376 183 161 144
269.312 -103.509 955.099 173 152 135
269.312 -103.009 954.789 176 155 138
269.312 -102.509 954.468 184 162 145
269.312 -102.009 954.100 174 153 136
269.312 -101.509 953.736 179 156 140
269.312 -101.009 953.407 177 154 138
269.312 -100.509 953.126 201 179 162
269.312 -100.009 952.852 199 176 158
269.312 -99.509 952.490 192 169 151
269.812 -108.509 957.224 184 164 147
269.812 -108.009 957.069 179 158 144
269.812 -107.509 956.807 175 153 140
269.812 -107.009 956.542 187 166 152
269.812 -106.509 956.356 190 168 154
269.812 -106.009 956.178 180 159 143
269.812 -105.509 955.930 171 150 133
269.812 -105.009 955.642 169 148 131
269.812 -104.509 955.351 187 167 149
269.812 -104.009 955.083 188 168 150
269.812 -103.509 954.793 187 167 149
269.812 -103.009 954.488 181 160 143
269.812 -102.509 954.165 176 155 138
269.812 -102.009 953.781 153 132 116
269.812 -101.509 953.410 166 142 126
269.812 -101.009 953.123 179 155 139
269.812 -100.509 952.850 195 172 156
269.812 -100.009 952.501 202 179 161
270.312 -108.509 956.865 198 177 160
270.312 -108.009 956.700 195 174 157
270.312 -107.509 956.444 192 170 156
270.312 -107.009 956.229 184 162 148
270.312 -106.509 956.041 184 161 147
270.312 -106.009 955.818 181 159 145
270.312 -105.509 955.576 170 148 134
270.312 -105.009 955.319 176 154 140
270.312 -104.509 955.035 187 167 149
270.312 -104.009 954.755 198 177 160
270.312 -103.509 954.474 194 173 156
270.312 -103.009 954.159 185 164 147
270.312 -102.509 953.819 192 171 154
270.312 -102.009 953.490 177 156 139
270.312 -101.509 953.121 181 158 142
270.312 -101.009 952.810 193 170 154
270.312 -100.509 952.484 196 173 156
270.812 -108.509 956.473 196 175 156
270.812 -108.009 956.264 202 181 163
270.812 -107.509 956.062 193 172 155
270.812 -107.009 955.904 185 164 147
270.812 -106.509 955.743 183 161 145
270.812 -106.009 955.533 179 156 141
270.812 -105.509 955.298 181 159 145
270.812 -105.009 955.022 179 157 142
270.812 -104.509 954.734 175 154 135
270.812 -104.009 954.469 201 180 161
270.812 -103.509 954.171 196 175 156
270.812 -103.009 953.836 190 169 150
270.812 -102.509 953.506 193 172 153
270.812 -102.009 953.159 177 156 137
270.812 -101.509 952.814 179 156 138
270.812 -101.009 952.470 190 168 149
271.312 -108.509 956.072 197 176 159
271.312 -108.009 955.871 194 173 155
271.312 -107.509 955.735 187 167 149
271.312 -107.009 955.605 183 161 144
271.312 -106.509 955.442 184 162 145
271.312 -106.009 955.237 180 159 142
271.312 -105.509 954.967 188 168 150
271.312 -105.009 954.703 184 161 145
271.312 -104.509 954.458 169 148 129
271.312 -104.009 954.191 194 173 154
271.312 -103.509 953.893 192 171 152
271.312 -103.009 953.576 197 176 157
271.312 -102.509 953.222 188 168 148
271.312 -102.009 952.849 180 159 140
271.312 -101.509 952.505 188 166 147
271.812 -108.509 955.776 192 173 156
271.812 -108.009 955.563 184 163 148
271.812 -107.509 955.379 181 159 145
271.812 -107.009 955.195 181 160 143
271.812 -106.509 954.989 188 168 150
271.812 -106.009 954.792 191 170 152
271.812 -105.509 954.585 196 175 156
271.812 -105.009 954.411 196 175 156
271.812 -104.509 954.192 190 169 150
271.812 -104.009 953.922 180 159 140
271.812 -103.509 953.635 176 155 136
271.812 -103.009 953.305 191 170 151
271.812 -102.509 952.931 184 163 144
271.812 -102.009 952.561 189 168 149
272.312 -108.509 955.404 183 163 148
272.312 -108.009 955.201 183 161 147
272.312 -107.509 954.988 177 155 141
272.312 -107.009 954.787 184 162 148
272.312 -106.509 954.576 193 172 154
272.312 -106.009 954.377 194 173 154
272.312 -105.509 954.212 199 179 157
272.312 -105.009 954.037 197 176 155
272.312 -104.509 953.842 195 174 155
272.312 -104.009 953.602 185 164 145
272.312 -103.509 953.335 186 166 146
272.312 -103.009 953.016 187 167 147
272.312 -102.509 952.620 190 169 150
272.812 -108.509 954.949 179 158 143
272.812 -108.009 954.775 175 155 140
272.812 -107.509 954.652 179 158 144
272.812 -107.009 954.506 189 168 151
272.812 -106.509 954.306 189 168 151
272.812 -106.009 954.062 194 173 154
272.812 -105.509 953.809 194 173 154
272.812 -105.009 953.588 197 176 157
272.812 -104.509 953.410 203 181 160
272.812 -104.009 953.224 202 180 159
272.812 -103.509 952.979 186 164 143
272.812 -103.009 952.687 179 156 138
272.812 -102.509 952.330 195 172 154
273.312 -108.509 954.633 176 158 146
273.312 -108.009 954.443 173 154 140
273.312 -107.509 954.328 184 166 150
273.312 -107.009 954.219 186 168 151
273.312 -106.509 954.003 188 168 151
273.312 -106.009 953.721 191 170 152
273.312 -105.509 953.464 186 166 146
273.312 -105.009 953.272 203 183 161
273.312 -104.509 953.103 204 183 161
273.312 -104.009 952.875 204 183 161
273.312 -103.509 952.593 189 168 146
273.312 -103.009 952.322 176 153 135
273.812 -108.509 954.393 155 138 130
273.812 -108.009 954.147 167 148 137
273.812 -107.509 953.928 177 159 145
273.812 -107.009 953.748 180 161 146
273.812 -106.509 953.522 187 168 153
273.812 -106.009 953.298 193 172 154
273.812 -105.509 953.096 192 171 152
273.812 -105.009 952.879 200 179 157
273.812 -104.509 952.692 206 184 163
273.812 -104.009 952.507 204 183 161
274.312 -108.509 954.122 129 113 106
274.312 -108.009 953.841 141 124 114
274.312 -107.509 953.543 171 153 139
274.312 -107.009 953.256 183 164 150
274.312 -106.509 953.014 191 172 156
274.312 -106.009 952.855 195 175 156
274.312 -105.509 952.697 198 177 158
274.312 -105.009 952.519 202 180 159
274.312 -104.509 952.353 211 189 168
274.812 -108.509 953.812 129 115 109
274.812 -108.009 953.511 132 117 108
274.812 -107.509 953.211 155 139 126
274.812 -107.009 952.928 179 162 149
274.812 -106.509 952.681 184 167 150
274.812 -106.009 952.525 190 170 152
274.812 -105.509 952.357 189 167 148
275.312 -108.509 953.450 140 125 120
275.312 -108.009 953.155 132 118 108
275.312 -107.509 952.886 139 122 111
275.312 -107.009 952.655 161 145 132
275.312 -106.509 952.411 170 152 137
275.812 -108.509 953.114 155 138 131
275.812 -108.009 952.859 154 137 131
275.812 -107.509 952.624 140 123 116
275.812 -107.009 952.404 137 120 110
276.312 -108.509 952.790 147 130 122
276.312 -108.009 952.565 150 133 125
276.312 -107.509 952.343 141 124 116
276.812 -108.509 952.387 159 140 130
279.312 -168.509 956.494 169 155 144
279.312 -168.009 956.486 171 157 146
279.312 -167.509 956.522 172 158 147
279.312 -167.009 956.566 175 161 150
279.312 -166.509 956.617 179 166 154
279.312 -166.009 956.660 175 161 150
279.312 -165.509 956.704 175 162 153
279.312 -165.009 956.763 162 149 140
279.312 -164.509 956.867 167 153 144
279.312 -164.009 956.985 168 154 145
279.312 -163.509 957.066 169 156 147
279.812 -173.009 955.470 180 168 158
279.812 -172.009 955.641 176 164 154
279.812 -171.509 955.745 177 164 155
279.812 -171.009 955.868 170 157 148
279.812 -170.009 956.049 173 160 151
279.812 -169.009 956.086 168 155 146
279.812 -168.509 956.085 168 154 143
279.812 -168.009 956.099 170 156 145
279.812 -167.509 956.145 175 161 150
279.812 -167.009 956.190 179 164 153
279.812 -166.509 956.243 180 167 155
279.812 -166.009 956.311 174 160 149
279.812 -165.509 956.363 167 153 144
279.812 -165.009 956.418 158 145 136
279.812 -164.509 956.527 167 153 144
279.812 -164.009 956.651 168 155 146
279.812 -163.509 956.750 163 150 141
280.312 -174.009 954.908 169 156 147
280.312 -173.509 954.959 174 161 152
280.312 -173.009 955.088 177 164 155
280.312 -172.509 955.214 177 166 153
280.312 -172.009 955.301 177 164 154
280.312 -171.509 955.396 171 158 149
280.312 -171.009 955.463 172 159 150
280.312 -170.509 955.512 174 161 152
280.312 -170.009 955.557 171 158 149
280.312 -169.509 955.590 167 153 144
280.312 -169.009 955.602 168 155 146
280.312 -168.509 955.611 170 156 145
280.312 -168.009 955.668 172 158 147
280.312 -167.509 955.800 179 166 154
280.312 -167.009 955.908 184 170 159
280.312 -166.509 955.949 181 168 156
280.312 -166.009 955.979 176 162 151
280.312 -165.509 956.019 168 155 146
280.312 -165.009 956.113 163 150 141
280.312 -164.509 956.242 167 153 144
280.312 -164.009 956.324 166 152 143
280.312 -163.509 956.390 159 146 137
280.812 -174.009 954.513 179 168 155
280.812 -173.509 954.600 179 168 155
280.812 -173.009 954.776 176 164 152
280.812 -172.509 954.897 175 162 153
280.812 -172.009 954.953 173 160 151
280.812 -171.509 954.982 173 160 151
280.812 -171.009 954.999 179 166 156
280.812 -170.509 955.024 174 161 152
280.812 -170.009 955.085 170 157 148
280.812 -169.509 955.132 170 157 148
280.812 -169.009 955.130 170 157 148
280.812 -168.509 955.132 175 161 150
280.812 -168.009 955.163 173 159 148
280.812 -167.509 955.276 179 164 153
280.812 -167.009 955.474 179 166 154
280.812 -166.509 955.572 174 160 149
280.812 -166.009 955.596 179 164 153
280.812 -165.509 955.678 169 156 147
280.812 -165.009 955.846 168 155 146
280.812 -164.509 955.961 168 155 146
280.812 -164.009 956.015 166 152 143
280.812 -163.509 956.071 160 147 138
281.312 -174.009 954.139 183 170 158
281.312 -173.509 954.283 185 173 161
281.312 -173.009 954.403 177 166 153
281.312 -172.509 954.480 172 159 150
281.312 -172.009 954.537 170 157 148
281.312 -171.509 954.557 167 153 144
281.312 -171.009 954.572 179 167 157
281.312 -170.509 954.591 180 168 158
281.312 -170.009 954.617 172 159 150
281.312 -169.509 954.630 171 158 149
281.312 -169.009 954.641 172 159 150
281.312 -168.509 954.690 173 159 148
281.312 -168.009 954.730 173 159 148
281.312 -167.509 954.802 176 162 151
281.312 -167.009 955.005 177 163 152
281.312 -166.509 955.149 174 160 149
281.312 -166.009 955.222 179 164 153
281.312 -165.509 955.333 169 156 147
281.312 -165.009 955.460 171 158 149
281.312 -164.509 955.555 170 157 148
281.312 -164.009 955.667 169 156 147
281.312 -163.509 955.761 164 151 142
281.812 -174.009 953.811 175 163 150
281.812 -173.509 953.957 179 167 154
281.812 -173.009 954.039 175 163 151
281.812 -172.509 954.092 174 161 152
281.812 -172.009 954.134 173 160 151
281.812 -171.509 954.114 170 157 148
281.812 -171.009 954.094 173 160 151
281.812 -170.509 954.103 184 171 162
281.812 -170.009 954.132 183 169 160
281.812 -169.509 954.195 180 168 158
281.812 -169.009 954.264 179 166 156
281.812 -168.509 954.337 173 159 148
281.812 -168.009 954.419 172 158 147
281.812 -167.509 954.489 176 162 151
281.812 -167.009 954.588 176 162 151
281.812 -166.509 954.683 169 155 144
281.812 -166.009 954.788 174 160 149
281.812 -165.509 954.846 174 161 152
281.812 -165.009 954.951 174 161 152
281.812 -164.509 955.059 177 164 155
281.812 -164.009 955.167 170 157 148
281.812 -163.509 955.351 168 154 145
282.312 -174.009 953.457 179 164 152
282.312 -173.509 953.618 180 167 153
282.312 -173.009 953.672 177 163 152
282.312 -172.509 953.748 173 159 149
282.312 -172.009 953.792 171 157 148
282.312 -171.509 953.757 173 159 150
282.312 -171.009 953.732 172 158 149
282.312 -170.509 953.722 166 151 142
282.312 -170.009 953.745 167 152 143
282.312 -169.509 953.879 171 157 148
282.312 -169.009 953.970 179 164 155
282.312 -168.509 954.020 174 162 150
282.312 -168.009 954.098 176 164 152
282.312 -167.509 954.174 176 164 152
282.312 -167.009 954.253 176 162 153
282.312 -166.509 954.247 168 154 145
282.312 -166.009 954.359 168 154 145
282.312 -165.509 954.485 173 159 150
282.312 -165.009 954.572 173 159 150
282.312 -164.509 954.660 179 164 155
282.312 -164.009 954.758 174 160 149
282.312 -163.509 954.937 171 157 146
282.812 -174.009 953.042 177 163 150
282.812 -173.509 953.218 184 170 157
282.812 -173.009 953.324 184 169 158
282.812 -172.509 953.388 179 164 153
282.812 -172.009 953.419 171 157 148
282.812 -171.509 953.436 175 161 152
282.812 -171.009 953.437 174 160 151
282.812 -170.509 953.379 152 138 129
282.812 -170.009 953.367 139 125 116
282.812 -169.509 953.475 141 127 118
282.812 -169.009 953.474 172 158 149
282.812 -168.509 953.535 183 170 158
282.812 -168.009 953.655 177 166 153
282.812 -167.509 953.722 171 159 147
282.812 -167.009 953.765 169 155 146
282.812 -166.509 953.816 166 151 142
282.812 -166.009 953.915 167 152 143
282.812 -165.509 954.023 171 157 148
282.812 -165.009 954.147 169 155 146
282.812 -164.509 954.273 172 158 149
282.812 -164.009 954.397 179 166 154
282.812 -163.509 954.552 173 159 148
283.312 -174.009 952.617 177 163 151
283.312 -173.509 952.773 180 167 153
283.312 -173.009 952.890 176 162 151
283.312 -172.509 952.956 175 161 150
283.312 -172.009 952.997 172 158 149
283.312 -171.509 953.024 175 161 152
283.312 -171.009 953.053 175 161 152
283.312 -170.509 953.073 157 143 134
283.312 -170.009 953.081 143 129 120
283.312 -169.509 953.079 153 139 130
283.312 -169.009 953.028 176 162 153
283.312 -168.509 953.082 179 168 155
283.312 -168.009 953.158 179 168 155
283.312 -167.509 953.201 173 161 149
283.312 -167.009 953.271 168 153 144
283.312 -166.509 953.405 155 141 132
283.312 -166.009 953.500 156 142 133
283.312 -165.509 953.595 171 157 148
283.312 -165.009 953.774 174 160 151
283.312 -164.509 953.909 172 158 148
283.312 -164.009 954.025 179 166 154
283.312 -163.509 954.173 179 166 154
283.812 -173.509 952.310 180 167 153
283.812 -173.009 952.446 175 161 150
283.812 -172.509 952.522 171 157 146
283.812 -172.009 952.578 172 158 149
283.812 -171.509 952.602 176 162 153
283.812 -171.009 952.655 176 162 153
283.812 -170.509 952.718 169 155 146
283.812 -170.009 952.731 168 153 144
283.812 -169.509 952.686 168 154 145
283.812 -169.009 952.665 174 160 151
283.812 -168.509 952.739 179 166 154
283.812 -168.009 952.816 179 164 153
283.812 -167.509 952.869 171 157 146
283.812 -167.009 952.949 168 155 146
283.812 -166.509 953.056 161 148 139
283.812 -166.009 953.122 159 146 137
283.812 -165.509 953.200 170 156 147
283.812 -165.009 953.347 173 159 150
283.812 -164.509 953.504 173 159 150
283.812 -164.009 953.689 179 164 153
283.812 -163.509 953.869 179 166 154
284.312 -170.009 952.321 175 161 152
284.312 -169.509 952.278 171 157 148
284.312 -169.009 952.285 176 162 153
284.312 -168.509 952.348 180 167 155
284.312 -168.009 952.459 184 170 159
284.312 -167.509 952.594 168 154 143
284.312 -167.009 952.729 170 157 148
284.312 -166.509 952.817 168 155 146
284.312 -166.009 952.871 168 154 145
284.312 -165.509 952.940 171 157 148
284.312 -165.009 953.026 172 158 149
284.312 -164.509 953.127 176 162 153
284.312 -164.009 953.231 176 162 151
284.312 -163.509 953.333 177 163 152
284.812 -167.509 952.299 176 162 151
284.812 -167.009 952.437 177 164 155
284.812 -166.509 952.496 170 157 148
284.812 -166.009 952.532 164 151 142
284.812 -165.509 952.587 168 154 145
284.812 -165.009 952.672 176 162 153
284.812 -164.509 952.755 179 164 155
284.812 -164.009 952.798 174 160 149
284.812 -163.509 952.817 174 160 149
285.312 -164.509 952.379 181 168 157
285.312 -164.009 952.469 176 162 151
285.312 -163.509 952.550 173 159 148
279.312 -163.009 957.142 172 159 150
279.312 -162.509 957.308 167 153 144
279.312 -162.009 957.519 163 151 142
279.312 -161.509 957.655 168 155 146
279.312 -161.009 957.748 181 168 159
279.312 -160.509 957.865 184 170 160
279.312 -160.009 957.994 181 168 156
279.312 -159.509 958.106 158 144 133
279.312 -159.009 958.166 160 146 137
279.312 -158.509 958.219 167 152 142
279.312 -158.009 958.315 175 159 149
279.312 -157.509 958.421 187 171 158
279.312 -157.009 958.568 197 181 168
279.312 -156.509 958.691 196 180 165
279.312 -156.009 958.738 180 163 152
279.312 -155.509 958.789 159 145 134
279.312 -155.009 958.907 154 140 129
279.312 -154.509 959.018 156 142 131
279.312 -154.009 959.149 170 156 145
279.312 -153.509 959.312 174 160 149
279.312 -153.009 959.520 170 156 145
279.312 -152.509 959.723 167 154 141
279.812 -163.009 956.839 163 150 141
279.812 -162.509 956.949 159 146 137
279.812 -162.009 957.099 155 143 134
279.812 -161.509 957.216 164 151 142
279.812 -161.009 957.349 176 163 154
279.812 -160.509 957.516 180 168 158
279.812 -160.009 957.658 188 174 163
279.812 -159.509 957.774 172 158 147
279.812 -159.009 957.833 160 146 137
279.812 -158.509 957.886 167 152 143
279.812 -158.009 958.000 175 159 149
279.812 -157.509 958.092 180 163 153
279.812 -157.009 958.155 187 171 158
279.812 -156.509 958.287 197 181 168
279.812 -156.009 958.418 185 170 159
279.812 -155.509 958.505 175 161 150
279.812 -155.009 958.592 166 151 140
279.812 -154.509 958.678 172 158 147
279.812 -154.009 958.840 183 168 157
279.812 -153.509 959.000 183 168 157
279.812 -153.009 959.174 171 157 146
279.812 -152.509 959.370 164 152 140
280.312 -163.009 956.466 152 139 130
280.312 -162.509 956.573 150 137 128
280.312 -162.009 956.726 145 133 124
280.312 -161.509 956.838 148 135 126
280.312 -161.009 956.963 156 143 134
280.312 -160.509 957.110 171 157 148
280.312 -160.009 957.203 187 173 162
280.312 -159.509 957.315 188 174 163
280.312 -159.009 957.440 179 166 156
280.312 -158.509 957.550 168 153 144
280.312 -158.009 957.644 168 154 143
280.312 -157.509 957.732 172 155 145
280.312 -157.009 957.834 177 161 148
280.312 -156.509 957.939 189 173 160
280.312 -156.009 958.015 196 181 171
280.312 -155.509 958.087 193 179 168
280.312 -155.009 958.182 184 169 158
280.312 -154.509 958.357 185 171 160
280.312 -154.009 958.561 190 176 165
280.312 -153.509 958.706 184 170 159
280.312 -153.009 958.808 173 159 148
280.312 -152.509 958.972 168 153 144
280.812 -163.009 956.128 154 141 132
280.812 -162.509 956.247 153 141 132
280.812 -162.009 956.445 141 129 120
280.812 -161.509 956.603 136 123 114
280.812 -161.009 956.700 142 129 120
280.812 -160.509 956.784 166 152 143
280.812 -160.009 956.867 179 166 154
280.812 -159.509 956.973 184 169 158
280.812 -159.009 957.128 181 168 159
280.812 -158.509 957.258 172 158 149
280.812 -158.009 957.306 169 155 146
280.812 -157.509 957.334 170 156 145
280.812 -157.009 957.452 175 160 149
280.812 -156.509 957.569 169 153 142
280.812 -156.009 957.613 168 153 142
280.812 -155.509 957.702 184 170 159
280.812 -155.009 957.843 198 184 173
280.812 -154.509 958.022 189 175 164
280.812 -154.009 958.248 187 173 162
280.812 -153.509 958.428 184 170 159
280.812 -153.009 958.554 177 163 152
280.812 -152.509 958.675 168 154 143
281.312 -163.009 955.845 159 146 137
281.312 -162.509 955.960 162 149 140
281.312 -162.009 956.069 156 144 135
281.312 -161.509 956.196 154 141 132
281.312 -161.009 956.340 161 148 139
281.312 -160.509 956.452 170 157 148
281.312 -160.009 956.557 179 166 154
281.312 -159.509 956.709 183 168 157
281.312 -159.009 956.871 179 167 157
281.312 -158.509 956.952 168 154 145
281.312 -158.009 956.976 170 157 148
281.312 -157.509 956.990 176 162 153
281.312 -157.009 957.082 172 158 149
281.312 -156.509 957.196 163 149 140
281.312 -156.009 957.282 155 141 130
281.312 -155.509 957.386 156 142 131
281.312 -155.009 957.492 187 173 162
281.312 -154.509 957.576 200 186 175
281.312 -154.009 957.782 187 173 162
281.312 -153.509 957.980 183 168 157
281.312 -153.009 958.182 179 164 153
281.312 -152.509 958.327 169 155 142
281.812 -163.009 955.555 163 150 141
281.812 -162.509 955.652 168 156 147
281.812 -162.009 955.682 170 158 149
281.812 -161.509 955.789 168 155 146
281.812 -161.009 955.959 171 158 149
281.812 -160.509 956.126 176 163 153
281.812 -160.009 956.285 183 168 157
281.812 -159.509 956.401 181 168 156
281.812 -159.009 956.474 176 163 154
281.812 -158.509 956.547 164 151 142
281.812 -158.009 956.604 163 150 141
281.812 -157.509 956.632 169 155 146
281.812 -157.009 956.701 170 156 147
281.812 -156.509 956.799 166 151 142
281.812 -156.009 956.932 156 142 133
281.812 -155.509 957.077 142 128 117
281.812 -155.009 957.199 146 132 121
281.812 -154.509 957.281 191 177 166
281.812 -154.009 957.412 188 174 163
281.812 -153.509 957.555 179 164 153
281.812 -153.009 957.766 179 164 152
281.812 -152.509 957.933 171 155 140
282.312 -163.009 955.152 171 157 146
282.312 -162.509 955.262 171 158 145
282.312 -162.009 955.347 171 158 149
282.312 -161.509 955.495 169 156 147
282.312 -161.009 955.648 171 158 149
282.312 -160.509 955.787 177 164 155
282.312 -160.009 955.918 183 169 160
282.312 -159.509 955.994 183 169 160
282.312 -159.009 956.038 173 160 151
282.312 -158.509 956.149 160 147 138
282.312 -158.009 956.259 157 144 135
282.312 -157.509 956.296 158 145 136
282.312 -157.009 956.319 160 147 139
282.312 -156.509 956.390 163 150 142
282.312 -156.009 956.519 163 150 143
282.312 -155.509 956.683 152 139 131
282.312 -155.009 956.860 145 131 120
282.312 -154.509 956.985 174 160 146
282.312 -154.009 957.067 197 181 166
282.312 -153.509 957.246 184 166 153
282.312 -153.009 957.429 180 163 151
282.312 -152.509 957.518 180 163 153
282.812 -163.009 954.688 176 162 151
282.812 -162.509 954.792 173 159 148
282.812 -162.009 954.922 170 157 148
282.812 -161.509 955.089 170 157 148
282.812 -161.009 955.227 174 161 152
282.812 -160.509 955.349 177 164 155
282.812 -160.009 955.463 183 169 160
282.812 -159.509 955.534 180 168 158
282.812 -159.009 955.643 173 160 151
282.812 -158.509 955.785 168 154 145
282.812 -158.009 955.884 166 152 143
282.812 -157.509 955.933 158 145 136
282.812 -157.009 955.972 160 147 139
282.812 -156.509 956.044 153 140 132
282.812 -156.009 956.217 145 132 125
282.812 -155.509 956.382 157 144 136
282.812 -155.009 956.527 168 153 144
282.812 -154.509 956.652 176 162 149
282.812 -154.009 956.706 203 187 173
282.812 -153.509 956.884 190 172 160
282.812 -153.009 957.085 180 162 150
282.812 -152.509 957.230 177 161 149
283.312 -163.009 954.291 179 164 153
283.312 -162.509 954.419 175 161 150
283.312 -162.009 954.569 169 156 147
283.312 -161.509 954.699 171 158 149
283.312 -161.009 954.760 174 161 152
283.312 -160.509 954.799 176 163 154
283.312 -160.009 954.926 180 168 158
283.312 -159.509 955.084 179 166 156
283.312 -159.009 955.254 177 164 155
283.312 -158.509 955.365 171 158 149
283.312 -158.009 955.454 164 151 142
283.312 -157.509 955.562 160 147 138
283.312 -157.009 955.645 159 146 138
283.312 -156.509 955.745 150 137 129
283.312 -156.009 955.902 140 127 120
283.312 -155.509 956.021 154 141 133
283.312 -155.009 956.103 174 161 152
283.312 -154.509 956.257 185 171 161
283.312 -154.009 956.415 195 180 168
283.312 -153.509 956.574 192 176 163
283.312 -153.009 956.746 181 166 150
283.312 -152.509 956.913 179 162 149
283.812 -163.009 954.015 181 168 156
283.812 -162.509 954.122 179 166 153
283.812 -162.009 954.211 164 151 142
283.812 -161.509 954.302 167 153 144
283.812 -161.009 954.347 173 160 151
283.812 -160.509 954.420 173 160 151
283.812 -160.009 954.567 175 162 153
283.812 -159.509 954.686 175 162 153
283.812 -159.009 954.798 174 161 152
283.812 -158.509 954.902 173 160 151
283.812 -158.009 955.045 169 156 147
283.812 -157.509 955.216 166 152 143
283.812 -157.009 955.315 158 145 137
283.812 -156.509 955.358 151 138 130
283.812 -156.009 955.496 141 129 123
283.812 -155.509 955.658 144 131 123
283.812 -155.009 955.785 168 155 147
283.812 -154.509 955.904 171 158 149
283.812 -154.009 956.101 175 159 149
283.812 -153.509 956.312 192 176 163
283.812 -153.009 956.465 196 180 165
283.812 -152.509 956.553 185 169 156
284.312 -163.009 953.517 179 164 153
284.312 -162.509 953.715 180 167 154
284.312 -162.009 953.809 174 161 152
284.312 -161.509 953.859 172 159 150
284.312 -161.009 953.889 176 163 154
284.312 -160.509 953.982 175 162 153
284.312 -160.009 954.176 170 157 148
284.312 -159.509 954.351 173 160 151
284.312 -159.009 954.454 175 162 153
284.312 -158.509 954.508 171 158 149
284.312 -158.009 954.542 166 152 143
284.312 -157.509 954.683 171 158 149
284.312 -157.009 954.833 164 151 143
284.312 -156.509 954.934 148 135 127
284.312 -156.009 955.104 139 128 120
284.312 -155.509 955.304 140 130 121
284.312 -155.009 955.428 150 137 129
284.312 -154.509 955.530 148 135 127
284.312 -154.009 955.723 142 128 117
284.312 -153.509 955.928 170 154 141
284.312 -153.009 956.075 198 183 167
284.312 -152.509 956.177 195 179 165
284.812 -163.009 952.906 174 160 149
284.812 -162.509 953.064 179 164 152
284.812 -162.009 953.218 176 163 154
284.812 -161.509 953.361 174 161 152
284.812 -161.009 953.439 179 166 156
284.812 -160.509 953.536 179 166 156
284.812 -160.009 953.704 175 162 153
284.812 -159.509 953.873 176 163 154
284.812 -159.009 954.009 176 163 154
284.812 -158.509 954.106 169 156 147
284.812 -158.009 954.172 164 151 142
284.812 -157.509 954.230 152 139 130
284.812 -157.009 954.305 161 148 140
284.812 -156.509 954.478 152 139 131
284.812 -156.009 954.727 144 133 124
284.812 -155.509 954.945 142 132 123
284.812 -155.009 955.070 146 134 128
284.812 -154.509 955.219 140 127 120
284.812 -154.009 955.409 143 129 119
284.812 -153.509 955.564 162 148 135
284.812 -153.009 955.681 200 184 170
284.812 -152.509 955.795 193 177 162
285.312 -163.009 952.657 173 159 146
285.312 -162.509 952.774 176 162 149
285.312 -162.009 952.883 179 168 155
285.312 -161.509 952.970 177 166 153
285.312 -161.009 953.039 179 166 156
285.312 -160.509 953.166 177 164 155
285.312 -160.009 953.336 174 161 152
285.312 -159.509 953.454 173 160 152
285.312 -159.009 953.555 168 157 148
285.312 -158.509 953.654 161 151 141
285.312 -158.009 953.774 157 147 138
285.312 -157.509 953.906 153 142 133
285.312 -157.009 954.029 158 148 139
285.312 -156.509 954.199 159 149 139
285.312 -156.009 954.427 154 144 134
285.312 -155.509 954.694 152 142 132
285.312 -155.009 954.891 154 144 135
285.312 -154.509 954.990 145 134 125
285.312 -154.009 955.082 142 129 120
285.312 -153.509 955.233 167 153 144
285.312 -153.009 955.383 195 181 171
285.312 -152.509 955.562 176 161 150
285.812 -163.009 952.315 179 164 151
285.812 -162.509 952.471 179 164 151
285.812 -162.009 952.564 177 166 153
285.812 -161.509 952.614 177 166 153
285.812 -161.009 952.734 179 167 157
285.812 -160.509 952.903 177 164 155
285.812 -160.009 953.059 175 162 153
285.812 -159.509 953.213 169 156 148
285.812 -159.009 953.310 156 146 136
285.812 -158.509 953.358 146 136 127
285.812 -158.009 953.465 144 134 127
285.812 -157.509 953.614 139 128 122
285.812 -157.009 953.795 142 132 123
285.812 -156.509 953.942 157 147 138
285.812 -156.009 954.119 154 144 134
285.812 -155.509 954.314 155 145 135
285.812 -155.009 954.514 163 150 141
285.812 -154.509 954.681 162 149 140
285.812 -154.009 954.774 145 132 123
285.812 -153.509 954.873 153 139 130
285.812 -153.009 955.027 175 161 152
285.812 -152.509 955.217 151 138 130
286.312 -161.009 952.402 179 169 159
286.312 -160.509 952.544 184 173 163
286.312 -160.009 952.651 180 170 160
286.312 -159.509 952.817 168 157 147
286.312 -159.009 952.995 155 145 136
286.312 -158.509 953.094 134 124 116
286.312 -158.009 953.197 135 124 118
286.312 -157.509 953.344 140 129 123
286.312 -157.009 953.491 144 133 127
286.312 -156.509 953.620 148 138 129
286.312 -156.009 953.782 167 154 143
286.312 -155.509 953.928 167 154 142
286.312 -155.009 954.124 167 154 142
286.312 -154.509 954.316 179 167 154
286.312 -154.009 954.465 174 160 151
286.312 -153.509 954.564 163 149 140
286.312 -153.009 954.685 164 150 141
286.312 -152.509 954.833 143 130 122
286.812 -160.009 952.343 159 149 139
286.812 -159.509 952.542 164 154 144
286.812 -159.009 952.725 159 146 137
286.812 -158.509 952.849 143 130 122
286.812 -158.009 952.935 139 126 120
286.812 -157.509 953.023 143 130 124
286.812 -157.009 953.095 145 132 126
286.812 -156.509 953.234 154 141 133
286.812 -156.009 953.439 172 159 148
286.812 -155.509 953.632 173 159 148
286.812 -155.009 953.827 172 158 148
286.812 -154.509 954.083 179 164 154
286.812 -154.009 954.262 171 158 149
286.812 -153.509 954.343 150 137 128
286.812 -153.009 954.458 158 145 136
286.812 -152.509 954.627 163 152 146
287.312 -159.009 952.292 168 154 145
287.312 -158.509 952.423 156 143 135
287.312 -158.009 952.533 147 134 126
287.312 -157.509 952.697 151 138 130
287.312 -157.009 952.859 152 139 131
287.312 -156.509 952.989 171 158 150
287.312 -156.009 953.118 181 168 159
287.312 -155.509 953.309 164 151 142
287.312 -155.009 953.498 154 140 131
287.312 -154.509 953.736 160 147 139
287.312 -154.009 953.922 150 138 131
287.312 -153.509 954.051 131 120 114
287.312 -153.009 954.202 138 127 121
287.312 -152.509 954.327 171 159 151
287.812 -157.509 952.412 154 141 133
287.812 -157.009 952.577 161 148 139
287.812 -156.509 952.764 179 168 155
287.812 -156.009 952.928 176 163 153
287.812 -155.509 953.071 144 131 123
287.812 -155.009 953.285 126 117 107
287.812 -154.509 953.485 134 123 117
287.812 -154.009 953.580 134 123 118
287.812 -153.509 953.736 129 120 116
287.812 -153.009 953.929 135 126 121
287.812 -152.509 954.022 153 140 132
288.312 -157.009 952.350 173 161 149
288.312 -156.509 952.507 179 167 154
288.312 -156.009 952.658 169 159 148
288.312 -155.509 952.798 141 131 122
288.312 -155.009 952.992 136 125 119
288.312 -154.509 953.231 142 133 128
288.312 -154.009 953.372 138 128 125
288.312 -153.509 953.445 130 122 119
288.312 -153.009 953.581 128 119 116
288.312 -152.509 953.673 132 119 110
288.812 -155.509 952.421 137 126 119
288.812 -155.009 952.659 136 127 120
288.812 -154.509 952.846 142 134 128
288.812 -154.009 952.995 146 137 132
288.812 -153.509 953.161 157 148 143
288.812 -153.009 953.278 146 137 130
288.812 -152.509 953.310 141 130 124
289.312 -155.009 952.299 142 132 125
289.312 -154.509 952.460 144 135 130
289.312 -154.009 952.641 135 126 121
289.312 -153.509 952.777 145 136 129
289.312 -153.009 952.887 161 150 144
289.312 -152.509 952.960 155 144 138
289.812 -153.509 952.345 146 135 129
289.812 -153.009 952.503 158 147 141
289.812 -152.509 952.599 147 136 130
279.312 -152.009 959.842 162 150 138
279.312 -151.509 959.974 164 152 140
279.312 -151.009 960.126 161 148 139
279.312 -150.509 960.299 157 144 135
279.312 -150.009 960.438 155 142 134
279.312 -149.509 960.527 156 143 135
279.312 -149.009 960.632 177 164 155
279.312 -148.509 960.812 174 161 152
279.312 -148.009 960.930 168 154 145
279.312 -147.509 961.009 169 159 150
279.312 -147.009 961.177 170 160 150
279.312 -146.509 961.323 159 146 136
279.312 -146.009 961.484 179 164 153
279.312 -145.509 961.663 188 174 163
279.312 -145.009 961.883 180 167 155
279.312 -144.509 962.106 184 169 158
279.312 -144.009 962.300 184 169 158
279.312 -143.509 962.492 169 155 144
279.312 -143.009 962.655 153 140 131
279.312 -142.509 962.788 150 137 128
279.312 -142.009 962.880 150 137 128
279.312 -141.509 962.977 154 141 132
279.812 -152.009 959.498 163 151 139
279.812 -151.509 959.693 171 159 147
279.812 -151.009 959.883 162 149 140
279.812 -150.509 960.078 159 146 137
279.812 -150.009 960.217 180 168 158
279.812 -149.509 960.310 189 176 166
279.812 -149.009 960.426 166 152 143
279.812 -148.509 960.583 149 136 127
279.812 -148.009 960.756 148 135 127
279.812 -147.509 960.853 147 137 128
279.812 -147.009 960.975 153 142 136
279.812 -146.509 961.126 145 133 126
279.812 -146.009 961.269 166 151 142
279.812 -145.509 961.432 176 162 153
279.812 -145.009 961.628 170 156 147
279.812 -144.509 961.873 176 162 153
279.812 -144.009 962.093 175 161 152
279.812 -143.509 962.254 175 161 152
279.812 -143.009 962.386 156 143 135
279.812 -142.509 962.485 151 138 130
279.812 -142.009 962.534 157 144 136
279.812 -141.509 962.614 156 143 135
280.312 -152.009 959.112 172 158 149
280.312 -151.509 959.314 180 167 155
280.312 -151.009 959.483 172 158 147
280.312 -150.509 959.671 173 159 148
280.312 -150.009 959.831 184 170 159
280.312 -149.509 960.044 171 159 147
280.312 -149.009 960.216 168 156 144
280.312 -148.509 960.326 154 141 132
280.312 -148.009 960.461 145 132 124
280.312 -147.509 960.546 138 127 121
280.312 -147.009 960.697 139 128 122
280.312 -146.509 960.890 136 125 119
280.312 -146.009 961.009 169 156 147
280.312 -145.509 961.186 154 141 132
280.312 -145.009 961.354 145 132 123
280.312 -144.509 961.580 164 151 142
280.312 -144.009 961.817 167 153 144
280.312 -143.509 961.961 168 154 145
280.312 -143.009 962.036 166 154 148
280.312 -142.509 962.089 155 144 138
280.312 -142.009 962.171 156 145 139
280.312 -141.509 962.286 157 146 140
280.812 -152.009 958.782 172 158 147
280.812 -151.509 958.952 183 168 157
280.812 -151.009 959.082 181 168 156
280.812 -150.509 959.282 184 169 158
280.812 -150.009 959.552 176 162 151
280.812 -149.509 959.754 174 161 150
280.812 -149.009 959.946 160 147 138
280.812 -148.509 960.106 154 141 132
280.812 -148.009 960.220 147 134 127
280.812 -147.509 960.339 142 131 125
280.812 -147.009 960.444 150 139 134
280.812 -146.509 960.632 157 146 140
280.812 -146.009 960.802 168 154 146
280.812 -145.509 960.929 158 145 137
280.812 -145.009 961.056 145 132 124
280.812 -144.509 961.259 158 145 137
280.812 -144.009 961.498 166 152 144
280.812 -143.509 961.695 161 148 140
280.812 -143.009 961.782 152 141 137
280.812 -142.509 961.801 150 140 135
280.812 -142.009 961.804 147 136 132
280.812 -141.509 961.836 146 136 132
281.312 -152.009 958.428 172 158 145
281.312 -151.509 958.606 189 175 162
281.312 -151.009 958.750 195 181 171
281.312 -150.509 958.908 184 169 159
281.312 -150.009 959.214 169 155 146
281.312 -149.509 959.437 168 154 146
281.312 -149.009 959.600 154 141 133
281.312 -148.509 959.783 151 138 130
281.312 -148.009 960.004 146 133 127
281.312 -147.509 960.165 144 133 127
281.312 -147.009 960.218 153 142 136
281.312 -146.509 960.347 146 135 129
281.312 -146.009 960.534 141 128 122
281.312 -145.509 960.669 157 144 138
281.312 -145.009 960.801 157 144 138
281.312 -144.509 960.963 157 144 138
281.312 -144.009 961.115 160 147 141
281.312 -143.509 961.275 161 148 142
281.312 -143.009 961.345 150 139 136
281.312 -142.509 961.377 140 130 127
281.312 -142.009 961.412 137 127 125
281.312 -141.509 961.446 137 127 125
281.812 -152.009 958.075 164 148 133
281.812 -151.509 958.235 187 171 158
281.812 -151.009 958.378 184 167 156
281.812 -150.509 958.510 157 142 132
281.812 -150.009 958.765 148 132 124
281.812 -149.509 959.022 159 146 138
281.812 -149.009 959.248 160 147 140
281.812 -148.509 959.392 157 144 137
281.812 -148.009 959.659 159 146 139
281.812 -147.509 959.837 152 142 133
281.812 -147.009 959.920 145 135 126
281.812 -146.509 960.026 148 138 129
281.812 -146.009 960.161 149 138 132
281.812 -145.509 960.341 149 138 132
281.812 -145.009 960.522 149 138 132
281.812 -144.509 960.676 149 138 132
281.812 -144.009 960.814 161 150 144
281.812 -143.509 960.910 166 154 148
281.812 -143.009 960.943 156 147 143
281.812 -142.509 961.002 146 136 133
281.812 -142.009 961.118 137 128 125
281.812 -141.509 961.188 138 129 125
282.312 -152.009 957.607 179 166 152
282.312 -151.509 957.816 191 177 164
282.312 -151.009 958.001 168 153 140
282.312 -150.509 958.213 137 124 116
282.312 -150.009 958.441 132 119 112
282.312 -149.509 958.708 141 128 119
282.312 -149.009 958.907 158 145 136
282.312 -148.509 959.010 160 147 138
282.312 -148.009 959.224 160 147 138
282.312 -147.509 959.358 159 149 140
282.312 -147.009 959.565 156 146 137
282.312 -146.509 959.723 152 142 133
282.312 -146.009 959.782 163 150 144
282.312 -145.509 960.009 159 146 140
282.312 -145.009 960.212 150 137 131
282.312 -144.509 960.352 151 138 132
282.312 -144.009 960.497 164 151 145
282.312 -143.509 960.638 168 154 148
282.312 -143.009 960.698 158 149 142
282.312 -142.509 960.715 150 141 134
282.312 -142.009 960.767 146 137 130
282.312 -141.509 960.838 143 134 127
282.812 -152.009 957.336 187 173 160
282.812 -151.509 957.463 180 167 153
282.812 -151.009 957.654 173 159 148
282.812 -150.509 957.881 156 143 134
282.812 -150.009 958.139 148 135 127
282.812 -149.509 958.367 172 159 150
282.812 -149.009 958.480 169 156 147
282.812 -148.509 958.674 174 161 152
282.812 -148.009 958.860 167 153 145
282.812 -147.509 958.925 167 156 147
282.812 -147.009 959.130 160 150 141
282.812 -146.509 959.264 168 157 148
282.812 -146.009 959.317 176 163 155
282.812 -145.509 959.530 171 158 150
282.812 -145.009 959.682 160 147 139
282.812 -144.509 959.879 154 141 133
282.812 -144.009 960.040 158 145 137
282.812 -143.509 960.160 166 152 144
282.812 -143.009 960.240 159 149 142
282.812 -142.509 960.258 159 149 142
282.812 -142.009 960.289 155 145 138
282.812 -141.509 960.345 146 136 129
283.312 -152.009 957.026 175 161 148
283.312 -151.509 957.115 166 151 140
283.312 -151.009 957.301 163 149 138
283.312 -150.509 957.458 167 153 144
283.312 -150.009 957.597 169 156 148
283.312 -149.509 957.847 183 169 160
283.312 -149.009 958.021 169 156 147
283.312 -148.509 958.254 162 149 140
283.312 -148.009 958.455 147 134 126
283.312 -147.509 958.559 149 139 130
283.312 -147.009 958.730 159 149 140
283.312 -146.509 958.849 164 153 144
283.312 -146.009 958.938 169 156 147
283.312 -145.509 959.084 177 164 155
283.312 -145.009 959.174 171 158 149
283.312 -144.509 959.348 161 148 140
283.312 -144.009 959.533 156 143 134
283.312 -143.509 959.659 166 152 143
283.312 -143.009 959.770 166 153 147
283.312 -142.509 959.859 164 151 145
283.312 -142.009 959.930 159 147 141
283.312 -141.509 959.937 155 143 137
283.812 -152.009 956.622 175 161 148
283.812 -151.509 956.766 176 162 151
283.812 -151.009 956.925 166 151 142
283.812 -150.509 957.049 170 157 148
283.812 -150.009 957.279 175 162 153
283.812 -149.509 957.511 172 159 150
283.812 -149.009 957.679 162 149 141
283.812 -148.509 957.852 149 136 128
283.812 -148.009 958.100 135 122 114
283.812 -147.509 958.283 128 118 111
283.812 -147.009 958.407 142 131 125
283.812 -146.509 958.582 163 151 145
283.812 -146.009 958.750 163 150 141
283.812 -145.509 958.849 179 167 157
283.812 -145.009 958.910 176 163 154
283.812 -144.509 958.998 173 160 151
283.812 -144.009 959.108 166 152 143
283.812 -143.509 959.260 167 153 144
283.812 -143.009 959.383 172 159 153
283.812 -142.509 959.450 166 152 146
283.812 -142.009 959.575 158 145 139
283.812 -141.509 959.626 157 144 138
284.312 -152.009 956.327 190 176 164
284.312 -151.509 956.464 177 163 152
284.312 -151.009 956.563 159 145 136
284.312 -150.509 956.747 168 154 145
284.312 -150.009 956.955 177 164 155
284.312 -149.509 957.205 164 151 143
284.312 -149.009 957.386 159 146 138
284.312 -148.509 957.478 149 136 128
284.312 -148.009 957.700 142 129 122
284.312 -147.509 957.927 136 125 119
284.312 -147.009 958.003 144 133 127
284.312 -146.509 958.109 159 147 141
284.312 -146.009 958.323 162 149 141
284.312 -145.509 958.478 179 166 157
284.312 -145.009 958.562 171 158 150
284.312 -144.509 958.666 171 158 150
284.312 -144.009 958.836 173 160 152
284.312 -143.509 958.958 175 162 154
284.312 -143.009 959.018 173 160 152
284.312 -142.509 959.069 168 154 146
284.312 -142.009 959.218 159 146 138
284.312 -141.509 959.327 158 145 137
284.812 -152.009 955.957 184 170 159
284.812 -151.509 956.137 179 166 156
284.812 -151.009 956.255 175 161 152
284.812 -150.509 956.437 171 158 149
284.812 -150.009 956.608 176 163 154
284.812 -149.509 956.766 164 151 143
284.812 -149.009 956.947 161 148 140
284.812 -148.509 957.095 154 141 133
284.812 -148.009 957.261 153 140 133
284.812 -147.509 957.449 146 135 129
284.812 -147.009 957.457 149 138 132
284.812 -146.509 957.553 158 147 141
284.812 -146.009 957.747 158 145 138
284.812 -145.509 958.008 163 150 143
284.812 -145.009 958.199 160 147 140
284.812 -144.509 958.281 158 145 138
284.812 -144.009 958.466 162 149 141
284.812 -143.509 958.619 171 158 151
284.812 -143.009 958.691 169 157 149
284.812 -142.509 958.793 166 154 145
284.812 -142.009 958.831 161 149 141
284.812 -141.509 958.821 156 144 136
285.312 -152.009 955.704 159 145 136
285.312 -151.509 955.832 149 136 128
285.312 -151.009 955.941 155 142 134
285.312 -150.509 956.129 170 157 149
285.312 -150.009 956.302 170 157 149
285.312 -149.509 956.457 170 160 151
285.312 -149.009 956.563 167 156 147
285.312 -148.509 956.734 157 146 138
285.312 -148.009 956.889 152 141 135
285.312 -147.509 957.046 151 140 134
285.312 -147.009 957.142 138 127 121
285.312 -146.509 957.184 144 133 127
285.312 -146.009 957.413 153 142 138
285.312 -145.509 957.602 156 145 139
285.312 -145.009 957.771 153 142 136
285.312 -144.509 957.890 146 135 128
285.312 -144.009 958.085 151 140 132
285.312 -143.509 958.306 162 151 143
285.312 -143.009 958.445 172 159 151
285.312 -142.509 958.498 175 162 153
285.312 -142.009 958.488 169 156 147
285.312 -141.509 958.462 163 151 142
285.812 -152.009 955.366 141 128 120
285.812 -151.509 955.447 136 123 116
285.812 -151.009 955.601 139 126 120
285.812 -150.509 955.773 151 140 134
285.812 -150.009 955.927 149 138 132
285.812 -149.509 956.146 157 147 138
285.812 -149.009 956.258 164 154 145
285.812 -148.509 956.311 159 149 140
285.812 -148.009 956.375 145 134 128
285.812 -147.509 956.528 146 135 129
285.812 -147.009 956.658 145 134 128
285.812 -146.509 956.708 147 136 131
285.812 -146.009 956.888 154 143 138
285.812 -145.509 957.081 156 145 139
285.812 -145.009 957.303 159 148 142
285.812 -144.509 957.478 155 145 138
285.812 -144.009 957.675 149 139 130
285.812 -143.509 957.877 168 158 149
285.812 -143.009 957.956 180 168 158
285.812 -142.509 957.968 179 167 157
285.812 -142.009 958.000 173 160 151
285.812 -141.509 958.059 169 156 148
286.312 -152.009 954.956 135 124 117
286.312 -151.509 955.079 138 127 121
286.312 -151.009 955.168 151 140 134
286.312 -150.509 955.190 153 143 137
286.312 -150.009 955.318 142 133 128
286.312 -149.509 955.638 148 138 129
286.312 -149.009 955.806 155 145 136
286.312 -148.509 955.851 162 151 143
286.312 -148.009 955.931 153 142 136
286.312 -147.509 956.100 152 141 135
286.312 -147.009 956.231 154 143 137
286.312 -146.509 956.303 154 143 137
286.312 -146.009 956.395 157 146 140
286.312 -145.509 956.544 154 143 137
286.312 -145.009 956.658 161 150 144
286.312 -144.509 956.814 164 153 147
286.312 -144.009 957.058 161 151 142
286.312 -143.509 957.331 171 161 152
286.312 -143.009 957.466 179 166 156
286.312 -142.509 957.502 176 163 154
286.312 -142.009 957.549 174 161 153
286.312 -141.509 957.588 169 156 148
286.812 -152.009 954.758 150 139 133
286.812 -151.509 954.826 148 137 131
286.812 -151.009 954.855 146 137 132
286.812 -150.509 954.942 147 138 133
286.812 -150.009 955.039 148 139 134
286.812 -149.509 955.218 149 139 131
286.812 -149.009 955.356 151 141 132
286.812 -148.509 955.400 151 141 133
286.812 -148.009 955.578 151 140 134
286.812 -147.509 955.796 159 148 142
286.812 -147.009 955.878 153 142 136
286.812 -146.509 955.940 144 133 127
286.812 -146.009 956.134 158 147 141
286.812 -145.509 956.303 164 153 147
286.812 -145.009 956.352 163 152 146
286.812 -144.509 956.403 157 146 140
286.812 -144.009 956.609 156 145 139
286.812 -143.509 956.903 160 149 143
286.812 -143.009 957.033 171 158 149
286.812 -142.509 957.083 174 161 152
286.812 -142.009 957.106 173 160 152
286.812 -141.509 957.102 171 158 150
287.312 -152.009 954.377 158 147 140
287.312 -151.509 954.453 151 140 134
287.312 -151.009 954.539 144 133 128
287.312 -150.509 954.642 143 132 126
287.312 -150.009 954.727 152 143 138
287.312 -149.509 954.760 157 147 140
287.312 -149.009 954.893 160 150 141
287.312 -148.509 955.004 159 149 141
287.312 -148.009 955.207 150 139 133
287.312 -147.509 955.380 142 131 125
287.312 -147.009 955.437 137 126 120
287.312 -146.509 955.620 127 117 110
287.312 -146.009 955.784 155 145 137
287.312 -145.509 955.926 171 161 153
287.312 -145.009 955.998 156 145 139
287.312 -144.509 956.044 150 139 133
287.312 -144.009 956.220 151 140 134
287.312 -143.509 956.413 147 136 130
287.312 -143.009 956.417 158 145 137
287.312 -142.509 956.446 171 158 150
287.312 -142.009 956.618 172 159 151
287.312 -141.509 956.680 171 158 150
287.812 -152.009 954.040 176 163 155
287.812 -151.509 954.163 159 146 138
287.812 -151.009 954.296 158 145 139
287.812 -150.509 954.357 152 141 135
287.812 -150.009 954.402 155 144 138
287.812 -149.509 954.428 167 156 147
287.812 -149.009 954.520 164 154 145
287.812 -148.509 954.586 163 152 144
287.812 -148.009 954.802 158 147 141
287.812 -147.509 954.988 143 132 126
287.812 -147.009 955.052 150 139 133
287.812 -146.509 955.084 147 136 130
287.812 -146.009 955.198 166 155 146
287.812 -145.509 955.390 172 162 153
