266.312 -33.009 955.477 158 147 141
266.312 -32.509 955.747 169 158 151
266.312 -32.009 955.889 174 161 152
266.812 -38.009 952.437 161 151 149
266.812 -37.509 952.758 154 145 140
266.812 -37.009 953.048 142 133 128
266.812 -36.509 953.317 149 140 135
266.812 -36.009 953.633 157 148 143
266.812 -35.509 954.021 152 143 138
266.812 -35.009 954.344 151 142 137
266.812 -34.509 954.659 148 139 134
266.812 -34.009 955.048 150 140 135
266.812 -33.509 955.443 152 141 137
266.812 -33.009 955.736 156 145 139
266.812 -32.509 955.912 161 150 143
266.812 -32.009 956.045 173 161 153
267.312 -38.009 952.643 155 145 141
267.312 -37.509 952.945 148 139 134
267.312 -37.009 953.211 139 130 125
267.312 -36.509 953.499 143 134 129
267.312 -36.009 953.835 154 145 140
267.312 -35.509 954.241 152 143 138
267.312 -35.009 954.555 147 138 133
267.312 -34.509 954.876 145 136 131
267.312 -34.009 955.265 151 140 136
267.312 -33.509 955.576 151 140 136
267.312 -33.009 955.830 150 139 135
267.312 -32.509 956.059 155 144 138
267.312 -32.009 956.229 168 156 150
267.812 -38.509 952.417 150 141 135
267.812 -38.009 952.768 149 140 135
267.812 -37.509 953.043 145 136 131
267.812 -37.009 953.334 140 131 126
267.812 -36.509 953.654 143 134 129
267.812 -36.009 953.975 152 143 138
267.812 -35.509 954.382 152 143 138
267.812 -35.009 954.727 147 138 133
267.812 -34.509 954.995 143 134 129
267.812 -34.009 955.329 148 137 133
267.812 -33.509 955.658 148 137 133
267.812 -33.009 955.944 145 134 130
267.812 -32.509 956.211 145 136 131
267.812 -32.009 956.382 149 140 133
257.312 -31.509 952.954 169 155 146
257.312 -31.009 953.257 154 143 133
257.312 -30.509 953.536 155 142 134
257.312 -30.009 953.809 150 137 129
257.312 -29.509 954.024 150 137 129
257.312 -29.009 954.221 159 145 137
257.312 -28.509 954.489 159 145 134
257.312 -28.009 954.781 173 159 146
257.312 -27.509 955.038 190 176 163
257.312 -27.009 955.235 193 179 166
257.312 -26.509 955.399 188 174 161
257.312 -26.009 955.565 187 173 160
257.312 -25.509 955.758 191 177 164
257.312 -25.009 955.941 190 176 163
257.312 -24.509 956.140 185 173 160
257.312 -24.009 956.367 180 168 156
257.312 -23.509 956.562 174 164 154
257.312 -23.009 956.756 155 144 137
257.312 -22.509 957.008 143 134 129
257.312 -22.009 957.239 138 129 126
257.312 -21.509 957.464 136 128 126
257.312 -21.009 957.774 130 122 120
257.812 -31.509 953.065 179 167 158
257.812 -31.009 953.381 179 169 159
257.812 -30.509 953.697 187 174 165
257.812 -30.009 953.969 181 168 160
257.812 -29.509 954.187 176 163 154
257.812 -29.009 954.386 181 168 156
257.812 -28.509 954.627 184 169 156
257.812 -28.009 954.945 187 173 160
257.812 -27.509 955.242 192 179 163
257.812 -27.009 955.428 192 179 163
257.812 -26.509 955.579 186 173 157
257.812 -26.009 955.751 190 177 161
257.812 -25.509 955.935 190 177 161
257.812 -25.009 956.139 189 176 160
257.812 -24.509 956.348 183 170 157
257.812 -24.009 956.559 175 163 151
257.812 -23.509 956.732 160 150 140
257.812 -23.009 956.930 147 136 129
257.812 -22.509 957.189 142 133 128
257.812 -22.009 957.437 138 129 126
257.812 -21.509 957.674 135 127 125
257.812 -21.009 958.036 138 130 127
258.312 -31.509 953.234 143 130 122
258.312 -31.009 953.580 151 141 132
258.312 -30.509 953.894 164 151 143
258.312 -30.009 954.151 160 147 139
258.312 -29.509 954.351 163 150 141
258.312 -29.009 954.568 176 162 151
258.312 -28.509 954.843 187 174 160
258.312 -28.009 955.145 193 180 164
258.312 -27.509 955.406 198 185 170
258.312 -27.009 955.621 198 185 170
258.312 -26.509 955.792 196 184 167
258.312 -26.009 955.920 196 184 167
258.312 -25.509 956.080 192 179 163
258.312 -25.009 956.291 187 174 158
258.312 -24.509 956.518 183 170 156
258.312 -24.009 956.749 173 161 149
258.312 -23.509 956.932 151 141 132
258.312 -23.009 957.133 143 132 125
258.312 -22.509 957.381 141 132 127
258.312 -22.009 957.622 138 128 125
258.312 -21.509 957.839 134 126 124
258.312 -21.009 958.209 140 132 129
258.812 -31.509 953.414 141 128 122
258.812 -31.009 953.752 148 138 130
258.812 -30.509 954.071 156 142 137
258.812 -30.009 954.300 150 137 130
258.812 -29.509 954.510 146 133 125
258.812 -29.009 954.768 163 149 140
258.812 -28.509 955.057 174 160 147
258.812 -28.009 955.327 184 170 155
258.812 -27.509 955.548 192 179 163
258.812 -27.009 955.746 195 183 166
258.812 -26.509 955.893 194 181 165
258.812 -26.009 956.021 194 181 165
258.812 -25.509 956.196 193 180 164
258.812 -25.009 956.395 190 177 161
258.812 -24.509 956.596 186 174 160
258.812 -24.009 956.795 179 168 155
258.812 -23.509 957.020 157 147 137
258.812 -23.009 957.246 145 135 128
258.812 -22.509 957.459 141 132 127
258.812 -22.009 957.706 138 128 126
258.812 -21.509 957.988 136 126 124
258.812 -21.009 958.353 141 131 129
259.312 -31.509 953.550 138 127 121
259.312 -31.009 953.813 145 134 130
259.312 -30.509 954.095 153 139 136
259.312 -30.009 954.387 149 135 132
259.312 -29.509 954.683 148 135 129
259.312 -29.009 954.935 168 153 144
259.312 -28.509 955.183 181 168 156
259.312 -28.009 955.463 187 174 159
259.312 -27.509 955.699 192 179 163
259.312 -27.009 955.860 194 181 165
259.312 -26.509 955.994 194 181 165
259.312 -26.009 956.156 198 185 170
259.312 -25.509 956.351 185 172 156
259.312 -25.009 956.562 179 166 149
259.312 -24.509 956.753 186 174 160
259.312 -24.009 956.916 190 179 166
259.312 -23.509 957.116 176 167 156
259.312 -23.009 957.327 157 146 140
259.312 -22.509 957.550 143 134 129
259.312 -22.009 957.862 140 130 127
259.312 -21.509 958.164 140 130 128
259.312 -21.009 958.533 147 138 133
259.812 -31.509 953.707 153 144 139
259.812 -31.009 953.955 148 139 132
259.812 -30.509 954.241 147 137 130
259.812 -30.009 954.540 147 136 129
259.812 -29.509 954.819 151 141 131
259.812 -29.009 955.076 177 167 155
259.812 -28.509 955.336 190 179 164
259.812 -28.009 955.593 191 179 163
259.812 -27.509 955.796 192 179 163
259.812 -27.009 955.963 199 186 171
259.812 -26.509 956.162 198 185 170
259.812 -26.009 956.321 196 184 170
259.812 -25.509 956.456 183 168 155
259.812 -25.009 956.676 170 156 143
259.812 -24.509 956.866 177 163 152
259.812 -24.009 957.045 181 168 156
259.812 -23.509 957.262 186 173 164
259.812 -23.009 957.467 180 168 159
259.812 -22.509 957.737 158 146 140
259.812 -22.009 958.085 146 135 129
259.812 -21.509 958.382 151 140 135
259.812 -21.009 958.758 167 153 147
260.312 -31.509 953.900 150 141 136
260.312 -31.009 954.139 144 135 128
260.312 -30.509 954.430 149 138 132
260.312 -30.009 954.726 154 144 134
260.312 -29.509 955.005 158 148 138
260.312 -29.009 955.274 184 172 160
260.312 -28.509 955.552 192 180 166
260.312 -28.009 955.769 189 176 161
260.312 -27.509 955.936 193 180 164
260.312 -27.009 956.148 199 186 171
260.312 -26.509 956.331 194 181 166
260.312 -26.009 956.459 186 172 159
260.312 -25.509 956.651 177 163 150
260.312 -25.009 956.861 164 150 138
260.312 -24.509 957.013 169 155 146
260.312 -24.009 957.195 158 144 135
260.312 -23.509 957.402 160 147 138
260.312 -23.009 957.603 183 169 161
260.312 -22.509 957.910 172 162 153
260.312 -22.009 958.259 168 157 148
260.312 -21.509 958.628 171 161 152
260.312 -21.009 959.018 175 162 153
260.812 -31.509 954.123 151 142 137
260.812 -31.009 954.414 147 136 130
260.812 -30.509 954.674 147 137 129
260.812 -30.009 954.925 159 149 139
260.812 -29.509 955.198 168 157 145
260.812 -29.009 955.482 188 176 163
260.812 -28.509 955.743 190 179 164
260.812 -28.009 955.927 191 179 163
260.812 -27.509 956.139 195 183 166
260.812 -27.009 956.331 194 180 167
260.812 -26.509 956.429 186 172 159
260.812 -26.009 956.586 174 161 148
260.812 -25.509 956.834 166 152 141
260.812 -25.009 957.026 160 146 137
260.812 -24.509 957.200 158 145 138
260.812 -24.009 957.398 154 141 134
260.812 -23.509 957.607 151 138 130
260.812 -23.009 957.859 161 150 141
260.812 -22.509 958.150 183 172 162
260.812 -22.009 958.417 177 168 156
260.812 -21.509 958.766 176 167 153
260.812 -21.009 959.170 179 168 154
261.312 -31.509 954.353 150 141 136
261.312 -31.009 954.618 149 139 131
261.312 -30.509 954.870 145 135 126
261.312 -30.009 955.150 166 153 144
261.312 -29.509 955.418 184 172 160
261.312 -29.009 955.677 189 177 163
261.312 -28.509 955.892 185 173 159
261.312 -28.009 956.076 193 180 164
261.312 -27.509 956.276 196 183 170
261.312 -27.009 956.423 187 173 160
261.312 -26.509 956.509 176 162 151
261.312 -26.009 956.691 166 153 143
261.312 -25.509 957.028 154 141 132
261.312 -25.009 957.293 156 146 137
261.312 -24.509 957.437 153 142 138
261.312 -24.009 957.601 152 141 135
261.312 -23.509 957.818 148 136 130
261.312 -23.009 958.100 144 134 125
261.312 -22.509 958.345 162 152 141
261.312 -22.009 958.593 183 172 160
261.312 -21.509 958.995 188 179 164
261.312 -21.009 959.353 188 176 160
261.812 -31.509 954.502 149 140 135
261.812 -31.009 954.816 151 141 132
261.812 -30.509 955.099 157 144 135
261.812 -30.009 955.398 177 164 155
261.812 -29.509 955.654 188 176 164
261.812 -29.009 955.846 188 174 161
261.812 -28.509 956.004 187 174 158
261.812 -28.009 956.185 194 180 166
261.812 -27.509 956.369 191 177 164
261.812 -27.009 956.500 176 162 149
261.812 -26.509 956.619 168 155 144
261.812 -26.009 956.880 166 154 145
261.812 -25.509 957.192 155 145 136
261.812 -25.009 957.418 160 150 143
261.812 -24.509 957.606 152 143 138
261.812 -24.009 957.790 147 136 130
261.812 -23.509 958.024 143 132 126
261.812 -23.009 958.277 143 133 124
261.812 -22.509 958.546 151 141 131
261.812 -22.009 958.837 162 150 140
261.812 -21.509 959.148 177 168 154
261.812 -21.009 959.439 187 175 161
262.312 -31.509 954.756 152 143 138
262.312 -31.009 955.071 159 147 139
262.312 -30.509 955.363 172 159 150
262.312 -30.009 955.589 185 172 161
262.312 -29.509 955.778 189 177 165
262.312 -29.009 955.939 189 175 162
262.312 -28.509 956.120 192 179 163
262.312 -28.009 956.305 192 179 164
262.312 -27.509 956.459 180 167 153
262.312 -27.009 956.605 169 155 144
262.312 -26.509 956.811 160 148 136
262.312 -26.009 957.091 159 148 139
262.312 -25.509 957.338 158 147 141
262.312 -25.009 957.531 155 146 139
262.312 -24.509 957.750 144 135 129
262.312 -24.009 958.031 140 131 124
262.312 -23.509 958.255 145 134 128
262.312 -23.009 958.512 145 135 126
262.312 -22.509 958.774 151 141 132
262.312 -22.009 959.095 152 140 131
262.312 -21.509 959.401 158 148 138
262.312 -21.009 959.626 170 158 146
262.812 -31.509 954.988 157 148 140
262.812 -31.009 955.252 170 157 147
262.812 -30.509 955.521 183 169 159
262.812 -30.009 955.740 187 175 163
262.812 -29.509 955.888 187 174 161
262.812 -29.009 956.060 190 177 164
262.812 -28.509 956.232 194 181 166
262.812 -28.009 956.359 186 173 159
262.812 -27.509 956.516 171 158 145
262.812 -27.009 956.729 166 152 140
262.812 -26.509 957.008 157 144 135
262.812 -26.009 957.269 157 146 138
262.812 -25.509 957.493 160 150 144
262.812 -25.009 957.736 153 144 138
262.812 -24.509 958.024 139 131 125
262.812 -24.009 958.269 137 129 122
262.812 -23.509 958.445 146 136 129
262.812 -23.009 958.695 152 142 134
262.812 -22.509 959.062 156 145 137
262.812 -22.009 959.410 151 139 132
262.812 -21.509 959.643 153 143 134
262.812 -21.009 959.794 156 144 135
263.312 -31.509 955.162 162 152 142
263.312 -31.009 955.417 176 164 150
263.312 -30.509 955.648 187 175 161
263.312 -30.009 955.848 190 179 164
263.312 -29.509 956.020 188 176 162
263.312 -29.009 956.187 188 176 162
263.312 -28.509 956.336 184 172 158
263.312 -28.009 956.480 171 159 146
263.312 -27.509 956.676 157 145 133
263.312 -27.009 956.901 153 140 130
263.312 -26.509 957.168 156 143 135
263.312 -26.009 957.429 157 146 140
263.312 -25.509 957.693 160 149 145
263.312 -25.009 958.000 148 138 133
263.312 -24.509 958.246 137 129 126
263.312 -24.009 958.523 138 129 123
263.312 -23.509 958.793 147 138 131
263.312 -23.009 959.103 154 145 136
263.312 -22.509 959.430 156 146 138
263.312 -22.009 959.661 152 141 135
263.312 -21.509 959.821 151 141 132
263.312 -21.009 960.025 149 139 130
263.812 -31.509 955.350 164 154 144
263.812 -31.009 955.545 181 169 157
263.812 -30.509 955.732 188 176 164
263.812 -30.009 955.937 189 177 165
263.812 -29.509 956.124 183 170 158
263.812 -29.009 956.291 179 168 155
263.812 -28.509 956.459 172 160 148
263.812 -28.009 956.634 160 148 136
263.812 -27.509 956.831 155 142 133
263.812 -27.009 957.131 161 148 139
263.812 -26.509 957.481 172 160 152
263.812 -26.009 957.766 166 154 148
263.812 -25.509 958.026 146 135 131
263.812 -25.009 958.296 140 129 125
263.812 -24.509 958.528 147 137 135
263.812 -24.009 958.810 138 129 123
263.812 -23.509 959.149 148 139 132
263.812 -23.009 959.506 154 145 138
263.812 -22.509 959.768 154 143 137
263.812 -22.009 959.913 149 138 133
263.812 -21.509 960.132 147 138 131
263.812 -21.009 960.369 148 139 132
264.312 -31.509 955.495 174 164 152
264.312 -31.009 955.664 184 171 159
264.312 -30.509 955.874 180 168 156
264.312 -30.009 956.083 179 167 154
264.312 -29.509 956.269 170 158 146
264.312 -29.009 956.443 168 154 145
264.312 -28.509 956.612 159 146 137
264.312 -28.009 956.780 151 138 129
264.312 -27.509 957.023 158 145 136
264.312 -27.009 957.372 168 155 147
264.312 -26.509 957.709 175 164 158
264.312 -26.009 958.031 153 142 137
264.312 -25.509 958.313 137 126 122
264.312 -25.009 958.565 139 130 125
264.312 -24.509 958.849 145 135 133
264.312 -24.009 959.171 144 135 130
264.312 -23.509 959.522 153 144 137
264.312 -23.009 959.819 155 146 139
264.312 -22.509 960.071 167 157 150
264.312 -22.009 960.250 148 139 134
264.312 -21.509 960.422 135 126 121
264.312 -21.009 960.585 141 132 127
264.812 -31.509 955.597 183 171 159
264.812 -31.009 955.783 183 170 158
264.812 -30.509 955.992 177 166 153
264.812 -30.009 956.220 170 158 148
264.812 -29.509 956.405 150 137 128
264.812 -29.009 956.562 147 134 125
264.812 -28.509 956.714 153 140 132
264.812 -28.009 956.868 146 134 126
264.812 -27.509 957.128 160 150 142
264.812 -27.009 957.497 160 149 143
264.812 -26.509 957.862 151 140 135
264.812 -26.009 958.184 143 134 129
264.812 -25.509 958.476 142 132 128
264.812 -25.009 958.799 140 130 128
264.812 -24.509 959.140 148 137 135
264.812 -24.009 959.496 169 159 154
264.812 -23.509 959.810 173 164 157
264.812 -23.009 960.094 166 156 150
264.812 -22.509 960.344 168 158 154
264.812 -22.009 960.517 150 140 138
264.812 -21.509 960.646 126 119 116
264.812 -21.009 960.778 124 117 113
265.312 -31.509 955.772 185 173 161
265.312 -31.009 955.943 185 173 161
265.312 -30.509 956.137 180 168 156
265.312 -30.009 956.345 168 154 145
265.312 -29.509 956.528 145 132 124
265.312 -29.009 956.683 147 134 128
265.312 -28.509 956.828 147 134 128
265.312 -28.009 957.044 147 135 130
265.312 -27.509 957.394 157 146 142
265.312 -27.009 957.791 155 144 139
265.312 -26.509 958.114 147 137 133
265.312 -26.009 958.416 150 140 137
265.312 -25.509 958.747 142 132 130
265.312 -25.009 959.104 138 128 126
265.312 -24.509 959.429 144 133 129
265.312 -24.009 959.733 161 150 146
265.312 -23.509 960.044 173 164 158
265.312 -23.009 960.365 164 155 150
265.312 -22.509 960.618 153 143 141
265.312 -22.009 960.784 136 128 126
265.312 -21.509 960.881 129 120 121
265.312 -21.009 961.011 122 116 116
265.812 -31.509 955.917 174 162 149
265.812 -31.009 956.054 172 159 148
265.812 -30.509 956.251 162 150 139
265.812 -30.009 956.492 160 147 139
265.812 -29.509 956.662 145 132 124
265.812 -29.009 956.785 147 134 128
265.812 -28.509 956.971 146 133 127
265.812 -28.009 957.222 148 136 132
265.812 -27.509 957.560 147 136 132
265.812 -27.009 957.975 144 133 129
265.812 -26.509 958.339 151 142 137
265.812 -26.009 958.666 152 143 139
265.812 -25.509 959.042 145 135 132
265.812 -25.009 959.399 147 138 134
265.812 -24.509 959.699 147 136 132
265.812 -24.009 959.966 155 144 140
265.812 -23.509 960.317 168 158 153
265.812 -23.009 960.634 151 142 138
265.812 -22.509 960.818 139 130 128
265.812 -22.009 960.956 132 124 122
265.812 -21.509 961.086 125 119 119
265.812 -21.009 961.256 125 119 119
266.312 -31.509 956.017 168 155 146
266.312 -31.009 956.164 163 153 145
266.312 -30.509 956.372 147 136 130
266.312 -30.009 956.608 149 138 132
266.312 -29.509 956.771 152 141 135
266.312 -29.009 956.949 158 147 141
266.312 -28.509 957.208 152 141 135
266.312 -28.009 957.503 145 135 130
266.312 -27.509 957.891 143 134 129
266.312 -27.009 958.273 147 138 133
266.312 -26.509 958.586 150 141 135
266.312 -26.009 958.913 145 136 129
266.312 -25.509 959.283 151 142 135
266.312 -25.009 959.643 157 148 141
266.312 -24.509 959.932 158 149 142
266.312 -24.009 960.264 164 155 150
266.312 -23.509 960.611 160 152 149
266.312 -23.009 960.889 141 133 131
266.312 -22.509 961.043 132 123 124
266.312 -22.009 961.241 128 121 122
266.312 -21.509 961.409 127 119 118
266.312 -21.009 961.494 125 119 119
266.812 -31.509 956.180 168 154 145
266.812 -31.009 956.349 156 145 139
266.812 -30.509 956.529 146 135 129
266.812 -30.009 956.713 143 132 126
266.812 -29.509 956.891 155 144 138
266.812 -29.009 957.100 159 148 142
266.812 -28.509 957.416 168 156 150
266.812 -28.009 957.733 160 150 145
266.812 -27.509 958.077 154 145 140
266.812 -27.009 958.432 168 158 153
266.812 -26.509 958.776 156 147 141
266.812 -26.009 959.145 148 139 132
266.812 -25.509 959.510 153 144 137
266.812 -25.009 959.865 158 149 142
266.812 -24.509 960.256 169 160 153
266.812 -24.009 960.642 168 159 154
266.812 -23.509 960.966 151 142 139
266.812 -23.009 961.246 137 129 126
266.812 -22.509 961.431 131 122 121
266.812 -22.009 961.553 127 119 119
266.812 -21.509 961.648 124 119 118
266.812 -21.009 961.744 123 118 117
267.312 -31.509 956.376 156 146 137
267.312 -31.009 956.541 143 132 126
267.312 -30.509 956.701 141 130 124
267.312 -30.009 956.876 145 134 128
267.312 -29.509 957.039 160 149 143
267.312 -29.009 957.241 167 155 149
267.312 -28.509 957.552 152 141 135
267.312 -28.009 957.901 148 138 133
267.312 -27.509 958.251 148 139 134
267.312 -27.009 958.630 166 156 151
267.312 -26.509 959.024 185 176 171
267.312 -26.009 959.380 176 168 160
267.312 -25.509 959.746 162 153 146
267.312 -25.009 960.192 154 145 138
267.312 -24.509 960.615 161 152 145
267.312 -24.009 960.935 176 168 160
267.312 -23.509 961.209 159 150 145
267.312 -23.009 961.453 141 131 128
267.312 -22.509 961.640 129 121 118
267.312 -22.009 961.761 126 119 117
267.312 -21.509 961.879 124 119 118
267.312 -21.009 961.974 123 118 117
267.812 -31.509 956.519 136 127 120
267.812 -31.009 956.674 128 119 114
267.812 -30.509 956.850 130 121 116
267.812 -30.009 957.025 144 135 130
267.812 -29.509 957.198 179 169 164
267.812 -29.009 957.456 170 161 156
267.812 -28.509 957.786 145 136 131
267.812 -28.009 958.103 143 134 129
267.812 -27.509 958.460 144 135 130
267.812 -27.009 958.919 149 140 135
267.812 -26.509 959.307 169 160 155
267.812 -26.009 959.662 181 172 165
267.812 -25.509 960.068 185 176 170
267.812 -25.009 960.504 164 155 148
267.812 -24.509 960.876 166 155 146
267.812 -24.009 961.145 175 167 159
267.812 -23.509 961.383 157 148 141
267.812 -23.009 961.603 145 136 131
267.812 -22.509 961.760 138 128 125
267.812 -22.009 961.910 133 125 122
267.812 -21.509 962.032 127 119 119
267.812 -21.009 962.133 124 119 118
257.312 -20.509 958.300 144 136 133
257.312 -20.009 958.785 160 152 146
257.312 -19.509 959.255 164 155 150
257.312 -19.009 959.716 150 141 136
257.312 -18.509 960.081 131 121 119
257.312 -18.009 960.366 144 134 132
257.312 -17.509 960.638 138 128 126
257.312 -17.009 960.784 125 118 116
257.312 -16.509 960.856 123 116 113
257.312 -16.009 960.930 122 115 112
257.312 -15.509 960.974 122 118 114
257.312 -15.009 961.006 128 123 119
257.312 -14.509 961.040 135 130 126
257.312 -14.009 961.054 134 129 125
257.312 -13.509 961.003 126 121 117
257.312 -13.009 960.951 124 119 116
257.312 -12.509 960.910 126 121 117
257.312 -12.009 960.856 127 119 116
257.312 -11.509 960.807 127 118 116
257.312 -11.009 960.790 131 121 119
257.312 -10.509 960.790 137 128 123
257.312 -10.009 960.784 139 130 125
257.812 -20.509 958.553 155 147 141
257.812 -20.009 958.975 168 159 153
257.812 -19.509 959.366 162 153 148
257.812 -19.009 959.799 147 138 133
257.812 -18.509 960.146 135 125 124
257.812 -18.009 960.506 146 136 135
257.812 -17.509 960.749 136 126 125
257.812 -17.009 960.823 124 117 114
257.812 -16.509 960.881 116 107 105
257.812 -16.009 960.952 117 107 108
257.812 -15.509 960.987 123 118 116
257.812 -15.009 961.016 139 131 128
257.812 -14.509 961.065 135 127 124
257.812 -14.009 961.086 131 123 120
257.812 -13.509 961.041 121 113 110
257.812 -13.009 960.993 122 115 111
257.812 -12.509 960.969 124 117 113
257.812 -12.009 960.946 126 118 114
257.812 -11.509 960.903 126 117 114
257.812 -11.009 960.884 132 122 120
257.812 -10.509 960.895 142 132 130
257.812 -10.009 960.912 136 127 122
258.312 -20.509 958.682 161 152 147
258.312 -20.009 959.186 171 162 155
258.312 -19.509 959.577 168 158 151
258.312 -19.009 959.970 154 143 139
258.312 -18.509 960.231 151 140 137
258.312 -18.009 960.534 147 137 136
258.312 -17.509 960.770 138 128 127
258.312 -17.009 960.865 127 119 117
258.312 -16.509 960.923 121 113 111
258.312 -16.009 960.964 122 113 114
258.312 -15.509 961.004 129 123 123
258.312 -15.009 961.056 140 132 130
258.312 -14.509 961.099 137 129 127
258.312 -14.009 961.110 128 120 118
258.312 -13.509 961.092 127 119 117
258.312 -13.009 961.054 125 118 116
258.312 -12.509 961.006 130 122 120
258.312 -12.009 960.992 131 121 119
258.312 -11.509 960.991 133 123 121
258.312 -11.009 960.994 143 133 131
258.312 -10.509 961.015 152 142 140
258.312 -10.009 961.045 152 142 140
258.812 -20.509 958.818 156 147 142
258.812 -20.009 959.316 173 163 156
258.812 -19.509 959.671 174 163 157
258.812 -19.009 960.040 162 151 146
258.812 -18.509 960.298 157 146 143
258.812 -18.009 960.580 139 130 126
258.812 -17.509 960.787 134 124 122
258.812 -17.009 960.879 130 122 119
258.812 -16.509 960.935 131 123 121
258.812 -16.009 960.967 134 126 124
258.812 -15.509 961.027 139 134 131
258.812 -15.009 961.095 143 135 133
258.812 -14.509 961.131 137 129 127
258.812 -14.009 961.139 134 126 124
258.812 -13.509 961.138 133 125 123
258.812 -13.009 961.129 130 122 120
258.812 -12.509 961.084 132 124 122
258.812 -12.009 961.064 136 127 124
258.812 -11.509 961.073 140 130 128
258.812 -11.009 961.086 150 140 138
258.812 -10.509 961.093 154 144 142
258.812 -10.009 961.109 157 147 146
259.312 -20.509 959.003 150 141 135
259.312 -20.009 959.462 164 154 147
259.312 -19.509 959.775 160 149 143
259.312 -19.009 960.069 164 153 147
259.312 -18.509 960.422 154 144 140
259.312 -18.009 960.683 131 122 117
259.312 -17.509 960.813 125 117 111
259.312 -17.009 960.905 125 119 112
259.312 -16.509 960.966 138 130 127
259.312 -16.009 961.045 146 138 135
259.312 -15.509 961.128 147 142 138
259.312 -15.009 961.162 150 142 140
259.312 -14.509 961.179 141 133 131
259.312 -14.009 961.195 135 127 125
259.312 -13.509 961.207 130 122 120
259.312 -13.009 961.218 131 123 121
259.312 -12.509 961.208 131 123 121
259.312 -12.009 961.223 138 128 126
259.312 -11.509 961.247 143 134 129
259.312 -11.009 961.243 141 131 129
259.312 -10.509 961.219 140 130 128
259.312 -10.009 961.204 143 133 132
259.812 -20.509 959.193 170 156 148
259.812 -20.009 959.577 170 157 148
259.812 -19.509 959.847 169 156 147
259.812 -19.009 960.117 168 155 147
259.812 -18.509 960.453 156 145 138
259.812 -18.009 960.715 134 125 120
259.812 -17.509 960.869 125 116 113
259.812 -17.009 960.951 131 121 119
259.812 -16.509 961.058 140 131 128
259.812 -16.009 961.154 148 140 138
259.812 -15.509 961.223 150 142 140
259.812 -15.009 961.261 148 140 138
259.812 -14.509 961.261 147 139 137
259.812 -14.009 961.277 139 131 129
259.812 -13.509 961.301 131 123 121
259.812 -13.009 961.334 133 125 123
259.812 -12.509 961.314 136 128 126
259.812 -12.009 961.319 148 140 137
259.812 -11.509 961.341 145 137 134
259.812 -11.009 961.342 135 127 124
259.812 -10.509 961.346 129 121 119
259.812 -10.009 961.354 134 126 124
260.312 -20.509 959.445 183 169 160
260.312 -20.009 959.769 193 179 171
260.312 -19.509 959.963 197 184 175
260.312 -19.009 960.196 171 158 150
260.312 -18.509 960.498 154 143 138
260.312 -18.009 960.752 142 132 127
260.312 -17.509 960.935 133 124 119
260.312 -17.009 961.047 142 132 130
260.312 -16.509 961.142 146 136 134
260.312 -16.009 961.219 132 124 121
260.312 -15.509 961.270 124 117 114
260.312 -15.009 961.315 132 124 122
260.312 -14.509 961.354 136 128 126
260.312 -14.009 961.389 131 123 121
260.312 -13.509 961.420 128 120 118
260.312 -13.009 961.429 132 124 122
260.312 -12.509 961.441 140 132 130
260.312 -12.009 961.456 148 140 137
260.312 -11.509 961.469 144 136 133
260.312 -11.009 961.485 133 125 122
260.312 -10.509 961.520 128 120 118
260.312 -10.009 961.540 128 120 118
260.812 -20.509 959.567 186 174 160
260.812 -20.009 959.851 201 187 174
260.812 -19.509 960.111 204 191 182
260.812 -19.009 960.351 168 154 146
260.812 -18.509 960.567 144 133 127
260.812 -18.009 960.785 136 127 122
260.812 -17.509 960.987 133 124 119
260.812 -17.009 961.130 140 130 127
260.812 -16.509 961.224 146 136 134
260.812 -16.009 961.271 127 119 116
260.812 -15.509 961.338 120 112 109
260.812 -15.009 961.400 125 118 116
260.812 -14.509 961.459 129 121 119
260.812 -14.009 961.533 129 121 119
260.812 -13.509 961.563 130 122 120
260.812 -13.009 961.536 130 122 120
260.812 -12.509 961.523 139 131 129
260.812 -12.009 961.543 146 138 135
260.812 -11.509 961.559 148 140 137
260.812 -11.009 961.589 137 129 126
260.812 -10.509 961.667 130 122 120
260.812 -10.009 961.722 129 121 119
261.312 -20.509 959.697 191 179 163
261.312 -20.009 959.940 192 179 165
261.312 -19.509 960.172 194 183 171
261.312 -19.009 960.454 169 156 147
261.312 -18.509 960.666 142 132 123
261.312 -18.009 960.820 134 124 119
261.312 -17.509 961.019 131 122 117
261.312 -17.009 961.177 130 121 116
261.312 -16.509 961.260 143 134 129
261.312 -16.009 961.346 142 134 131
261.312 -15.509 961.421 128 120 117
261.312 -15.009 961.456 127 119 117
261.312 -14.509 961.528 131 123 121
261.312 -14.009 961.598 129 121 119
261.312 -13.509 961.617 129 121 119
261.312 -13.009 961.627 120 112 110
261.312 -12.509 961.641 134 126 124
261.312 -12.009 961.685 149 141 139
261.312 -11.509 961.713 155 147 144
261.312 -11.009 961.736 147 139 136
261.312 -10.509 961.770 138 130 128
261.312 -10.009 961.839 138 130 128
261.812 -20.509 959.751 192 180 166
261.812 -20.009 960.002 195 181 168
261.812 -19.509 960.263 191 179 167
261.812 -19.009 960.547 170 157 148
261.812 -18.509 960.717 143 133 125
261.812 -18.009 960.878 135 125 119
261.812 -17.509 961.067 132 123 116
261.812 -17.009 961.215 138 129 124
261.812 -16.509 961.309 147 139 134
261.812 -16.009 961.422 144 137 131
261.812 -15.509 961.518 135 127 124
261.812 -15.009 961.574 130 122 120
261.812 -14.509 961.623 124 117 114
261.812 -14.009 961.653 126 119 116
261.812 -13.509 961.663 123 116 113
261.812 -13.009 961.707 118 109 107
261.812 -12.509 961.746 129 121 119
261.812 -12.009 961.759 146 138 135
261.812 -11.509 961.780 147 139 136
261.812 -11.009 961.877 145 137 134
261.812 -10.509 961.957 138 130 128
261.812 -10.009 961.972 134 126 124
262.312 -20.509 959.884 176 163 151
262.312 -20.009 960.133 185 171 158
262.312 -19.509 960.479 190 179 166
262.312 -19.009 960.696 184 170 161
262.312 -18.509 960.798 163 153 144
262.312 -18.009 960.938 145 135 128
262.312 -17.509 961.103 140 131 124
262.312 -17.009 961.254 152 143 138
262.312 -16.509 961.390 156 148 143
262.312 -16.009 961.496 142 135 129
262.312 -15.509 961.605 136 129 123
262.312 -15.009 961.675 132 124 122
262.312 -14.509 961.747 129 121 119
262.312 -14.009 961.756 129 121 119
262.312 -13.509 961.750 125 118 116
262.312 -13.009 961.831 121 113 111
262.312 -12.509 961.883 132 124 122
262.312 -12.009 961.917 146 138 136
262.312 -11.509 961.976 142 134 131
262.312 -11.009 962.082 138 130 127
262.312 -10.509 962.205 134 126 124
262.312 -10.009 962.269 129 121 119
262.812 -20.509 960.046 163 150 141
262.812 -20.009 960.293 169 155 145
262.812 -19.509 960.559 174 162 151
262.812 -19.009 960.769 179 167 157
262.812 -18.509 960.920 183 171 161
262.812 -18.009 961.088 177 168 159
262.812 -17.509 961.249 172 162 153
262.812 -17.009 961.334 168 158 150
262.812 -16.509 961.429 158 148 143
262.812 -16.009 961.541 137 129 125
262.812 -15.509 961.668 134 127 122
262.812 -15.009 961.762 133 125 123
262.812 -14.509 961.843 131 123 121
262.812 -14.009 961.893 132 124 122
262.812 -13.509 961.929 132 124 122
262.812 -13.009 961.986 131 123 121
262.812 -12.509 962.026 143 135 132
262.812 -12.009 962.102 143 136 134
262.812 -11.509 962.213 135 128 126
262.812 -11.009 962.282 133 125 124
262.812 -10.509 962.340 127 120 119
262.812 -10.009 962.447 122 115 113
263.312 -20.509 960.238 155 145 136
263.312 -20.009 960.510 156 144 135
263.312 -19.509 960.734 162 149 140
263.312 -19.009 960.892 168 155 146
263.312 -18.509 961.049 168 155 146
263.312 -18.009 961.214 179 168 158
263.312 -17.509 961.336 192 179 171
263.312 -17.009 961.451 183 169 160
263.312 -16.509 961.529 155 143 137
263.312 -16.009 961.612 136 126 123
263.312 -15.509 961.736 130 122 120
263.312 -15.009 961.835 128 120 117
263.312 -14.509 961.908 129 121 118
263.312 -14.009 961.969 139 131 128
263.312 -13.509 962.050 150 142 139
263.312 -13.009 962.168 150 142 139
263.312 -12.509 962.259 139 131 128
263.312 -12.009 962.331 130 123 122
263.312 -11.509 962.380 132 126 126
263.312 -11.009 962.477 129 123 123
263.312 -10.509 962.542 123 118 117
263.312 -10.009 962.588 119 113 113
263.812 -20.509 960.557 158 147 140
263.812 -20.009 960.723 157 147 138
263.812 -19.509 960.872 155 145 136
263.812 -19.009 961.029 160 147 139
263.812 -18.509 961.234 154 143 134
263.812 -18.009 961.391 155 145 136
263.812 -17.509 961.501 176 163 154
263.812 -17.009 961.596 177 164 156
263.812 -16.509 961.636 152 139 132
263.812 -16.009 961.712 137 127 123
263.812 -15.509 961.842 128 119 116
263.812 -15.009 961.932 127 119 116
263.812 -14.509 962.027 137 129 126
263.812 -14.009 962.118 148 140 137
263.812 -13.509 962.199 148 140 137
263.812 -13.009 962.293 149 141 138
263.812 -12.509 962.396 140 132 129
263.812 -12.009 962.529 126 120 118
263.812 -11.509 962.611 125 119 119
263.812 -11.009 962.701 122 117 116
263.812 -10.509 962.761 124 119 118
263.812 -10.009 962.789 121 116 116
264.312 -20.509 960.729 154 145 140
264.312 -20.009 960.861 150 139 133
264.312 -19.509 961.043 150 139 133
264.312 -19.009 961.229 150 139 133
264.312 -18.509 961.388 154 144 137
264.312 -18.009 961.510 152 142 133
264.312 -17.509 961.602 158 148 139
264.312 -17.009 961.672 170 157 149
264.312 -16.509 961.717 163 151 143
264.312 -16.009 961.818 141 132 126
264.312 -15.509 961.978 133 123 119
264.312 -15.009 962.091 136 128 125
264.312 -14.509 962.168 144 136 133
264.312 -14.009 962.249 136 128 125
264.312 -13.509 962.340 137 129 126
264.312 -13.009 962.487 133 125 122
264.312 -12.509 962.588 138 130 127
264.312 -12.009 962.681 128 120 118
264.312 -11.509 962.750 122 115 112
264.312 -11.009 962.801 122 115 112
264.312 -10.509 962.857 126 119 116
264.312 -10.009 962.951 122 115 112
264.812 -20.509 960.904 147 138 136
264.812 -20.009 961.060 138 128 125
264.812 -19.509 961.272 135 125 122
264.812 -19.009 961.458 142 132 129
264.812 -18.509 961.580 148 138 134
264.812 -18.009 961.704 142 133 126
264.812 -17.509 961.748 145 134 127
264.812 -17.009 961.779 166 152 144
264.812 -16.509 961.872 169 157 149
264.812 -16.009 961.974 149 138 131
264.812 -15.509 962.093 149 139 134
264.812 -15.009 962.208 144 136 133
264.812 -14.509 962.310 136 128 125
264.812 -14.009 962.393 132 124 121
264.812 -13.509 962.529 126 119 116
264.812 -13.009 962.632 131 123 120
264.812 -12.509 962.712 145 137 134
264.812 -12.009 962.786 137 129 126
264.812 -11.509 962.840 131 123 120
264.812 -11.009 962.921 136 128 125
264.812 -10.509 963.009 135 127 124
264.812 -10.009 963.115 133 125 122
265.312 -20.509 961.190 132 123 124
265.312 -20.009 961.330 132 123 121
265.312 -19.509 961.509 128 120 118
265.312 -19.009 961.685 136 126 125
265.312 -18.509 961.785 141 132 129
265.312 -18.009 961.856 133 125 119
265.312 -17.509 961.914 133 122 116
265.312 -17.009 961.979 164 151 143
265.312 -16.509 962.072 186 173 165
265.312 -16.009 962.192 176 166 156
265.312 -15.509 962.295 163 152 147
265.312 -15.009 962.388 140 131 128
265.312 -14.509 962.501 130 122 119
265.312 -14.009 962.606 127 119 116
265.312 -13.509 962.712 126 119 116
265.312 -13.009 962.786 136 128 125
265.312 -12.509 962.846 140 132 129
265.312 -12.009 962.963 159 151 148
265.312 -11.509 963.029 160 152 149
265.312 -11.009 963.103 160 152 149
265.312 -10.509 963.165 158 150 147
265.312 -10.009 963.241 152 144 141
265.812 -20.509 961.416 125 119 119
265.812 -20.009 961.561 125 117 117
265.812 -19.509 961.707 126 119 116
265.812 -19.009 961.805 126 119 116
265.812 -18.509 961.877 128 119 117
265.812 -18.009 961.970 130 121 116
265.812 -17.509 962.088 136 125 119
265.812 -17.009 962.195 168 154 146
265.812 -16.509 962.269 189 176 168
265.812 -16.009 962.318 170 160 151
265.812 -15.509 962.421 150 140 131
265.812 -15.009 962.543 136 128 124
265.812 -14.509 962.682 127 119 116
265.812 -14.009 962.768 130 122 119
265.812 -13.509 962.830 131 123 120
265.812 -13.009 962.878 128 120 117
265.812 -12.509 962.977 131 123 120
265.812 -12.009 963.117 157 150 145
265.812 -11.509 963.187 156 149 142
265.812 -11.009 963.209 151 144 138
265.812 -10.509 963.257 152 145 139
265.812 -10.009 963.369 142 135 129
266.312 -20.509 961.593 123 118 118
266.312 -20.009 961.741 121 116 116
266.312 -19.509 961.873 124 116 116
266.312 -19.009 961.939 124 117 114
266.312 -18.509 962.039 124 115 112
266.312 -18.009 962.146 126 118 113
266.312 -17.509 962.227 136 125 118
266.312 -17.009 962.309 167 153 144
266.312 -16.509 962.402 184 171 162
266.312 -16.009 962.490 161 151 142
266.312 -15.509 962.590 141 132 125
266.312 -15.009 962.724 132 124 120
266.312 -14.509 962.811 127 119 118
266.312 -14.009 962.880 129 120 121
266.312 -13.509 962.994 132 123 124
266.312 -13.009 963.064 126 119 116
266.312 -12.509 963.127 133 125 122
266.312 -12.009 963.204 158 150 143
266.312 -11.509 963.268 161 152 143
266.312 -11.009 963.308 163 154 147
266.312 -10.509 963.394 157 148 143
266.312 -10.009 963.523 141 132 129
266.812 -20.509 961.844 121 117 117
266.812 -20.009 961.946 120 117 116
266.812 -19.509 962.046 121 116 116
266.812 -19.009 962.133 125 118 116
266.812 -18.509 962.254 129 119 117
266.812 -18.009 962.350 134 124 120
266.812 -17.509 962.417 144 133 124
266.812 -17.009 962.487 171 158 149
266.812 -16.509 962.605 180 168 157
266.812 -16.009 962.704 170 159 150
266.812 -15.509 962.798 147 137 130
266.812 -15.009 962.896 131 123 119
266.812 -14.509 962.969 125 117 114
266.812 -14.009 963.062 126 118 116
266.812 -13.509 963.151 124 116 116
266.812 -13.009 963.228 121 113 111
266.812 -12.509 963.295 128 120 117
266.812 -12.009 963.339 160 152 145
266.812 -11.509 963.411 170 161 152
266.812 -11.009 963.489 174 166 157
266.812 -10.509 963.592 161 152 145
266.812 -10.009 963.700 144 136 132
267.312 -20.509 962.072 119 116 116
267.312 -20.009 962.152 119 115 114
267.312 -19.509 962.240 120 116 114
267.312 -19.009 962.320 132 124 121
267.312 -18.509 962.418 141 131 129
267.312 -18.009 962.535 156 144 138
267.312 -17.509 962.628 173 160 152
267.312 -17.009 962.670 184 170 159
267.312 -16.509 962.730 184 170 159
267.312 -16.009 962.818 164 151 143
267.312 -15.509 962.930 137 126 120
267.312 -15.009 963.040 133 124 119
267.312 -14.509 963.109 130 120 118
267.312 -14.009 963.193 127 118 116
267.312 -13.509 963.268 122 113 112
267.312 -13.009 963.363 122 115 112
267.312 -12.509 963.453 135 127 124
267.312 -12.009 963.498 158 149 143
267.312 -11.509 963.569 161 152 143
267.312 -11.009 963.642 168 158 151
267.312 -10.509 963.704 162 155 148
267.312 -10.009 963.805 148 141 135
267.812 -20.509 962.210 121 116 116
267.812 -20.009 962.299 119 113 112
267.812 -19.509 962.430 126 119 116
267.812 -19.009 962.535 141 132 127
267.812 -18.509 962.588 146 136 129
267.812 -18.009 962.672 167 153 145
267.812 -17.509 962.748 188 174 164
267.812 -17.009 962.809 191 177 164
267.812 -16.509 962.882 179 166 154
267.812 -16.009 962.992 163 150 141
267.812 -15.509 963.076 138 125 119
267.812 -15.009 963.193 144 133 127
267.812 -14.509 963.291 145 134 129
267.812 -14.009 963.344 136 126 123
267.812 -13.509 963.402 129 119 117
267.812 -13.009 963.489 135 127 124
267.812 -12.509 963.564 144 136 133
267.812 -12.009 963.612 151 142 136
267.812 -11.509 963.667 146 137 130
267.812 -11.009 963.737 148 141 133
267.812 -10.509 963.819 156 149 143
257.312 -9.509 960.785 140 131 125
257.312 -9.009 960.794 143 134 129
257.312 -8.509 960.832 142 135 129
257.312 -8.009 960.906 133 125 123
257.312 -7.509 961.000 130 122 120
257.312 -7.009 961.090 136 127 128
257.312 -6.509 961.147 135 127 125
257.312 -6.009 961.178 128 120 117
257.312 -5.509 961.191 131 122 117
257.312 -5.009 961.205 151 142 137
257.312 -4.509 961.230 142 133 128
257.312 -4.009 961.284 143 134 129
257.312 -3.509 961.341 141 132 127
257.312 -3.009 961.383 140 131 126
257.312 -2.509 961.421 137 128 123
257.312 -2.009 961.441 132 122 120
257.312 -1.509 961.477 135 126 123
257.312 -1.009 961.530 141 132 127
257.312 -0.509 961.567 137 128 123
257.312 -0.009 961.666 132 123 118
257.312 0.491 961.828 142 133 128
257.312 0.991 961.943 148 139 132
257.812 -9.509 960.934 130 121 116
257.812 -9.009 960.920 137 128 123
257.812 -8.509 960.983 135 127 124
257.812 -8.009 961.080 126 119 116
257.812 -7.509 961.161 124 116 116
257.812 -7.009 961.234 123 115 116
257.812 -6.509 961.280 128 120 118
257.812 -6.009 961.321 124 117 113
257.812 -5.509 961.363 125 117 111
257.812 -5.009 961.390 149 140 135
257.812 -4.509 961.436 144 135 130
257.812 -4.009 961.524 146 137 132
257.812 -3.509 961.604 151 142 137
257.812 -3.009 961.645 151 142 137
257.812 -2.509 961.669 142 133 128
257.812 -2.009 961.692 140 130 128
257.812 -1.509 961.726 133 123 121
257.812 -1.009 961.767 137 127 125
257.812 -0.509 961.849 134 125 120
257.812 -0.009 961.986 136 127 122
257.812 0.491 962.103 144 135 130
257.812 0.991 962.202 137 128 123
258.312 -9.509 961.069 145 135 133
258.312 -9.009 961.086 143 133 131
258.312 -8.509 961.129 132 124 122
258.312 -8.009 961.190 126 118 117
258.312 -7.509 961.252 122 113 114
258.312 -7.009 961.313 121 112 113
258.312 -6.509 961.392 125 118 116
258.312 -6.009 961.454 125 118 114
258.312 -5.509 961.486 124 115 112
258.312 -5.009 961.539 140 130 128
258.312 -4.509 961.611 154 144 142
258.312 -4.009 961.675 150 140 138
258.312 -3.509 961.723 152 142 140
258.312 -3.009 961.748 155 145 143
258.312 -2.509 961.768 144 134 132
258.312 -2.009 961.804 141 131 129
258.312 -1.509 961.881 137 127 125
258.312 -1.009 961.960 138 128 126
258.312 -0.509 962.050 141 131 128
258.312 -0.009 962.157 150 141 136
258.312 0.491 962.263 156 147 142
258.312 0.991 962.382 140 131 126
258.812 -9.509 961.139 148 138 136
258.812 -9.009 961.168 140 131 130
258.812 -8.509 961.213 132 126 125
258.812 -8.009 961.278 124 119 119
258.812 -7.509 961.324 124 119 119
258.812 -7.009 961.375 122 117 116
258.812 -6.509 961.465 125 119 119
258.812 -6.009 961.514 128 123 119
258.812 -5.509 961.555 131 122 119
258.812 -5.009 961.637 136 126 124
258.812 -4.509 961.702 154 144 142
258.812 -4.009 961.748 149 139 137
258.812 -3.509 961.794 149 139 137
258.812 -3.009 961.843 148 138 136
258.812 -2.509 961.905 143 133 131
258.812 -2.009 962.007 143 135 133
258.812 -1.509 962.105 143 135 132
258.812 -1.009 962.166 138 130 127
258.812 -0.509 962.225 135 127 124
258.812 -0.009 962.322 138 131 126
258.812 0.491 962.434 138 131 126
258.812 0.991 962.540 135 128 122
259.312 -9.509 961.224 140 130 129
259.312 -9.009 961.283 134 124 123
259.312 -8.509 961.350 127 121 121
259.312 -8.009 961.396 122 117 118
259.312 -7.509 961.457 124 119 120
259.312 -7.009 961.529 123 118 117
259.312 -6.509 961.583 130 125 124
259.312 -6.009 961.612 142 137 133
259.312 -5.509 961.705 151 141 139
259.312 -5.009 961.802 148 138 136
259.312 -4.509 961.838 150 140 138
259.312 -4.009 961.872 150 140 138
259.312 -3.509 961.959 142 132 130
259.312 -3.009 962.080 135 125 123
259.312 -2.509 962.181 128 119 117
259.312 -2.009 962.266 126 119 116
259.312 -1.509 962.321 130 122 120
259.312 -1.009 962.382 129 121 118
259.312 -0.509 962.481 126 119 116
259.312 -0.009 962.580 124 117 113
259.312 0.491 962.659 124 117 113
259.312 0.991 962.718 129 121 118
259.812 -9.509 961.364 138 130 128
259.812 -9.009 961.404 134 126 124
259.812 -8.509 961.484 124 119 118
259.812 -8.009 961.531 120 115 114
259.812 -7.509 961.594 120 115 114
259.812 -7.009 961.663 122 117 116
259.812 -6.509 961.708 131 125 125
259.812 -6.009 961.761 138 133 130
259.812 -5.509 961.856 137 129 127
259.812 -5.009 961.918 127 119 117
259.812 -4.509 961.966 127 119 117
259.812 -4.009 962.055 145 137 135
259.812 -3.509 962.150 141 133 131
259.812 -3.009 962.246 133 125 123
259.812 -2.509 962.337 124 117 114
259.812 -2.009 962.409 121 113 110
259.812 -1.509 962.464 127 119 116
259.812 -1.009 962.536 127 119 116
259.812 -0.509 962.624 126 119 116
259.812 -0.009 962.691 129 121 118
259.812 0.491 962.759 130 122 119
259.812 0.991 962.867 141 131 129
260.312 -9.509 961.548 131 123 121
260.312 -9.009 961.596 128 120 118
260.312 -8.509 961.679 122 113 114
260.312 -8.009 961.709 122 113 114
260.312 -7.509 961.730 123 115 116
260.312 -7.009 961.784 128 119 120
260.312 -6.509 961.871 137 129 127
260.312 -6.009 961.942 132 124 122
260.312 -5.509 962.005 128 120 118
260.312 -5.009 962.089 122 115 112
260.312 -4.509 962.180 122 115 112
260.312 -4.009 962.247 139 131 129
260.312 -3.509 962.343 146 138 136
260.312 -3.009 962.475 138 130 128
260.312 -2.509 962.573 130 122 120
260.312 -2.009 962.641 127 119 117
260.312 -1.509 962.681 129 121 119
260.312 -1.009 962.728 130 122 120
260.312 -0.509 962.792 129 121 119
260.312 -0.009 962.843 131 123 121
260.312 0.491 962.951 135 127 125
260.312 0.991 963.112 139 129 127
260.812 -9.509 961.746 133 125 123
260.812 -9.009 961.808 136 128 126
260.812 -8.509 961.875 128 119 120
260.812 -8.009 961.921 128 120 119
260.812 -7.509 962.013 131 123 121
260.812 -7.009 962.058 131 123 121
260.812 -6.509 962.083 130 122 120
260.812 -6.009 962.177 126 119 116
260.812 -5.509 962.288 124 117 114
260.812 -5.009 962.358 120 112 110
260.812 -4.509 962.440 129 121 119
260.812 -4.009 962.535 140 132 130
260.812 -3.509 962.621 144 136 134
260.812 -3.009 962.711 141 133 131
260.812 -2.509 962.792 139 131 129
260.812 -2.009 962.856 137 129 127
260.812 -1.509 962.949 139 131 129
260.812 -1.009 963.075 135 127 125
260.812 -0.509 963.157 128 120 118
260.812 -0.009 963.221 126 119 116
260.812 0.491 963.334 126 119 116
260.812 0.991 963.425 135 126 123
261.312 -9.509 961.888 138 130 128
261.312 -9.009 961.977 133 125 123
261.312 -8.509 962.080 131 122 122
261.312 -8.009 962.150 133 125 122
261.312 -7.509 962.239 135 127 124
261.312 -7.009 962.280 130 123 117
261.312 -6.509 962.295 133 125 120
261.312 -6.009 962.399 135 127 124
261.312 -5.509 962.550 132 124 122
261.312 -5.009 962.610 132 124 122
261.312 -4.509 962.643 142 134 132
261.312 -4.009 962.725 143 135 133
261.312 -3.509 962.814 144 136 134
261.312 -3.009 962.918 142 134 132
261.312 -2.509 963.048 147 139 137
261.312 -2.009 963.163 140 132 130
261.312 -1.509 963.287 143 135 133
261.312 -1.009 963.418 140 132 130
261.312 -0.509 963.520 128 120 118
261.312 -0.009 963.602 131 123 121
261.312 0.491 963.653 133 125 123
261.312 0.991 963.667 128 123 120
261.812 -9.509 962.004 129 121 119
261.812 -9.009 962.126 123 116 113
261.812 -8.509 962.214 131 121 121
261.812 -8.009 962.301 149 139 136
261.812 -7.509 962.392 140 131 125
261.812 -7.009 962.459 141 132 125
261.812 -6.509 962.557 151 142 137
261.812 -6.009 962.670 154 144 142
261.812 -5.509 962.739 143 135 133
261.812 -5.009 962.763 138 130 128
261.812 -4.509 962.798 140 132 130
261.812 -4.009 962.884 138 130 128
261.812 -3.509 962.994 136 128 126
261.812 -3.009 963.110 134 126 124
261.812 -2.509 963.237 139 131 129
261.812 -2.009 963.357 133 127 127
261.812 -1.509 963.465 129 123 123
261.812 -1.009 963.599 128 122 122
261.812 -0.509 963.735 127 121 121
261.812 -0.009 963.814 129 123 123
261.812 0.491 963.842 130 124 124
261.812 0.991 963.851 125 120 117
262.312 -9.509 962.301 124 117 114
262.312 -9.009 962.365 119 110 108
262.312 -8.509 962.430 126 117 116
262.312 -8.009 962.540 157 148 144
262.312 -7.509 962.671 166 156 149
262.312 -7.009 962.745 160 151 142
262.312 -6.509 962.778 166 156 150
262.312 -6.009 962.812 148 138 135
262.312 -5.509 962.892 134 126 124
262.312 -5.009 962.959 136 128 126
262.312 -4.509 963.038 137 129 127
262.312 -4.009 963.149 133 125 123
262.312 -3.509 963.237 129 121 119
262.312 -3.009 963.345 131 123 121
262.312 -2.509 963.503 132 124 123
262.312 -2.009 963.654 129 123 123
262.312 -1.509 963.774 125 119 119
262.812 -9.509 962.535 122 116 113
262.812 -9.009 962.615 120 113 111
262.812 -8.509 962.688 130 121 118
262.812 -8.009 962.723 156 147 142
262.812 -7.509 962.768 170 161 153
262.812 -7.009 962.835 171 162 154
262.812 -6.509 962.898 168 159 152
262.812 -6.009 962.974 149 140 134
262.812 -5.509 963.076 139 131 129
262.812 -5.009 963.160 134 126 124
262.812 -4.509 963.210 131 123 121
262.812 -4.009 963.298 130 122 120
262.812 -3.509 963.449 130 123 120
262.812 -3.009 963.621 132 125 123
262.812 -2.509 963.800 132 125 123
263.312 -9.509 962.646 122 117 116
263.312 -9.009 962.721 126 119 118
263.312 -8.509 962.779 137 128 123
263.312 -8.009 962.839 166 156 151
263.312 -7.509 962.946 168 158 151
263.312 -7.009 963.044 164 155 148
263.312 -6.509 963.111 166 156 149
263.312 -6.009 963.198 151 142 135
263.312 -5.509 963.270 139 129 127
263.312 -5.009 963.340 138 129 127
263.312 -4.509 963.411 131 123 120
263.312 -4.009 963.556 131 123 121
263.312 -3.509 963.755 137 129 127
263.812 -9.509 962.814 121 116 116
263.812 -9.009 962.847 119 112 111
263.812 -8.509 962.949 144 134 132
263.812 -8.009 963.086 157 147 145
263.812 -7.509 963.176 147 138 133
263.812 -7.009 963.238 139 130 125
263.812 -6.509 963.294 142 133 128
263.812 -6.009 963.363 157 148 143
263.812 -5.509 963.450 163 154 149
263.812 -5.009 963.627 150 141 136
263.812 -4.509 963.842 141 132 129
264.312 -9.509 963.009 123 116 113
264.312 -9.009 963.052 128 120 118
264.312 -8.509 963.134 136 126 125
264.312 -8.009 963.198 134 124 122
264.312 -7.509 963.281 132 122 120
264.312 -7.009 963.409 133 123 121
264.312 -6.509 963.541 137 127 125
264.312 -6.009 963.680 147 138 133
264.312 -5.509 963.764 145 136 129
264.812 -9.509 963.201 138 130 127
264.812 -9.009 963.272 144 136 133
264.812 -8.509 963.332 141 131 130
264.812 -8.009 963.377 149 139 137
264.812 -7.509 963.465 146 136 134
264.812 -7.009 963.620 156 146 144
264.812 -6.509 963.785 162 153 150
265.312 -9.509 963.347 150 142 139
265.312 -9.009 963.419 153 145 142
265.312 -8.509 963.513 157 147 145
265.312 -8.009 963.616 164 154 152
265.312 -7.509 963.708 155 145 143
265.312 -7.009 963.833 152 143 138
265.812 -9.509 963.496 130 123 117
265.812 -9.009 963.573 134 127 121
265.812 -8.509 963.653 155 145 143
265.812 -8.009 963.812 157 147 145
266.312 -9.509 963.664 130 122 120
266.312 -9.009 963.750 132 124 121
266.312 -8.509 963.833 147 140 134
266.812 -9.509 963.788 135 127 125
257.312 1.491 962.059 147 138 131
257.312 1.991 962.185 158 149 142
257.312 2.491 962.289 162 153 146
257.312 2.991 962.376 157 148 141
257.312 3.491 962.465 155 146 139
257.312 3.991 962.559 155 148 141
257.312 4.491 962.626 149 142 136
257.312 4.991 962.666 143 136 130
257.312 5.491 962.735 143 134 129
257.312 5.991 962.733 142 133 128
257.312 6.491 962.778 139 130 125
257.312 6.991 962.982 136 125 121
257.312 7.491 963.099 145 134 130
257.312 7.991 963.112 153 142 138
257.312 8.491 963.107 128 118 113
257.312 8.991 963.122 129 119 114
257.312 9.491 963.160 125 116 113
257.312 9.991 963.181 123 113 111
257.312 10.491 963.229 126 117 114
257.312 10.991 963.258 134 124 122
257.312 11.491 963.313 139 129 127
257.312 11.991 963.352 145 134 130
257.812 1.491 962.288 128 119 114
257.812 1.991 962.365 139 130 125
257.812 2.491 962.470 156 147 142
257.812 2.991 962.594 156 147 142
257.812 3.491 962.701 159 150 145
