-1138.952 429.751 1061.466 227 208 191
-1138.952 429.251 1061.406 218 199 184
-1138.952 428.751 1061.371 187 168 154
-1138.952 428.251 1061.367 174 155 140
-1138.952 427.751 1061.367 234 215 200
-1138.952 427.251 1061.334 204 185 169
-1138.952 426.751 1061.298 194 172 154
-1138.952 426.251 1061.269 185 162 144
-1138.952 425.751 1061.238 170 149 137
-1138.952 425.251 1061.211 139 124 116
-1138.952 424.751 1061.145 187 174 165
-1138.952 424.251 1061.053 200 185 172
-1138.952 423.751 1061.000 197 179 167
-1138.952 423.251 1060.976 186 169 159
-1138.952 422.751 1060.979 156 142 131
-1138.952 422.251 1060.984 168 154 143
-1138.952 421.751 1061.001 192 178 165
-1138.952 421.251 1060.975 209 194 179
-1138.952 420.751 1060.908 202 185 170
-1138.952 420.251 1060.924 194 177 161
-1138.952 419.751 1060.928 186 167 152
-1138.952 419.251 1060.937 177 159 145
-1138.952 418.751 1060.948 157 140 129
-1138.952 418.251 1060.962 126 111 103
-1138.952 417.751 1060.945 179 166 159
-1138.952 417.251 1060.885 182 172 167
-1138.952 416.751 1060.774 185 175 170
-1138.952 416.251 1060.654 192 182 174
-1138.952 415.751 1060.474 201 186 175
-1138.952 415.251 1060.298 198 181 166
-1138.952 414.751 1060.107 175 155 139
-1138.952 414.251 1059.918 198 177 159
-1138.952 413.751 1059.833 197 176 157
-1138.952 413.251 1059.717 199 177 157
-1138.952 412.751 1059.537 209 186 165
-1138.952 412.251 1059.385 218 193 172
-1138.952 411.751 1059.263 218 193 171
-1138.952 411.251 1059.165 212 185 164
-1138.952 410.751 1058.990 213 186 165
-1138.952 410.251 1058.869 208 183 161
-1138.952 409.751 1058.819 211 187 165
-1138.952 409.251 1058.763 200 178 158
-1138.952 408.751 1058.679 197 175 158
-1138.952 408.251 1058.623 200 179 163
-1138.952 407.751 1058.597 196 176 160
-1138.952 407.251 1058.607 194 177 161
-1138.952 406.751 1058.642 203 187 171
-1138.952 406.251 1058.668 209 195 182
-1138.952 405.751 1058.678 209 197 185
-1138.952 405.251 1058.663 208 198 188
-1138.952 404.751 1058.675 207 197 187
-1138.952 404.251 1058.657 207 197 188
-1138.952 403.751 1058.684 202 192 183
-1138.952 403.251 1058.675 194 184 174
-1138.952 402.751 1058.672 203 192 182
-1138.952 402.251 1058.627 206 194 182
-1138.952 401.751 1058.586 214 201 190
-1138.952 401.251 1058.454 223 213 203
-1138.952 400.751 1058.378 200 190 180
-1138.952 400.251 1058.205 194 184 174
-1138.952 399.751 1058.108 188 178 168
-1138.952 399.251 1057.971 200 190 180
-1138.952 398.751 1057.859 194 184 174
-1138.952 398.251 1057.681 177 164 156
-1138.952 397.751 1057.608 176 163 155
-1138.952 397.251 1057.521 166 152 143
-1138.952 396.751 1057.421 173 158 148
-1138.952 396.251 1057.376 184 168 155
-1138.952 395.751 1057.352 189 171 159
-1138.952 395.251 1057.287 192 174 160
-1138.952 394.751 1057.176 191 172 157
-1138.952 394.251 1057.096 191 172 158
-1138.952 393.751 1057.017 189 171 157
-1138.952 393.251 1056.938 178 160 148
-1138.952 392.751 1056.879 183 166 155
-1138.952 392.251 1056.797 177 160 150
-1138.952 391.751 1056.761 175 157 147
-1138.952 391.251 1056.713 168 150 139
-1138.952 390.751 1056.623 179 161 149
-1138.952 390.251 1056.566 196 178 164
-1138.952 389.751 1056.508 198 180 166
-1138.952 389.251 1056.447 202 184 170
-1138.952 388.751 1056.398 201 183 168
-1138.952 388.251 1056.280 203 185 171
-1138.952 387.751 1056.103 211 192 178
-1138.952 387.251 1055.980 217 198 181
-1138.952 386.751 1055.908 218 198 180
-1138.952 386.251 1055.862 218 197 178
-1138.952 385.751 1055.790 217 196 176
-1138.952 385.251 1055.692 201 180 163
-1138.952 384.751 1055.662 192 170 155
-1138.952 384.251 1055.663 181 159 145
-1138.952 383.751 1055.646 170 150 139
-1138.952 383.251 1055.594 158 141 132
-1138.952 382.751 1055.539 157 142 134
-1138.952 382.251 1055.483 152 139 133
-1138.952 381.751 1055.461 149 136 130
-1138.952 381.251 1055.465 150 137 131
-1138.952 380.751 1055.460 156 143 137
-1138.952 380.251 1055.429 163 150 144
-1138.952 379.751 1055.383 164 151 145
-1138.952 379.251 1055.281 170 157 151
-1138.952 378.751 1055.094 172 157 150
-1138.952 378.251 1054.983 172 157 150
-1138.952 377.751 1054.828 169 155 146
-1138.952 377.251 1054.605 176 159 151
-1138.952 376.751 1054.463 189 172 162
-1138.952 376.251 1054.417 191 174 164
-1138.952 375.751 1054.353 181 163 150
-1138.952 375.251 1054.285 174 156 144
-1138.952 374.751 1054.210 178 163 151
-1138.952 374.251 1054.073 170 157 148
-1138.952 373.751 1053.917 202 189 181
-1138.952 373.251 1053.770 208 197 191
-1138.952 372.751 1053.674 208 195 186
-1138.952 372.251 1053.554 199 183 171
-1138.952 371.751 1053.446 191 175 162
-1138.952 371.251 1053.361 190 174 161
-1138.952 370.751 1053.341 191 175 163
-1138.952 370.251 1053.366 187 170 161
-1138.952 369.751 1053.392 183 166 158
-1138.952 369.251 1053.373 181 164 157
-1138.952 368.751 1053.313 176 162 154
-1138.952 368.251 1053.274 176 163 155
-1138.952 367.751 1053.235 177 164 156
-1138.952 367.251 1053.218 185 171 161
-1138.952 366.751 1053.206 197 183 173
-1138.952 366.251 1053.168 198 182 170
-1138.952 365.751 1053.095 200 184 171
-1138.952 365.251 1053.028 200 184 171
-1138.952 364.751 1052.974 198 182 169
-1138.952 364.251 1052.914 188 172 159
-1138.952 363.751 1052.879 181 165 152
-1138.952 363.251 1052.864 185 169 156
-1138.952 362.751 1052.864 178 160 148
-1138.952 362.251 1052.883 176 158 146
-1138.952 361.751 1052.897 169 152 142
-1138.952 361.251 1052.895 166 149 139
-1138.952 360.751 1052.897 165 148 139
-1138.952 360.251 1052.906 167 150 142
-1138.952 359.751 1052.917 161 146 139
-1138.952 359.251 1052.924 161 146 139
-1138.952 358.751 1052.927 155 142 135
-1138.952 358.251 1052.959 142 129 123
-1138.952 357.751 1053.004 150 137 131
-1138.952 357.251 1053.038 172 161 155
-1138.952 356.751 1053.075 165 154 148
-1138.952 356.251 1053.098 172 161 155
-1138.952 355.751 1053.111 177 166 162
-1138.952 355.251 1053.141 162 153 148
-1138.952 354.751 1053.212 151 141 139
-1138.952 354.251 1053.277 150 142 140
-1138.952 353.751 1053.348 147 139 137
-1138.952 353.251 1053.467 141 133 131
-1138.952 352.751 1053.534 136 128 126
-1138.952 352.251 1053.630 138 130 128
-1138.952 351.751 1053.693 153 145 143
-1138.952 351.251 1053.730 177 169 166
-1138.952 350.751 1053.721 173 165 162
-1138.952 350.251 1053.713 154 147 141
-1138.952 349.751 1053.704 162 155 149
-1138.952 349.251 1053.588 183 176 170
-1138.952 348.751 1053.525 163 154 149
-1138.952 348.251 1053.434 141 132 127
-1138.952 347.751 1053.406 139 130 125
-1138.952 347.251 1053.391 134 123 119
-1138.952 346.751 1053.359 142 129 121
-1138.952 346.251 1053.297 160 147 139
-1138.952 345.751 1053.204 183 170 161
-1138.952 345.251 1053.085 194 180 171
-1138.952 344.751 1053.025 192 178 167
-1138.952 344.251 1052.990 193 179 168
-1138.952 343.751 1052.966 201 185 170
-1138.952 343.251 1052.946 214 198 182
-1138.952 342.751 1052.896 222 205 188
-1138.952 342.251 1052.841 222 204 184
-1138.952 341.751 1052.795 220 202 182
-1138.952 341.251 1052.759 214 193 172
-1138.952 340.751 1052.714 211 191 168
-1138.952 340.251 1052.680 207 185 162
-1138.952 339.751 1052.662 207 185 162
-1138.952 339.251 1052.642 201 179 159
-1138.952 338.751 1052.602 195 175 156
-1138.952 338.251 1052.575 188 171 154
-1138.952 337.751 1052.558 182 165 150
-1138.952 337.251 1052.556 184 168 155
-1138.952 336.751 1052.556 183 167 154
-1138.952 336.251 1052.539 179 163 150
-1138.952 335.751 1052.523 180 164 151
-1138.952 335.251 1052.516 177 160 150
-1138.952 334.751 1052.513 173 156 146
-1138.952 334.251 1052.510 170 156 144
-1138.952 333.751 1052.509 159 145 132
-1138.952 333.251 1052.509 161 145 132
-1138.952 332.751 1052.501 164 148 134
-1138.952 332.251 1052.492 170 154 139
-1138.952 331.751 1052.472 177 159 145
-1138.952 331.251 1052.435 189 171 157
-1138.952 330.751 1052.405 187 171 156
-1138.952 330.251 1052.386 168 152 139
-1138.952 329.751 1052.368 161 145 132
-1138.952 329.251 1052.386 162 145 135
-1138.952 328.751 1052.406 168 151 141
-1138.952 328.251 1052.442 168 151 143
-1138.952 327.751 1052.477 155 141 130
-1138.952 327.251 1052.496 147 133 122
-1138.952 326.751 1052.497 148 132 119
-1138.952 326.251 1052.462 159 141 129
-1138.952 325.751 1052.389 165 147 135
-1138.952 325.251 1052.216 175 156 142
-1138.952 324.751 1052.123 181 162 147
-1138.952 324.251 1052.057 178 159 144
-1138.952 323.751 1051.939 176 154 140
-1138.952 323.251 1051.833 179 158 141
-1138.952 322.751 1051.742 190 169 151
-1138.952 322.251 1051.696 202 179 161
-1138.952 321.751 1051.590 204 181 161
-1138.952 321.251 1051.476 208 182 159
-1138.952 320.751 1051.390 205 179 156
-1138.952 320.251 1051.340 201 177 153
-1138.952 319.751 1051.289 200 175 153
-1138.952 319.251 1051.239 202 177 155
-1138.952 318.751 1051.203 217 192 171
-1138.952 318.251 1051.182 228 206 188
-1138.952 317.751 1051.173 235 216 199
-1138.952 317.251 1051.158 238 221 204
-1138.952 316.751 1051.144 241 224 209
-1138.952 316.251 1051.124 241 228 212
-1138.952 315.751 1051.103 240 228 214
-1138.952 315.251 1051.083 240 228 214
-1138.952 314.751 1051.062 237 228 212
-1138.952 314.251 1051.056 238 229 214
-1138.452 438.251 1062.928 195 170 153
-1138.452 437.751 1062.910 190 165 149
-1138.452 437.251 1062.894 182 159 143
-1138.452 436.751 1062.854 166 147 133
-1138.452 436.251 1062.821 175 159 145
-1138.452 435.751 1062.790 173 157 143
-1138.452 435.251 1062.775 164 148 135
-1138.452 434.751 1062.773 164 150 138
-1138.452 434.251 1062.746 164 150 140
-1138.452 433.751 1062.718 147 134 123
-1138.452 433.251 1062.646 147 133 120
-1138.452 432.751 1062.472 160 143 131
-1138.452 432.251 1062.310 173 157 144
-1138.452 431.751 1062.044 182 170 156
-1138.452 431.251 1061.847 182 173 158
-1138.452 430.751 1061.714 199 186 173
-1138.452 430.251 1061.533 221 204 187
-1138.452 429.751 1061.441 224 207 189
-1138.452 429.251 1061.403 215 198 182
-1138.452 428.751 1061.385 189 171 157
-1138.452 428.251 1061.384 172 154 141
-1138.452 427.751 1061.381 226 208 194
-1138.452 427.251 1061.343 197 179 163
-1138.452 426.751 1061.306 195 175 157
-1138.452 426.251 1061.277 187 164 148
-1138.452 425.751 1061.267 167 149 135
-1138.452 425.251 1061.250 147 133 124
-1138.452 424.751 1061.195 162 149 140
-1138.452 424.251 1061.103 219 205 192
-1138.452 423.751 1061.056 196 180 167
-1138.452 423.251 1061.014 184 170 159
-1138.452 422.751 1061.012 165 153 142
-1138.452 422.251 1061.019 145 133 121
-1138.452 421.751 1061.030 187 175 163
-1138.452 421.251 1061.016 205 193 179
-1138.452 420.751 1060.981 196 182 167
-1138.452 420.251 1060.966 181 163 151
-1138.452 419.751 1060.943 175 157 145
-1138.452 419.251 1060.927 175 157 145
-1138.452 418.751 1060.918 144 128 116
-1138.452 418.251 1060.914 127 113 104
-1138.452 417.751 1060.871 193 180 171
-1138.452 417.251 1060.775 195 180 169
-1138.452 416.751 1060.654 184 170 159
-1138.452 416.251 1060.510 186 172 161
-1138.452 415.751 1060.330 198 182 168
-1138.452 415.251 1060.181 188 170 152
-1138.452 414.751 1060.028 181 161 142
-1138.452 414.251 1059.888 183 164 149
-1138.452 413.751 1059.821 185 166 151
-1138.452 413.251 1059.716 194 173 157
-1138.452 412.751 1059.556 201 179 162
-1138.452 412.251 1059.406 208 185 167
-1138.452 411.751 1059.258 207 185 164
-1138.452 411.251 1059.140 203 180 160
-1138.452 410.751 1058.963 205 179 162
-1138.452 410.251 1058.845 204 182 161
-1138.452 409.751 1058.762 198 176 158
-1138.452 409.251 1058.646 180 158 142
-1138.452 408.751 1058.557 167 146 134
-1138.452 408.251 1058.498 186 167 156
-1138.452 407.751 1058.461 198 181 166
-1138.452 407.251 1058.453 196 179 165
-1138.452 406.751 1058.462 195 179 165
-1138.452 406.251 1058.541 186 172 159
-1138.452 405.751 1058.519 203 189 178
-1138.452 405.251 1058.495 211 199 187
-1138.452 404.751 1058.487 211 200 191
-1138.452 404.251 1058.518 212 201 195
-1138.452 403.751 1058.551 211 201 192
-1138.452 403.251 1058.551 184 174 165
-1138.452 402.751 1058.516 192 180 169
-1138.452 402.251 1058.431 197 185 173
-1138.452 401.751 1058.369 193 181 169
-1138.452 401.251 1058.226 206 193 184
-1138.452 400.751 1058.144 187 174 165
-1138.452 400.251 1057.914 195 182 173
-1138.452 399.751 1057.888 197 184 174
-1138.452 399.251 1057.804 196 183 174
-1138.452 398.751 1057.656 175 162 152
-1138.452 398.251 1057.499 159 144 137
-1138.452 397.751 1057.434 150 135 128
-1138.452 397.251 1057.349 150 133 126
-1138.452 396.751 1057.288 155 138 129
-1138.452 396.251 1057.262 163 145 133
-1138.452 395.751 1057.201 174 154 143
-1138.452 395.251 1057.135 192 173 159
-1138.452 394.751 1057.065 193 173 159
-1138.452 394.251 1056.984 192 173 159
-1138.452 393.751 1056.880 182 164 152
-1138.452 393.251 1056.788 164 146 134
-1138.452 392.751 1056.691 169 152 142
-1138.452 392.251 1056.580 167 150 142
-1138.452 391.751 1056.569 163 146 138
-1138.452 391.251 1056.554 162 145 137
-1138.452 390.751 1056.500 174 157 148
-1138.452 390.251 1056.469 183 167 154
-1138.452 389.751 1056.426 181 165 152
-1138.452 389.251 1056.372 183 167 152
-1138.452 388.751 1056.281 178 161 150
-1138.452 388.251 1056.128 176 160 147
-1138.452 387.751 1055.986 190 172 160
-1138.452 387.251 1055.904 201 183 169
-1138.452 386.751 1055.842 208 188 172
-1138.452 386.251 1055.763 220 199 180
-1138.452 385.751 1055.662 218 197 178
-1138.452 385.251 1055.572 207 185 169
-1138.452 384.751 1055.553 198 177 160
-1138.452 384.251 1055.548 194 172 156
-1138.452 383.751 1055.504 187 165 151
-1138.452 383.251 1055.454 169 149 138
-1138.452 382.751 1055.403 155 139 129
-1138.452 382.251 1055.370 150 137 129
-1138.452 381.751 1055.354 147 134 128
-1138.452 381.251 1055.350 148 135 129
-1138.452 380.751 1055.312 154 141 135
-1138.452 380.251 1055.286 160 147 141
-1138.452 379.751 1055.248 166 153 147
-1138.452 379.251 1055.160 170 157 151
-1138.452 378.751 1055.016 166 152 144
-1138.452 378.251 1054.922 167 153 144
-1138.452 377.751 1054.705 163 149 140
-1138.452 377.251 1054.562 165 148 141
-1138.452 376.751 1054.463 173 156 148
-1138.452 376.251 1054.426 177 160 152
-1138.452 375.751 1054.396 168 150 139
-1138.452 375.251 1054.352 168 150 138
-1138.452 374.751 1054.290 181 165 153
-1138.452 374.251 1054.190 174 160 150
-1138.452 373.751 1054.072 175 161 152
-1138.452 373.251 1053.902 202 189 181
-1138.452 372.751 1053.723 202 186 175
-1138.452 372.251 1053.599 195 177 163
-1138.452 371.751 1053.428 196 178 163
-1138.452 371.251 1053.338 193 177 162
-1138.452 370.751 1053.290 196 180 166
-1138.452 370.251 1053.287 197 180 170
-1138.452 369.751 1053.284 189 172 162
-1138.452 369.251 1053.291 189 172 164
-1138.452 368.751 1053.211 192 177 168
-1138.452 368.251 1053.159 196 182 171
-1138.452 367.751 1053.144 199 185 173
-1138.452 367.251 1053.152 201 183 169
-1138.452 366.751 1053.142 202 183 169
-1138.452 366.251 1053.104 203 185 171
-1138.452 365.751 1053.037 203 185 171
-1138.452 365.251 1052.975 206 188 174
-1138.452 364.751 1052.918 195 177 163
-1138.452 364.251 1052.870 190 172 158
-1138.452 363.751 1052.855 192 174 160
-1138.452 363.251 1052.864 203 185 171
-1138.452 362.751 1052.883 194 176 162
-1138.452 362.251 1052.901 187 169 157
-1138.452 361.751 1052.913 184 166 154
-1138.452 361.251 1052.922 178 161 151
-1138.452 360.751 1052.944 168 151 143
-1138.452 360.251 1052.960 167 150 142
-1138.452 359.751 1052.959 157 144 138
-1138.452 359.251 1052.974 151 138 132
-1138.452 358.751 1052.995 141 128 123
-1138.452 358.251 1053.019 157 144 140
-1138.452 357.751 1053.061 151 140 136
-1138.452 357.251 1053.089 147 136 132
-1138.452 356.751 1053.120 160 148 143
-1138.452 356.251 1053.155 163 149 146
-1138.452 355.751 1053.194 167 156 152
-1138.452 355.251 1053.278 156 146 144
-1138.452 354.751 1053.349 151 143 141
-1138.452 354.251 1053.396 145 140 137
-1138.452 353.751 1053.468 138 133 130
-1138.452 353.251 1053.557 133 125 125
-1138.452 352.751 1053.611 139 131 129
-1138.452 352.251 1053.686 157 149 147
-1138.452 351.751 1053.730 172 164 162
-1138.452 351.251 1053.752 162 154 151
-1138.452 350.751 1053.744 153 145 142
-1138.452 350.251 1053.734 164 157 151
-1138.452 349.751 1053.668 165 158 152
-1138.452 349.251 1053.549 164 157 151
-1138.452 348.751 1053.475 156 147 142
-1138.452 348.251 1053.426 144 135 130
-1138.452 347.751 1053.411 138 129 124
-1138.452 347.251 1053.386 137 126 122
-1138.452 346.751 1053.380 143 130 123
-1138.452 346.251 1053.345 156 143 135
-1138.452 345.751 1053.237 174 161 153
-1138.452 345.251 1053.158 179 166 157
-1138.452 344.751 1053.099 186 172 162
-1138.452 344.251 1053.061 191 177 166
-1138.452 343.751 1053.041 198 182 167
-1138.452 343.251 1053.025 213 197 182
-1138.452 342.751 1052.963 218 201 184
-1138.452 342.251 1052.905 226 208 188
-1138.452 341.751 1052.851 221 203 183
-1138.452 341.251 1052.783 221 203 181
-1138.452 340.751 1052.730 215 195 172
-1138.452 340.251 1052.692 207 185 162
-1138.452 339.751 1052.672 206 184 161
-1138.452 339.251 1052.657 205 183 160
-1138.452 338.751 1052.627 199 177 156
-1138.452 338.251 1052.600 196 178 158
-1138.452 337.751 1052.579 186 169 152
-1138.452 337.251 1052.576 187 171 156
-1138.452 336.751 1052.575 179 163 149
-1138.452 336.251 1052.549 176 160 147
-1138.452 335.751 1052.519 174 158 145
-1138.452 335.251 1052.508 170 154 141
-1138.452 334.751 1052.501 176 159 148
-1138.452 334.251 1052.497 181 165 152
-1138.452 333.751 1052.499 170 154 141
-1138.452 333.251 1052.506 167 151 138
-1138.452 332.751 1052.501 167 151 136
-1138.452 332.251 1052.492 182 164 150
-1138.452 331.751 1052.463 190 172 158
-1138.452 331.251 1052.427 188 170 156
-1138.452 330.751 1052.388 189 173 158
-1138.452 330.251 1052.362 182 166 151
-1138.452 329.751 1052.351 182 166 153
-1138.452 329.251 1052.381 178 162 149
-1138.452 328.751 1052.419 169 152 142
-1138.452 328.251 1052.461 161 144 136
-1138.452 327.751 1052.495 150 136 125
-1138.452 327.251 1052.511 148 134 123
-1138.452 326.751 1052.542 147 131 119
-1138.452 326.251 1052.543 157 141 128
-1138.452 325.751 1052.496 171 153 141
-1138.452 325.251 1052.388 177 159 147
-1138.452 324.751 1052.227 178 159 146
-1138.452 324.251 1052.146 181 162 148
-1138.452 323.751 1052.099 178 159 145
-1138.452 323.251 1052.032 172 153 138
-1138.452 322.751 1051.907 177 156 140
-1138.452 322.251 1051.819 188 167 149
-1138.452 321.751 1051.728 196 175 156
-1138.452 321.251 1051.599 211 187 165
-1138.452 320.751 1051.507 212 187 165
-1138.452 320.251 1051.450 207 182 160
-1138.452 319.751 1051.380 210 183 162
-1138.452 319.251 1051.272 204 178 155
-1138.452 318.751 1051.237 205 179 156
-1138.452 318.251 1051.218 207 182 160
-1138.452 317.751 1051.204 220 197 176
-1138.452 317.251 1051.194 232 211 192
-1138.452 316.751 1051.186 235 217 200
-1138.452 316.251 1051.174 237 221 205
-1138.452 315.751 1051.147 237 224 208
-1138.452 315.251 1051.117 239 227 211
-1138.452 314.751 1051.086 238 229 212
-1138.452 314.251 1051.087 239 230 213
-1137.952 438.251 1062.871 167 148 135
-1137.952 437.751 1062.854 164 146 133
-1137.952 437.251 1062.826 167 148 138
-1137.952 436.751 1062.775 164 148 137
-1137.952 436.251 1062.753 159 145 135
-1137.952 435.751 1062.748 159 145 135
-1137.952 435.251 1062.759 150 136 125
-1137.952 434.751 1062.788 152 138 127
-1137.952 434.251 1062.795 165 152 142
-1137.952 433.751 1062.754 156 142 131
-1137.952 433.251 1062.668 158 144 131
-1137.952 432.751 1062.483 163 149 137
-1137.952 432.251 1062.326 168 153 141
-1137.952 431.751 1062.037 173 159 146
-1137.952 431.251 1061.862 184 171 156
-1137.952 430.751 1061.724 198 185 169
-1137.952 430.251 1061.501 218 201 181
-1137.952 429.751 1061.416 223 203 186
-1137.952 429.251 1061.405 209 189 174
-1137.952 428.751 1061.388 187 168 155
-1137.952 428.251 1061.387 163 145 133
-1137.952 427.751 1061.382 217 199 186
-1137.952 427.251 1061.337 192 174 161
-1137.952 426.751 1061.314 183 164 149
-1137.952 426.251 1061.286 169 149 136
-1137.952 425.751 1061.275 158 142 129
-1137.952 425.251 1061.266 143 130 121
-1137.952 424.751 1061.209 144 133 123
-1137.952 424.251 1061.115 205 194 184
-1137.952 423.751 1061.081 197 184 172
-1137.952 423.251 1061.035 184 171 161
-1137.952 422.751 1061.028 169 157 147
-1137.952 422.251 1061.020 140 128 119
-1137.952 421.751 1061.019 181 170 158
-1137.952 421.251 1061.012 194 182 168
-1137.952 420.751 1061.002 173 161 148
-1137.952 420.251 1060.978 183 169 158
-1137.952 419.751 1060.939 210 195 183
-1137.952 419.251 1060.891 181 166 153
-1137.952 418.751 1060.852 201 186 174
-1137.952 418.251 1060.828 216 201 189
-1137.952 417.751 1060.762 200 185 174
-1137.952 417.251 1060.621 192 172 160
-1137.952 416.751 1060.459 187 169 156
-1137.952 416.251 1060.323 196 179 164
-1137.952 415.751 1060.178 193 175 160
-1137.952 415.251 1060.047 191 171 154
-1137.952 414.751 1059.933 195 174 155
-1137.952 414.251 1059.852 184 165 150
-1137.952 413.751 1059.795 184 165 150
-1137.952 413.251 1059.699 200 180 164
-1137.952 412.751 1059.556 202 180 163
-1137.952 412.251 1059.413 201 179 160
-1137.952 411.751 1059.265 201 178 158
-1137.952 411.251 1059.089 204 180 161
-1137.952 410.751 1058.922 208 183 165
-1137.952 410.251 1058.828 207 184 166
-1137.952 409.751 1058.669 196 174 157
-1137.952 409.251 1058.542 182 160 146
-1137.952 408.751 1058.464 164 144 131
-1137.952 408.251 1058.387 163 144 133
-1137.952 407.751 1058.325 191 174 161
-1137.952 407.251 1058.278 196 180 168
-1137.952 406.751 1058.264 194 180 168
-1137.952 406.251 1058.328 179 165 154
-1137.952 405.751 1058.314 180 166 155
-1137.952 405.251 1058.306 187 173 162
-1137.952 404.751 1058.302 203 189 179
-1137.952 404.251 1058.328 200 188 179
-1137.952 403.751 1058.313 182 168 159
-1137.952 403.251 1058.292 179 166 156
-1137.952 402.751 1058.142 198 183 173
-1137.952 402.251 1058.073 192 179 166
-1137.952 401.751 1058.017 192 178 166
-1137.952 401.251 1057.912 184 171 158
-1137.952 400.751 1057.758 179 166 153
-1137.952 400.251 1057.633 189 176 165
-1137.952 399.751 1057.596 191 178 166
-1137.952 399.251 1057.449 175 163 151
-1137.952 398.751 1057.361 155 143 131
-1137.952 398.251 1057.310 156 141 134
-1137.952 397.751 1057.241 154 137 131
-1137.952 397.251 1057.105 157 140 133
-1137.952 396.751 1057.060 164 146 138
-1137.952 396.251 1057.040 172 155 144
-1137.952 395.751 1056.985 173 155 144
-1137.952 395.251 1056.946 176 157 147
-1137.952 394.751 1056.900 178 158 148
-1137.952 394.251 1056.787 164 145 135
-1137.952 393.751 1056.641 150 132 122
-1137.952 393.251 1056.533 156 139 130
-1137.952 392.751 1056.439 165 150 141
-1137.952 392.251 1056.388 159 145 136
-1137.952 391.751 1056.386 153 136 129
-1137.952 391.251 1056.398 157 141 134
-1137.952 390.751 1056.385 168 153 145
-1137.952 390.251 1056.349 168 152 144
-1137.952 389.751 1056.269 165 149 140
-1137.952 389.251 1056.184 170 154 144
-1137.952 388.751 1056.087 163 149 139
-1137.952 388.251 1055.993 156 142 133
-1137.952 387.751 1055.898 166 151 142
-1137.952 387.251 1055.819 181 164 153
-1137.952 386.751 1055.749 186 169 156
-1137.952 386.251 1055.643 193 176 161
-1137.952 385.751 1055.532 206 188 172
-1137.952 385.251 1055.471 212 190 176
-1137.952 384.751 1055.445 207 185 170
-1137.952 384.251 1055.409 200 177 162
-1137.952 383.751 1055.362 188 166 152
-1137.952 383.251 1055.304 176 155 141
-1137.952 382.751 1055.270 159 141 127
-1137.952 382.251 1055.242 143 128 119
-1137.952 381.751 1055.223 145 131 124
-1137.952 381.251 1055.201 146 133 126
-1137.952 380.751 1055.185 149 136 130
-1137.952 380.251 1055.171 164 151 145
-1137.952 379.751 1055.139 163 150 143
-1137.952 379.251 1055.034 157 144 137
-1137.952 378.751 1054.945 160 145 139
-1137.952 378.251 1054.799 163 148 141
-1137.952 377.751 1054.596 164 150 141
-1137.952 377.251 1054.513 161 147 139
-1137.952 376.751 1054.462 166 151 144
-1137.952 376.251 1054.441 158 143 137
-1137.952 375.751 1054.438 143 126 120
-1137.952 375.251 1054.436 177 160 152
-1137.952 374.751 1054.415 179 162 152
-1137.952 374.251 1054.282 181 165 153
-1137.952 373.751 1054.170 169 153 143
-1137.952 373.251 1054.056 178 165 156
-1137.952 372.751 1053.839 197 182 172
-1137.952 372.251 1053.654 192 175 164
-1137.952 371.751 1053.457 193 176 162
-1137.952 371.251 1053.341 198 180 165
-1137.952 370.751 1053.259 201 184 171
-1137.952 370.251 1053.232 205 188 178
-1137.952 369.751 1053.206 200 184 174
-1137.952 369.251 1053.175 202 185 173
-1137.952 368.751 1053.101 204 188 176
-1137.952 368.251 1053.070 203 187 174
-1137.952 367.751 1053.064 204 187 172
-1137.952 367.251 1053.076 204 187 172
-1137.952 366.751 1053.060 206 186 172
-1137.952 366.251 1053.036 203 184 169
-1137.952 365.751 1052.982 205 186 172
-1137.952 365.251 1052.917 203 184 170
-1137.952 364.751 1052.867 199 181 166
-1137.952 364.251 1052.845 196 178 163
-1137.952 363.751 1052.847 201 182 168
-1137.952 363.251 1052.868 199 180 166
-1137.952 362.751 1052.897 196 177 163
-1137.952 362.251 1052.917 186 167 153
-1137.952 361.751 1052.932 186 168 156
-1137.952 361.251 1052.952 173 156 146
-1137.952 360.751 1052.982 164 149 140
-1137.952 360.251 1052.994 164 149 139
-1137.952 359.751 1052.995 153 140 134
-1137.952 359.251 1053.017 149 137 131
-1137.952 358.751 1053.056 168 155 149
-1137.952 358.251 1053.080 158 145 142
-1137.952 357.751 1053.100 150 139 135
-1137.952 357.251 1053.121 154 143 139
-1137.952 356.751 1053.170 160 149 145
-1137.952 356.251 1053.231 160 148 144
-1137.952 355.751 1053.306 158 147 144
-1137.952 355.251 1053.391 156 146 145
-1137.952 354.751 1053.471 151 143 143
-1137.952 354.251 1053.516 140 134 134
-1137.952 353.751 1053.569 130 125 124
-1137.952 353.251 1053.640 135 130 128
-1137.952 352.751 1053.686 158 150 148
-1137.952 352.251 1053.734 172 164 162
-1137.952 351.751 1053.754 157 149 147
-1137.952 351.251 1053.755 151 142 140
-1137.952 350.751 1053.724 167 159 154
-1137.952 350.251 1053.705 165 157 151
-1137.952 349.751 1053.623 157 148 142
-1137.952 349.251 1053.528 152 144 138
-1137.952 348.751 1053.444 157 148 142
-1137.952 348.251 1053.417 162 153 147
-1137.952 347.751 1053.398 153 144 138
-1137.952 347.251 1053.374 151 142 135
-1137.952 346.751 1053.358 155 144 136
-1137.952 346.251 1053.341 161 149 142
-1137.952 345.751 1053.264 171 159 152
-1137.952 345.251 1053.203 169 157 148
-1137.952 344.751 1053.141 184 172 162
-1137.952 344.251 1053.108 183 171 159
-1137.952 343.751 1053.082 190 175 163
-1137.952 343.251 1053.064 204 189 175
-1137.952 342.751 1053.019 210 194 179
-1137.952 342.251 1052.968 219 202 185
-1137.952 341.751 1052.909 224 207 188
-1137.952 341.251 1052.806 226 209 189
-1137.952 340.751 1052.760 214 195 174
-1137.952 340.251 1052.737 208 188 164
-1137.952 339.751 1052.711 208 186 163
-1137.952 339.251 1052.682 211 189 165
-1137.952 338.751 1052.654 200 179 155
-1137.952 338.251 1052.622 202 181 160
-1137.952 337.751 1052.595 201 180 162
-1137.952 337.251 1052.592 190 172 155
-1137.952 336.751 1052.586 179 162 145
-1137.952 336.251 1052.559 178 162 146
-1137.952 335.751 1052.528 177 163 147
-1137.952 335.251 1052.513 168 154 139
-1137.952 334.751 1052.508 175 159 144
-1137.952 334.251 1052.502 192 176 162
-1137.952 333.751 1052.500 190 174 160
-1137.952 333.251 1052.500 188 172 157
-1137.952 332.751 1052.492 184 167 152
-1137.952 332.251 1052.488 189 171 156
-1137.952 331.751 1052.461 195 177 162
-1137.952 331.251 1052.436 182 165 149
-1137.952 330.751 1052.408 178 162 147
-1137.952 330.251 1052.369 188 172 157
-1137.952 329.751 1052.351 187 171 157
-1137.952 329.251 1052.360 188 172 158
-1137.952 328.751 1052.410 172 156 143
-1137.952 328.251 1052.461 164 147 136
-1137.952 327.751 1052.488 164 148 137
-1137.952 327.251 1052.505 158 143 132
-1137.952 326.751 1052.547 161 144 133
-1137.952 326.251 1052.579 168 152 139
-1137.952 325.751 1052.570 178 161 148
-1137.952 325.251 1052.519 174 157 145
-1137.952 324.751 1052.362 181 162 149
-1137.952 324.251 1052.259 180 161 148
-1137.952 323.751 1052.203 182 162 150
-1137.952 323.251 1052.139 181 162 148
-1137.952 322.751 1052.064 182 162 148
-1137.952 322.251 1051.932 183 163 148
-1137.952 321.751 1051.865 187 167 152
-1137.952 321.251 1051.749 200 179 161
-1137.952 320.751 1051.618 207 186 167
-1137.952 320.251 1051.562 210 189 169
-1137.952 319.751 1051.468 213 188 168
-1137.952 319.251 1051.339 215 190 168
-1137.952 318.751 1051.279 217 190 169
-1137.952 318.251 1051.258 216 191 169
-1137.952 317.751 1051.250 210 185 163
-1137.952 317.251 1051.246 211 189 167
-1137.952 316.751 1051.234 224 204 184
-1137.952 316.251 1051.217 232 215 195
-1137.952 315.751 1051.187 234 217 199
-1137.952 315.251 1051.160 237 222 204
-1137.952 314.751 1051.146 238 225 208
-1137.952 314.251 1051.144 238 227 210
-1137.452 438.251 1062.776 176 159 149
-1137.452 437.751 1062.753 173 156 148
-1137.452 437.251 1062.724 164 147 139
-1137.452 436.751 1062.705 158 143 136
-1137.452 436.251 1062.701 158 145 136
-1137.452 435.751 1062.721 157 144 135
-1137.452 435.251 1062.753 146 133 124
-1137.452 434.751 1062.783 160 147 137
-1137.452 434.251 1062.810 162 150 138
-1137.452 433.751 1062.794 163 151 139
-1137.452 433.251 1062.716 164 152 139
-1137.452 432.751 1062.512 165 152 140
-1137.452 432.251 1062.339 164 150 139
-1137.452 431.751 1062.050 169 155 144
-1137.452 431.251 1061.855 187 171 156
-1137.452 430.751 1061.731 198 183 165
-1137.452 430.251 1061.487 216 197 177
-1137.452 429.751 1061.383 219 198 179
-1137.452 429.251 1061.381 209 187 173
-1137.452 428.751 1061.375 169 150 138
-1137.452 428.251 1061.381 152 134 122
-1137.452 427.751 1061.377 217 199 187
-1137.452 427.251 1061.334 177 159 147
-1137.452 426.751 1061.314 153 133 121
-1137.452 426.251 1061.287 162 144 132
-1137.452 425.751 1061.257 180 164 152
-1137.452 425.251 1061.246 193 179 168
-1137.452 424.751 1061.172 214 202 190
-1137.452 424.251 1061.085 213 203 191
-1137.452 423.751 1061.047 204 192 180
-1137.452 423.251 1061.015 182 169 160
-1137.452 422.751 1061.009 164 151 142
-1137.452 422.251 1060.999 148 135 126
-1137.452 421.751 1060.991 166 154 143
-1137.452 421.251 1060.989 205 193 179
-1137.452 420.751 1060.985 211 198 184
-1137.452 420.251 1060.969 219 205 192
-1137.452 419.751 1060.921 214 200 187
-1137.452 419.251 1060.838 213 197 182
-1137.452 418.751 1060.787 211 194 180
-1137.452 418.251 1060.719 198 180 166
-1137.452 417.751 1060.603 185 167 153
-1137.452 417.251 1060.429 180 161 147
-1137.452 416.751 1060.280 181 160 146
-1137.452 416.251 1060.155 176 154 140
-1137.452 415.751 1060.029 168 147 130
-1137.452 415.251 1059.937 189 168 151
-1137.452 414.751 1059.873 194 171 153
-1137.452 414.251 1059.823 189 169 154
-1137.452 413.751 1059.755 189 170 155
-1137.452 413.251 1059.637 208 187 170
-1137.452 412.751 1059.519 214 192 175
-1137.452 412.251 1059.400 212 187 167
-1137.452 411.751 1059.261 205 180 160
-1137.452 411.251 1059.040 208 183 163
-1137.452 410.751 1058.859 206 181 161
-1137.452 410.251 1058.754 204 178 161
-1137.452 409.751 1058.570 200 177 160
-1137.452 409.251 1058.456 194 171 157
-1137.452 408.751 1058.342 191 169 156
-1137.452 408.251 1058.250 180 159 146
-1137.452 407.751 1058.192 190 172 160
-1137.452 407.251 1058.118 224 207 197
-1137.452 406.751 1058.094 217 203 193
-1137.452 406.251 1058.060 176 163 154
-1137.452 405.751 1057.993 181 167 156
-1137.452 405.251 1058.014 185 171 160
-1137.452 404.751 1058.007 196 181 168
-1137.452 404.251 1058.031 193 177 164
-1137.452 403.751 1057.957 192 174 162
-1137.452 403.251 1057.884 203 185 173
-1137.452 402.751 1057.799 193 175 163
-1137.452 402.251 1057.746 166 150 137
-1137.452 401.751 1057.598 172 158 145
-1137.452 401.251 1057.428 191 175 162
-1137.452 400.751 1057.353 182 166 154
-1137.452 400.251 1057.309 181 167 156
-1137.452 399.751 1057.210 175 161 150
-1137.452 399.251 1057.091 160 146 135
-1137.452 398.751 1057.062 167 153 144
-1137.452 398.251 1057.047 158 141 133
-1137.452 397.751 1056.995 174 157 149
-1137.452 397.251 1056.868 163 146 138
-1137.452 396.751 1056.831 176 159 150
-1137.452 396.251 1056.783 177 160 150
-1137.452 395.751 1056.713 171 154 144
-1137.452 395.251 1056.665 170 153 143
-1137.452 394.751 1056.600 158 139 132
-1137.452 394.251 1056.537 147 130 122
-1137.452 393.751 1056.464 149 132 124
-1137.452 393.251 1056.369 158 144 136
-1137.452 392.751 1056.302 173 159 151
-1137.452 392.251 1056.265 158 145 137
-1137.452 391.751 1056.208 153 138 133
-1137.452 391.251 1056.219 152 137 132
-1137.452 390.751 1056.241 166 151 144
-1137.452 390.251 1056.193 172 157 150
-1137.452 389.751 1056.101 168 153 146
-1137.452 389.251 1056.045 165 151 142
-1137.452 388.751 1055.983 159 145 137
-1137.452 388.251 1055.887 161 148 140
-1137.452 387.751 1055.775 158 145 136
-1137.452 387.251 1055.690 154 140 131
-1137.452 386.751 1055.634 156 142 131
-1137.452 386.251 1055.560 158 144 131
-1137.452 385.751 1055.469 173 157 144
-1137.452 385.251 1055.413 194 175 161
-1137.452 384.751 1055.369 199 180 166
-1137.452 384.251 1055.308 204 185 170
-1137.452 383.751 1055.255 205 183 169
-1137.452 383.251 1055.202 199 177 163
-1137.452 382.751 1055.179 193 172 155
-1137.452 382.251 1055.134 170 152 140
-1137.452 381.751 1055.104 166 149 140
-1137.452 381.251 1055.083 153 138 131
-1137.452 380.751 1055.070 156 141 135
-1137.452 380.251 1055.072 164 151 143
-1137.452 379.751 1055.011 162 149 141
-1137.452 379.251 1054.930 158 145 139
-1137.452 378.751 1054.820 152 137 133
-1137.452 378.251 1054.636 157 142 137
-1137.452 377.751 1054.515 164 151 143
-1137.452 377.251 1054.470 166 153 145
-1137.452 376.751 1054.447 159 146 139
-1137.452 376.251 1054.444 147 133 130
-1137.452 375.751 1054.464 182 168 165
-1137.452 375.251 1054.466 207 192 187
-1137.452 374.751 1054.463 191 175 166
-1137.452 374.251 1054.377 182 165 155
-1137.452 373.751 1054.237 176 162 151
-1137.452 373.251 1054.149 160 145 138
-1137.452 372.751 1053.959 183 169 161
-1137.452 372.251 1053.748 195 178 170
-1137.452 371.751 1053.564 193 175 165
-1137.452 371.251 1053.385 193 175 163
-1137.452 370.751 1053.265 207 189 176
-1137.452 370.251 1053.211 207 191 178
-1137.452 369.751 1053.164 201 187 176
-1137.452 369.251 1053.102 209 193 180
-1137.452 368.751 1053.047 208 192 179
-1137.452 368.251 1053.032 204 188 175
-1137.452 367.751 1053.021 207 189 175
-1137.452 367.251 1053.016 205 187 173
-1137.452 366.751 1053.007 200 182 168
-1137.452 366.251 1052.984 200 181 166
-1137.452 365.751 1052.926 200 181 166
-1137.452 365.251 1052.867 202 183 168
-1137.452 364.751 1052.835 205 186 171
-1137.452 364.251 1052.830 206 187 172
-1137.452 363.751 1052.849 200 181 166
-1137.452 363.251 1052.883 197 178 163
-1137.452 362.751 1052.918 195 176 161
-1137.452 362.251 1052.939 185 167 155
-1137.452 361.751 1052.959 173 155 145
-1137.452 361.251 1052.981 162 146 138
-1137.452 360.751 1052.999 156 142 133
-1137.452 360.251 1053.002 141 128 119
-1137.452 359.751 1053.009 149 138 133
-1137.452 359.251 1053.033 155 144 140
-1137.452 358.751 1053.066 150 136 133
-1137.452 358.251 1053.099 151 138 132
-1137.452 357.751 1053.125 153 140 134
-1137.452 357.251 1053.160 153 142 136
-1137.452 356.751 1053.229 152 141 136
-1137.452 356.251 1053.318 152 141 139
-1137.452 355.751 1053.399 150 140 139
-1137.452 355.251 1053.476 144 134 135
-1137.452 354.751 1053.552 140 131 132
-1137.452 354.251 1053.596 133 127 127
-1137.452 353.751 1053.647 140 135 133
-1137.452 353.251 1053.698 163 155 153
-1137.452 352.751 1053.724 170 162 159
-1137.452 352.251 1053.766 159 151 148
-1137.452 351.751 1053.778 156 148 145
-1137.452 351.251 1053.746 178 169 164
-1137.452 350.751 1053.697 182 173 168
-1137.452 350.251 1053.667 165 156 149
-1137.452 349.751 1053.597 163 154 147
-1137.452 349.251 1053.495 166 157 150
-1137.452 348.751 1053.421 168 159 152
-1137.452 348.251 1053.397 168 159 152
-1137.452 347.751 1053.371 161 152 145
-1137.452 347.251 1053.356 157 148 141
-1137.452 346.751 1053.315 160 149 142
-1137.452 346.251 1053.277 161 150 144
-1137.452 345.751 1053.223 158 147 141
-1137.452 345.251 1053.192 160 149 143
-1137.452 344.751 1053.164 168 158 149
-1137.452 344.251 1053.149 160 150 140
-1137.452 343.751 1053.125 178 166 154
-1137.452 343.251 1053.086 196 182 171
-1137.452 342.751 1053.050 203 188 174
-1137.452 342.251 1053.017 211 195 179
-1137.452 341.751 1052.956 220 203 187
-1137.452 341.251 1052.865 224 207 189
-1137.452 340.751 1052.797 223 206 185
-1137.452 340.251 1052.762 216 198 176
-1137.452 339.751 1052.733 214 194 170
-1137.452 339.251 1052.706 210 190 166
-1137.452 338.751 1052.674 212 190 166
-1137.452 338.251 1052.637 204 179 159
-1137.452 337.751 1052.615 207 182 162
-1137.452 337.251 1052.607 192 171 152
-1137.452 336.751 1052.592 179 161 142
-1137.452 336.251 1052.563 191 176 157
-1137.452 335.751 1052.541 196 183 166
-1137.452 335.251 1052.534 183 167 151
-1137.452 334.751 1052.535 170 154 139
-1137.452 334.251 1052.530 185 169 154
-1137.452 333.751 1052.524 192 176 161
-1137.452 333.251 1052.516 185 169 154
-1137.452 332.751 1052.503 188 171 157
-1137.452 332.251 1052.492 183 165 151
-1137.452 331.751 1052.466 195 177 163
-1137.452 331.251 1052.448 175 157 143
-1137.452 330.751 1052.427 174 158 143
-1137.452 330.251 1052.386 187 171 156
-1137.452 329.751 1052.361 195 179 164
-1137.452 329.251 1052.355 193 177 162
-1137.452 328.751 1052.390 179 163 148
-1137.452 328.251 1052.437 170 154 139
-1137.452 327.751 1052.463 160 143 132
-1137.452 327.251 1052.491 157 140 130
-1137.452 326.751 1052.526 167 150 140
-1137.452 326.251 1052.568 163 147 134
-1137.452 325.751 1052.577 156 140 127
-1137.452 325.251 1052.561 160 144 131
-1137.452 324.751 1052.497 180 161 149
-1137.452 324.251 1052.373 185 165 154
-1137.452 323.751 1052.291 188 168 157
-1137.452 323.251 1052.221 184 164 153
-1137.452 322.751 1052.145 176 157 143
-1137.452 322.251 1052.072 177 158 144
-1137.452 321.751 1051.989 178 159 145
-1137.452 321.251 1051.865 181 162 147
-1137.452 320.751 1051.734 191 172 155
-1137.452 320.251 1051.637 200 179 162
-1137.452 319.751 1051.551 206 185 168
-1137.452 319.251 1051.478 205 182 164
-1137.452 318.751 1051.375 208 183 166
-1137.452 318.251 1051.355 216 191 169
-1137.452 317.751 1051.351 223 198 176
-1137.452 317.251 1051.340 217 195 172
-1137.452 316.751 1051.307 207 185 162
-1137.452 316.251 1051.255 210 188 165
-1137.452 315.751 1051.224 220 200 176
-1137.452 315.251 1051.200 231 213 190
-1137.452 314.751 1051.195 233 216 198
-1137.452 314.251 1051.190 236 219 201
-1136.952 438.251 1062.625 162 147 140
-1136.952 437.751 1062.626 163 148 141
-1136.952 437.251 1062.598 160 145 140
-1136.952 436.751 1062.599 157 144 139
-1136.952 436.251 1062.613 150 139 133
-1136.952 435.751 1062.654 146 136 127
-1136.952 435.251 1062.708 151 141 132
-1136.952 434.751 1062.759 149 139 130
-1136.952 434.251 1062.789 154 144 134
-1136.952 433.751 1062.776 158 148 138
-1136.952 433.251 1062.691 160 150 138
-1136.952 432.751 1062.510 163 151 139
-1136.952 432.251 1062.353 160 146 135
-1136.952 431.751 1062.059 160 143 133
-1136.952 431.251 1061.828 166 150 137
-1136.952 430.751 1061.709 192 174 160
-1136.952 430.251 1061.469 211 192 177
-1136.952 429.751 1061.357 215 194 178
-1136.952 429.251 1061.338 208 189 175
-1136.952 428.751 1061.325 190 171 159
-1136.952 428.251 1061.339 151 133 123
-1136.952 427.751 1061.340 181 163 151
-1136.952 427.251 1061.310 183 165 153
-1136.952 426.751 1061.263 176 156 142
-1136.952 426.251 1061.236 215 196 182
-1136.952 425.751 1061.142 217 198 183
-1136.952 425.251 1061.114 212 195 180
-1136.952 424.751 1061.007 192 177 162
-1136.952 424.251 1060.960 189 176 161
-1136.952 423.751 1060.961 210 197 186
-1136.952 423.251 1060.964 187 174 165
-1136.952 422.751 1060.954 157 144 135
-1136.952 422.251 1060.937 152 139 130
-1136.952 421.751 1060.913 191 179 167
-1136.952 421.251 1060.922 218 206 192
-1136.952 420.751 1060.925 215 201 186
-1136.952 420.251 1060.919 198 182 167
-1136.952 419.751 1060.865 200 184 168
-1136.952 419.251 1060.761 209 191 174
-1136.952 418.751 1060.652 202 183 167
-1136.952 418.251 1060.520 192 172 155
-1136.952 417.751 1060.398 189 167 152
-1136.952 417.251 1060.274 187 166 150
-1136.952 416.751 1060.151 189 167 150
-1136.952 416.251 1060.027 187 164 148
-1136.952 415.751 1059.932 172 149 132
-1136.952 415.251 1059.863 188 164 146
-1136.952 414.751 1059.811 197 172 152
-1136.952 414.251 1059.747 197 175 158
-1136.952 413.751 1059.609 190 168 154
-1136.952 413.251 1059.482 199 177 160
-1136.952 412.751 1059.425 200 177 158
-1136.952 412.251 1059.342 201 176 156
-1136.952 411.751 1059.234 208 183 161
-1136.952 411.251 1059.008 207 182 160
-1136.952 410.751 1058.737 206 179 158
-1136.952 410.251 1058.576 205 178 159
-1136.952 409.751 1058.423 198 172 154
-1136.952 409.251 1058.315 199 173 157
-1136.952 408.751 1058.195 199 176 160
-1136.952 408.251 1058.037 194 172 158
-1136.952 407.751 1057.934 184 165 153
-1136.952 407.251 1057.859 194 176 166
-1136.952 406.751 1057.833 179 164 154
-1136.952 406.251 1057.786 171 157 148
-1136.952 405.751 1057.736 176 162 151
-1136.952 405.251 1057.755 167 153 142
-1136.952 404.751 1057.713 185 169 156
-1136.952 404.251 1057.670 200 182 170
-1136.952 403.751 1057.568 193 175 163
-1136.952 403.251 1057.531 185 165 154
-1136.952 402.751 1057.505 180 161 149
-1136.952 402.251 1057.378 178 160 148
-1136.952 401.751 1057.208 178 162 149
-1136.952 401.251 1057.070 183 165 153
-1136.952 400.751 1057.007 196 179 169
-1136.952 400.251 1056.939 168 151 141
-1136.952 399.751 1056.908 171 154 144
-1136.952 399.251 1056.854 166 149 141
-1136.952 398.751 1056.814 166 152 143
-1136.952 398.251 1056.771 174 157 147
-1136.952 397.751 1056.699 175 157 147
-1136.952 397.251 1056.527 171 153 143
-1136.952 396.751 1056.443 172 154 144
-1136.952 396.251 1056.403 168 150 138
-1136.952 395.751 1056.381 160 142 130
-1136.952 395.251 1056.417 164 146 135
-1136.952 394.751 1056.389 164 146 138
-1136.952 394.251 1056.345 160 143 135
-1136.952 393.751 1056.300 163 146 138
-1136.952 393.251 1056.225 160 145 138
-1136.952 392.751 1056.140 171 157 149
-1136.952 392.251 1056.103 161 148 140
-1136.952 391.751 1056.040 149 136 130
-1136.952 391.251 1056.011 151 138 132
-1136.952 390.751 1056.019 167 154 147
-1136.952 390.251 1056.000 165 152 144
-1136.952 389.751 1055.974 166 153 145
-1136.952 389.251 1055.958 166 153 145
-1136.952 388.751 1055.880 166 153 146
-1136.952 388.251 1055.744 165 152 146
-1136.952 387.751 1055.635 176 163 155
-1136.952 387.251 1055.569 155 142 134
-1136.952 386.751 1055.526 152 138 129
-1136.952 386.251 1055.470 151 137 127
-1136.952 385.751 1055.397 158 143 132
-1136.952 385.251 1055.345 161 143 132
-1136.952 384.751 1055.292 172 154 142
-1136.952 384.251 1055.233 190 171 157
-1136.952 383.751 1055.187 207 188 173
-1136.952 383.251 1055.125 209 187 173
-1136.952 382.751 1055.093 209 188 171
-1136.952 382.251 1055.043 199 180 165
-1136.952 381.751 1054.996 193 175 161
-1136.952 381.251 1054.965 180 163 152
-1136.952 380.751 1054.915 174 157 149
-1136.952 380.251 1054.924 166 152 143
-1136.952 379.751 1054.842 160 147 138
-1136.952 379.251 1054.773 160 147 139
-1136.952 378.751 1054.693 156 143 138
-1136.952 378.251 1054.546 154 141 135
-1136.952 377.751 1054.475 163 150 142
-1136.952 377.251 1054.413 166 153 145
-1136.952 376.751 1054.409 159 148 143
-1136.952 376.251 1054.432 151 140 136
-1136.952 375.751 1054.472 166 152 149
-1136.952 375.251 1054.461 195 182 176
-1136.952 374.751 1054.448 183 168 160
-1136.952 374.251 1054.396 173 159 148
-1136.952 373.751 1054.267 175 161 152
-1136.952 373.251 1054.203 172 159 151
-1136.952 372.751 1054.032 159 146 139
-1136.952 372.251 1053.885 192 177 170
-1136.952 371.751 1053.682 195 179 170
-1136.952 371.251 1053.502 196 180 167
-1136.952 370.751 1053.322 207 189 176
-1136.952 370.251 1053.210 208 190 176
-1136.952 369.751 1053.155 208 190 178
-1136.952 369.251 1053.086 209 193 180
-1136.952 368.751 1053.033 211 195 182
-1136.952 368.251 1053.010 211 193 179
-1136.952 367.751 1052.995 207 189 175
-1136.952 367.251 1052.976 199 181 167
-1136.952 366.751 1052.967 199 181 167
-1136.952 366.251 1052.938 202 183 167
-1136.952 365.751 1052.879 201 182 165
-1136.952 365.251 1052.838 201 182 165
-1136.952 364.751 1052.821 202 183 166
-1136.952 364.251 1052.833 207 188 171
-1136.952 363.751 1052.866 198 179 162
-1136.952 363.251 1052.905 189 170 155
-1136.952 362.751 1052.947 190 171 158
-1136.952 362.251 1052.971 176 158 148
-1136.952 361.751 1052.993 162 145 137
-1136.952 361.251 1053.013 147 131 124
-1136.952 360.751 1053.015 147 133 125
-1136.952 360.251 1053.002 173 160 153
-1136.952 359.751 1052.996 148 138 135
-1136.952 359.251 1053.021 132 122 117
-1136.952 358.751 1053.070 147 135 131
-1136.952 358.251 1053.118 158 143 138
-1136.952 357.751 1053.167 163 148 143
-1136.952 357.251 1053.271 156 143 137
-1136.952 356.751 1053.350 150 138 133
-1136.952 356.251 1053.417 147 136 134
-1136.952 355.751 1053.502 140 130 129
-1136.952 355.251 1053.569 136 126 127
-1136.952 354.751 1053.639 143 135 134
-1136.952 354.251 1053.669 146 141 137
-1136.952 353.751 1053.699 162 157 153
-1136.952 353.251 1053.735 175 167 164
-1136.952 352.751 1053.747 163 155 152
-1136.952 352.251 1053.745 164 156 153
-1136.952 351.751 1053.739 187 177 175
-1136.952 351.251 1053.712 187 178 173
-1136.952 350.751 1053.664 167 158 153
-1136.952 350.251 1053.634 160 149 143
-1136.952 349.751 1053.554 166 155 149
-1136.952 349.251 1053.472 168 157 151
-1136.952 348.751 1053.406 169 158 152
-1136.952 348.251 1053.366 170 159 153
-1136.952 347.751 1053.322 169 158 152
-1136.952 347.251 1053.278 166 155 149
-1136.952 346.751 1053.220 166 155 149
-1136.952 346.251 1053.166 162 151 147
-1136.952 345.751 1053.143 143 132 128
-1136.952 345.251 1053.147 137 126 122
-1136.952 344.751 1053.158 139 129 121
-1136.952 344.251 1053.182 142 132 123
-1136.952 343.751 1053.183 161 148 137
-1136.952 343.251 1053.124 182 170 158
-1136.952 342.751 1053.063 191 177 164
-1136.952 342.251 1053.032 205 189 174
-1136.952 341.751 1052.976 216 200 184
-1136.952 341.251 1052.893 221 204 186
-1136.952 340.751 1052.823 228 210 192
-1136.952 340.251 1052.780 224 205 187
-1136.952 339.751 1052.747 218 200 178
-1136.952 339.251 1052.724 219 199 175
-1136.952 338.751 1052.692 213 192 169
-1136.952 338.251 1052.653 208 186 163
-1136.952 337.751 1052.640 200 178 156
-1136.952 337.251 1052.625 198 177 158
-1136.952 336.751 1052.601 184 164 145
-1136.952 336.251 1052.574 194 177 159
-1136.952 335.751 1052.555 206 191 172
-1136.952 335.251 1052.556 193 177 161
-1136.952 334.751 1052.565 181 165 149
-1136.952 334.251 1052.562 186 170 155
-1136.952 333.751 1052.547 192 176 161
-1136.952 333.251 1052.531 191 175 160
-1136.952 332.751 1052.519 185 169 154
-1136.952 332.251 1052.508 187 169 155
-1136.952 331.751 1052.493 188 170 156
-1136.952 331.251 1052.482 178 160 146
-1136.952 330.751 1052.455 164 148 133
-1136.952 330.251 1052.432 166 150 135
-1136.952 329.751 1052.394 177 161 146
-1136.952 329.251 1052.375 189 173 158
-1136.952 328.751 1052.385 190 174 159
-1136.952 328.251 1052.404 180 164 149
-1136.952 327.751 1052.435 163 146 136
-1136.952 327.251 1052.464 163 146 136
-1136.952 326.751 1052.498 166 149 138
-1136.952 326.251 1052.552 167 151 138
-1136.952 325.751 1052.566 164 148 135
-1136.952 325.251 1052.558 159 143 130
-1136.952 324.751 1052.544 170 153 140
-1136.952 324.251 1052.505 174 156 144
-1136.952 323.751 1052.428 177 159 147
-1136.952 323.251 1052.363 178 160 147
-1136.952 322.751 1052.246 176 158 144
-1136.952 322.251 1052.200 178 160 146
-1136.952 321.751 1052.120 180 162 148
-1136.952 321.251 1051.959 174 156 142
-1136.952 320.751 1051.892 178 159 144
-1136.952 320.251 1051.778 180 161 146
-1136.952 319.751 1051.721 185 163 149
-1136.952 319.251 1051.662 200 178 164
-1136.952 318.751 1051.581 208 185 170
-1136.952 318.251 1051.546 208 185 166
-1136.952 317.751 1051.470 199 177 156
-1136.952 317.251 1051.434 207 185 164
-1136.952 316.751 1051.395 212 189 166
-1136.952 316.251 1051.336 212 188 164
-1136.952 315.751 1051.270 208 184 160
-1136.952 315.251 1051.250 208 185 161
-1136.952 314.751 1051.244 216 195 172
-1136.952 314.251 1051.228 226 205 183
-1136.452 438.251 1062.416 147 132 127
-1136.452 437.751 1062.449 148 133 129
