54.831 11.156 981.281 155 199 229
54.831 11.656 981.339 119 187 232
54.831 12.156 981.371 109 181 233
54.831 12.656 981.377 112 184 234
54.831 13.156 981.343 111 186 240
54.831 13.656 981.309 111 187 237
54.831 14.156 981.271 112 187 236
54.831 14.656 981.201 113 186 236
54.831 15.156 981.022 121 187 234
54.831 15.656 980.808 137 187 228
55.331 10.156 980.523 228 222 217
55.331 10.656 980.938 216 224 233
55.331 11.156 981.238 173 209 237
55.331 11.656 981.349 123 186 229
55.331 12.156 981.402 110 183 234
55.331 12.656 981.408 109 185 235
55.331 13.156 981.397 111 187 240
55.331 13.656 981.368 112 188 241
55.331 14.156 981.336 111 187 237
55.331 14.656 981.274 113 186 236
55.331 15.156 981.107 120 187 236
55.331 15.656 980.961 135 188 231
55.831 10.156 980.505 226 220 213
55.831 10.656 980.869 208 212 217
55.831 11.156 981.103 169 198 221
55.831 11.656 981.336 131 186 226
55.831 12.156 981.420 113 184 232
55.831 12.656 981.447 110 186 238
55.831 13.156 981.450 111 188 240
55.831 13.656 981.428 112 189 241
55.831 14.156 981.412 111 187 237
55.831 14.656 981.367 113 186 237
55.831 15.156 981.241 119 187 237
55.831 15.656 981.061 132 188 232
56.331 10.156 980.446 227 219 210
56.331 10.656 980.754 220 218 218
56.331 11.156 980.966 160 179 196
56.331 11.656 981.339 139 185 218
56.331 12.156 981.428 117 184 232
56.331 12.656 981.482 110 187 239
56.331 13.156 981.505 109 189 240
56.331 13.656 981.486 111 189 242
56.331 14.156 981.454 111 187 239
56.331 14.656 981.403 111 187 237
56.331 15.156 981.313 116 187 237
56.331 15.656 981.185 127 188 234
56.831 10.656 980.662 227 221 218
56.831 11.156 981.004 209 220 229
56.831 11.656 981.348 162 201 229
56.831 12.156 981.445 122 185 231
56.831 12.656 981.524 109 186 238
56.831 13.156 981.563 108 187 238
56.831 13.656 981.554 110 187 241
56.831 14.156 981.515 111 188 241
56.831 14.656 981.468 111 188 239
56.831 15.156 981.396 112 188 237
56.831 15.656 981.251 123 188 235
57.331 10.656 980.672 232 222 215
57.331 11.156 981.082 224 230 232
57.331 11.656 981.381 184 215 238
57.331 12.156 981.485 126 186 230
57.331 12.656 981.565 111 186 238
57.331 13.156 981.613 110 187 238
57.331 13.656 981.607 110 187 242
57.331 14.156 981.560 108 187 242
57.331 14.656 981.527 108 188 239
57.331 15.156 981.456 110 188 239
57.331 15.656 981.290 119 187 236
57.831 10.656 980.661 230 220 210
57.831 11.156 981.096 228 230 230
57.831 11.656 981.416 197 224 244
57.831 12.156 981.531 131 188 229
57.831 12.656 981.592 112 186 239
57.831 13.156 981.637 110 186 237
57.831 13.656 981.639 108 187 241
57.831 14.156 981.605 108 187 242
57.831 14.656 981.561 108 188 240
57.831 15.156 981.484 109 188 238
57.831 15.656 981.323 117 187 236
58.331 11.156 981.067 233 227 223
58.331 11.656 981.380 215 228 236
58.331 12.156 981.530 148 193 228
58.331 12.656 981.605 116 186 236
58.331 13.156 981.648 107 187 238
58.331 13.656 981.655 108 189 239
58.331 14.156 981.633 109 189 242
58.331 14.656 981.595 109 189 242
58.331 15.156 981.528 108 188 241
58.331 15.656 981.392 111 188 237
58.831 11.156 980.975 233 224 218
58.831 11.656 981.273 223 232 239
58.831 12.156 981.510 168 206 237
58.831 12.656 981.620 119 185 233
58.831 13.156 981.667 108 186 238
58.831 13.656 981.682 108 189 240
58.831 14.156 981.660 109 189 240
58.831 14.656 981.616 109 189 242
58.831 15.156 981.573 108 189 240
58.831 15.656 981.462 109 188 237
59.331 11.156 980.877 233 222 213
59.331 11.656 981.150 228 232 234
59.331 12.156 981.455 186 217 240
59.331 12.656 981.612 125 184 227
59.331 13.156 981.679 111 186 238
59.331 13.656 981.702 108 188 239
59.331 14.156 981.689 111 188 240
59.331 14.656 981.644 110 189 242
59.331 15.156 981.586 108 190 241
59.331 15.656 981.481 108 190 238
59.831 11.156 980.876 233 222 212
59.831 11.656 981.109 232 228 226
59.831 12.156 981.389 200 220 235
59.831 12.656 981.587 137 188 224
59.831 13.156 981.678 115 186 235
59.831 13.656 981.700 108 188 238
59.831 14.156 981.689 112 189 240
59.831 14.656 981.643 112 189 242
59.831 15.156 981.569 108 189 242
59.831 15.656 981.477 107 190 241
60.331 11.156 980.847 232 222 210
60.331 11.656 981.083 233 228 222
60.331 12.156 981.334 220 233 241
60.331 12.656 981.542 158 197 226
60.331 13.156 981.650 119 184 231
60.331 13.656 981.675 108 188 236
60.331 14.156 981.662 111 189 238
60.331 14.656 981.610 112 189 241
60.331 15.156 981.542 108 188 242
60.331 15.656 981.478 108 190 241
60.831 11.656 981.006 234 225 218
60.831 12.156 981.255 227 233 236
60.831 12.656 981.505 184 216 240
60.831 13.156 981.623 123 186 232
60.831 13.656 981.646 109 189 237
60.831 14.156 981.635 110 189 238
60.831 14.656 981.598 112 188 240
60.831 15.156 981.546 110 188 242
60.831 15.656 981.487 109 189 242
61.331 11.656 980.821 233 224 213
61.331 12.156 981.124 231 232 229
61.331 12.656 981.418 205 226 242
61.331 13.156 981.571 134 190 226
61.331 13.656 981.620 110 188 235
61.331 14.156 981.618 110 188 237
61.331 14.656 981.601 115 188 238
61.331 15.156 981.567 109 187 240
61.331 15.656 981.513 108 189 243
61.831 11.656 980.611 233 223 212
61.831 12.156 981.000 231 230 223
61.831 12.656 981.257 218 231 245
61.831 13.156 981.477 153 199 231
61.831 13.656 981.576 113 187 235
61.831 14.156 981.602 111 188 240
61.831 14.656 981.611 112 189 240
61.831 15.156 981.597 109 188 240
61.831 15.656 981.554 108 189 244
62.331 12.156 980.866 231 226 218
62.331 12.656 981.083 226 230 240
62.331 13.156 981.361 179 211 240
62.331 13.656 981.530 120 188 234
62.331 14.156 981.592 111 188 240
62.331 14.656 981.618 109 189 243
62.331 15.156 981.616 108 189 242
62.331 15.656 981.587 109 190 242
62.831 12.156 980.700 232 223 214
62.831 12.656 980.949 226 222 228
62.831 13.156 981.206 191 211 234
62.831 13.656 981.472 128 187 230
62.831 14.156 981.597 112 186 237
62.831 14.656 981.628 108 189 244
62.831 15.156 981.631 108 190 243
62.831 15.656 981.613 109 189 241
63.331 12.656 980.796 231 220 220
63.331 13.156 981.068 186 197 212
63.331 13.656 981.382 140 188 223
63.331 14.156 981.596 119 184 233
63.331 14.656 981.636 106 187 241
63.331 15.156 981.639 106 188 242
63.331 15.656 981.628 110 188 238
63.831 12.656 980.672 234 223 220
63.831 13.156 981.046 205 212 221
63.831 13.656 981.383 162 201 232
63.831 14.156 981.590 122 184 227
63.831 14.656 981.638 107 187 239
63.831 15.156 981.642 107 189 240
63.831 15.656 981.638 110 189 235
64.331 12.656 980.604 233 222 215
64.331 13.156 981.045 227 232 234
64.331 13.656 981.430 193 223 246
64.331 14.156 981.576 129 186 226
64.331 14.656 981.638 110 187 238
64.331 15.156 981.642 109 188 239
64.331 15.656 981.643 111 188 235
64.831 12.656 980.581 231 224 216
64.831 13.156 981.038 233 230 225
64.831 13.656 981.420 214 226 241
64.831 14.156 981.581 144 194 227
64.831 14.656 981.643 111 188 240
64.831 15.156 981.646 112 185 243
64.831 15.656 981.654 111 188 237
65.331 13.156 981.012 233 228 223
65.331 13.656 981.386 223 232 241
65.331 14.156 981.585 163 206 236
65.331 14.656 981.649 115 187 234
65.331 15.156 981.664 107 186 239
65.331 15.656 981.676 107 188 236
65.831 13.156 980.921 233 227 220
65.831 13.656 981.293 233 233 239
65.831 14.156 981.513 186 217 240
65.831 14.656 981.634 121 186 227
65.831 15.156 981.668 107 188 238
65.831 15.656 981.683 106 189 237
66.331 13.656 981.183 234 233 230
66.331 14.156 981.432 206 224 240
66.331 14.656 981.599 135 189 225
66.331 15.156 981.665 109 188 235
66.331 15.656 981.687 105 187 238
66.831 13.656 981.070 234 232 223
66.831 14.156 981.370 220 227 237
66.831 14.656 981.571 154 193 225
66.831 15.156 981.667 116 187 233
66.831 15.656 981.692 110 186 240
67.331 13.656 980.971 232 227 216
67.331 14.156 981.262 230 231 235
67.331 14.656 981.530 180 209 239
67.331 15.156 981.663 120 186 232
67.331 15.656 981.686 113 186 241
67.831 13.656 980.864 232 224 213
67.831 14.156 981.103 233 230 229
67.831 14.656 981.408 206 221 241
67.831 15.156 981.603 136 189 226
67.831 15.656 981.659 109 188 234
68.331 13.656 980.729 233 224 212
68.331 14.156 981.035 231 225 223
68.331 14.656 981.318 216 224 241
68.331 15.156 981.490 155 200 234
68.331 15.656 981.612 111 188 231
68.831 14.156 981.013 230 221 215
68.831 14.656 981.260 210 215 225
68.831 15.156 981.403 162 198 226
68.831 15.656 981.527 120 187 228
69.331 14.156 980.837 233 222 213
69.331 14.656 981.129 220 220 221
69.331 15.156 981.331 169 195 215
69.331 15.656 981.476 132 186 224
69.831 14.156 980.682 233 223 213
69.831 14.656 980.964 230 225 222
69.831 15.156 981.223 209 223 237
69.831 15.656 981.443 156 198 232
70.331 14.656 980.791 234 227 219
70.331 15.156 981.142 220 227 236
70.331 15.656 981.433 177 210 241
70.831 14.656 980.703 233 225 217
70.831 15.156 981.087 227 231 233
70.831 15.656 981.435 194 218 240
71.331 14.656 980.706 233 224 217
71.331 15.156 981.099 231 227 225
71.331 15.656 981.409 197 215 228
71.831 15.156 981.017 231 227 222
71.831 15.656 981.315 203 218 227
72.331 15.156 980.968 232 224 216
72.331 15.656 981.246 224 232 234
72.831 15.156 980.887 233 224 213
72.831 15.656 981.201 233 233 230
73.331 15.656 981.048 234 230 223
73.831 15.656 980.839 234 226 219
74.331 15.656 980.715 232 228 219
74.831 15.656 980.637 231 226 215
49.331 16.156 979.319 152 151 154
49.831 16.156 979.348 168 167 167
50.331 16.156 979.408 190 186 186
50.831 16.156 979.496 140 137 140
50.831 16.656 979.415 148 142 141
51.331 16.156 979.684 123 124 133
51.331 16.656 979.547 126 124 127
51.831 16.156 979.925 126 130 141
51.831 16.656 979.705 134 133 139
51.831 17.156 979.500 184 179 177
52.331 16.156 980.008 128 131 145
52.331 16.656 979.788 137 136 143
52.331 17.156 979.582 160 155 153
52.831 16.156 980.129 129 136 151
52.831 16.656 979.923 133 132 141
52.831 17.156 979.695 143 137 140
53.331 16.156 980.332 124 133 153
53.331 16.656 979.998 119 120 133
53.331 17.156 979.725 124 119 127
53.331 17.656 979.511 183 177 174
53.831 16.156 980.375 130 147 171
53.831 16.656 980.055 121 125 143
53.831 17.156 979.756 122 120 129
53.831 17.656 979.538 167 161 161
54.331 16.156 980.466 134 158 185
54.331 16.656 980.126 152 160 181
54.331 17.156 979.803 121 123 133
54.331 17.656 979.604 139 138 136
54.831 16.156 980.563 129 158 188
54.831 16.656 980.160 153 168 189
54.831 17.156 979.805 144 148 162
54.831 17.656 979.625 130 129 134
55.331 16.156 980.708 130 164 197
55.331 16.656 980.289 139 157 181
55.331 17.156 979.880 156 164 180
55.331 17.656 979.672 143 141 152
55.331 18.156 979.566 168 162 162
55.831 16.156 980.837 139 177 210
55.831 16.656 980.458 128 152 177
55.831 17.156 980.045 151 160 178
55.831 17.656 979.730 154 154 166
55.831 18.156 979.602 167 162 165
56.331 16.156 980.944 144 185 223
56.331 16.656 980.635 128 155 184
56.331 17.156 980.258 137 150 170
56.331 17.656 979.844 168 171 183
56.331 18.156 979.652 157 156 160
56.831 16.156 981.066 142 190 229
56.831 16.656 980.802 133 166 195
56.831 17.156 980.378 130 145 167
56.831 17.656 979.962 158 164 181
56.831 18.156 979.709 179 177 186
56.831 18.656 979.559 180 180 179
57.331 16.156 981.130 141 191 234
57.331 16.656 980.882 143 179 213
57.331 17.156 980.482 130 148 172
57.331 17.656 980.099 142 150 170
57.331 18.156 979.787 181 183 193
57.331 18.656 979.585 188 188 190
57.831 16.156 981.165 134 188 233
57.831 16.656 980.932 145 186 223
57.831 17.156 980.615 134 155 179
57.831 17.656 980.273 135 143 164
57.831 18.156 979.905 169 171 185
57.831 18.656 979.633 216 217 222
58.331 16.156 981.206 121 187 234
58.331 16.656 980.970 139 191 236
58.331 17.156 980.666 132 161 192
58.331 17.656 980.384 127 139 159
58.331 18.156 980.069 152 153 164
58.331 18.656 979.746 209 209 217
58.331 19.156 979.518 233 233 235
58.831 16.156 981.267 118 188 233
58.831 16.656 981.046 133 189 233
58.831 17.156 980.738 141 172 205
58.831 17.656 980.506 127 139 160
58.831 18.156 980.251 131 132 143
58.831 18.656 979.894 167 167 173
58.831 19.156 979.635 220 219 219
59.331 16.156 981.319 113 189 235
59.331 16.656 981.091 125 189 233
59.331 17.156 980.805 146 184 217
59.331 17.656 980.546 130 146 170
59.331 18.156 980.289 126 128 141
59.331 18.656 980.006 132 131 139
59.331 19.156 979.784 172 169 171
59.831 16.156 981.354 111 189 237
59.831 16.656 981.167 121 189 235
59.831 17.156 980.900 145 189 227
59.831 17.656 980.595 136 157 183
59.831 18.156 980.375 129 133 149
59.831 18.656 980.121 127 126 137
59.831 19.156 979.913 152 148 150
59.831 19.656 979.705 199 190 183
60.331 16.156 981.402 111 188 238
60.331 16.656 981.235 118 188 237
60.331 17.156 980.995 142 193 236
60.331 17.656 980.705 145 172 201
60.331 18.156 980.501 130 136 156
60.331 18.656 980.287 122 121 135
60.331 19.156 980.059 139 135 139
60.331 19.656 979.850 187 179 173
60.831 16.156 981.436 112 187 239
60.831 16.656 981.309 118 187 238
60.831 17.156 981.109 134 191 237
60.831 17.656 980.876 154 184 217
60.831 18.156 980.649 135 144 167
60.831 18.656 980.401 120 121 137
60.831 19.156 980.145 133 129 136
60.831 19.656 979.951 172 164 161
61.331 16.156 981.466 110 187 239
61.331 16.656 981.370 116 187 237
61.331 17.156 981.197 125 189 237
61.331 17.656 981.011 148 193 233
61.331 18.156 980.752 133 154 182
61.331 18.656 980.471 125 126 146
61.331 19.156 980.215 132 125 135
61.331 19.656 980.035 163 154 157
61.831 16.156 981.508 111 188 240
61.831 16.656 981.424 112 187 237
61.831 17.156 981.282 119 189 237
61.831 17.656 981.084 136 192 232
61.831 18.156 980.821 135 167 197
61.831 18.656 980.564 125 133 153
61.831 19.156 980.334 128 124 137
61.831 19.656 980.134 151 148 152
61.831 20.156 979.807 189 185 178
62.331 16.156 981.553 111 188 240
62.331 16.656 981.481 111 188 238
62.331 17.156 981.362 111 189 237
62.331 17.656 981.151 124 189 232
62.331 18.156 980.897 137 179 211
62.331 18.656 980.633 121 137 162
62.331 19.156 980.455 121 125 140
62.331 19.656 980.239 138 138 146
62.331 20.156 979.893 176 171 167
62.831 16.156 981.572 111 188 240
62.831 16.656 981.504 108 188 240
62.831 17.156 981.396 109 188 238
62.831 17.656 981.225 119 187 233
62.831 18.156 980.981 139 186 225
62.831 18.656 980.686 125 145 176
62.831 19.156 980.504 121 126 148
62.831 19.656 980.302 133 132 145
62.831 20.156 980.009 159 156 156
63.331 16.156 981.578 109 189 241
63.331 16.656 981.501 107 188 243
63.331 17.156 981.410 111 188 239
63.331 17.656 981.283 119 187 236
63.331 18.156 981.056 140 190 234
63.331 18.656 980.760 136 162 199
63.331 19.156 980.522 121 127 154
63.331 19.656 980.316 130 129 147
63.331 20.156 980.089 156 154 159
63.331 20.656 979.854 184 179 178
63.831 16.156 981.605 108 189 240
63.831 16.656 981.526 107 189 245
63.831 17.156 981.431 111 188 239
63.831 17.656 981.347 116 187 235
63.831 18.156 981.142 136 192 237
63.831 18.656 980.858 141 174 212
63.831 19.156 980.605 121 135 161
63.831 19.656 980.385 124 129 148
63.831 20.156 980.156 146 144 152
63.831 20.656 979.952 181 177 181
64.331 16.156 981.635 109 190 240
64.331 16.656 981.580 109 190 245
64.331 17.156 981.477 111 188 238
64.331 17.656 981.392 113 190 237
64.331 18.156 981.213 129 192 237
64.331 18.656 980.950 146 185 224
64.331 19.156 980.723 122 143 170
64.331 19.656 980.488 120 130 147
64.331 20.156 980.223 141 140 149
64.331 20.656 980.023 175 173 176
64.331 21.156 979.799 204 198 194
64.831 16.156 981.662 108 191 239
64.831 16.656 981.640 112 189 244
64.831 17.156 981.551 112 189 240
64.831 17.656 981.439 113 192 239
64.831 18.156 981.294 124 194 237
64.831 18.656 981.074 148 196 237
64.831 19.156 980.824 135 158 189
64.831 19.656 980.563 123 131 150
64.831 20.156 980.306 138 137 148
64.831 20.656 980.091 161 159 163
64.831 21.156 979.850 196 190 185
65.331 16.156 981.686 109 191 240
65.331 16.656 981.680 113 190 244
65.331 17.156 981.620 116 191 242
65.331 17.656 981.503 115 192 240
65.331 18.156 981.378 121 192 237
65.331 18.656 981.193 145 196 239
65.331 19.156 980.924 145 173 206
65.331 19.656 980.668 128 139 159
65.331 20.156 980.400 132 132 146
65.331 20.656 980.139 157 154 161
65.331 21.156 979.894 192 186 183
65.831 16.156 981.695 109 189 239
65.831 16.656 981.686 112 188 242
65.831 17.156 981.642 116 192 243
65.831 17.656 981.533 115 191 240
65.831 18.156 981.414 121 192 239
65.831 18.656 981.249 135 192 236
65.831 19.156 981.001 154 188 222
65.831 19.656 980.756 127 143 167
65.831 20.156 980.455 128 130 147
65.831 20.656 980.150 140 140 148
65.831 21.156 979.935 175 172 171
65.831 21.656 979.693 215 207 202
66.331 16.156 981.700 111 188 240
66.331 16.656 981.676 110 189 240
66.331 17.156 981.633 112 192 242
66.331 17.656 981.544 118 191 241
66.331 18.156 981.415 120 191 241
66.331 18.656 981.251 129 193 238
66.331 19.156 981.052 154 196 232
66.331 19.656 980.814 133 154 181
66.331 20.156 980.484 123 128 147
66.331 20.656 980.180 130 133 142
66.331 21.156 979.981 155 154 154
66.331 21.656 979.753 195 190 186
66.831 16.156 981.695 111 187 239
66.831 16.656 981.665 108 191 238
66.831 17.156 981.626 113 192 242
66.831 17.656 981.555 118 190 241
66.831 18.156 981.430 119 191 241
66.831 18.656 981.263 123 191 237
66.831 19.156 981.093 147 196 233
66.831 19.656 980.848 143 168 198
66.831 20.156 980.500 126 132 155
66.831 20.656 980.253 126 129 143
66.831 21.156 980.058 151 150 153
66.831 21.656 979.820 196 191 188
67.331 16.156 981.687 111 186 240
67.331 16.656 981.661 106 191 238
67.331 17.156 981.627 113 193 243
67.331 17.656 981.562 118 189 241
67.331 18.156 981.457 117 190 240
67.331 18.656 981.314 119 190 239
67.331 19.156 981.146 140 194 233
67.331 19.656 980.925 156 183 215
67.331 20.156 980.608 132 139 164
67.331 20.656 980.353 124 126 141
67.331 21.156 980.121 146 145 149
67.331 21.656 979.902 186 180 180
67.331 22.156 979.699 220 213 208
67.831 16.156 981.675 107 187 238
67.831 16.656 981.661 117 189 240
67.831 17.156 981.637 115 190 241
67.831 17.656 981.576 116 192 241
67.831 18.156 981.493 112 191 240
67.831 18.656 981.393 116 191 240
67.831 19.156 981.235 129 191 237
67.831 19.656 981.023 147 194 234
67.831 20.156 980.726 132 149 179
67.831 20.656 980.423 119 127 145
67.831 21.156 980.160 143 142 149
67.831 21.656 979.961 179 175 174
67.831 22.156 979.762 218 212 207
68.331 16.156 981.662 108 189 239
68.331 16.656 981.664 117 190 241
68.331 17.156 981.646 115 190 241
68.331 17.656 981.596 116 192 241
68.331 18.156 981.529 116 193 242
68.331 18.656 981.448 116 191 241
68.331 19.156 981.296 124 188 234
68.331 19.656 981.076 144 193 234
68.331 20.156 980.799 142 163 194
68.331 20.656 980.491 125 133 154
68.331 21.156 980.204 136 136 144
68.331 21.656 979.991 164 160 161
68.331 22.156 979.798 205 200 195
68.831 16.156 981.654 112 189 239
68.831 16.656 981.677 115 191 244
68.831 17.156 981.665 116 191 242
68.831 17.656 981.632 117 192 242
68.831 18.156 981.576 115 192 241
68.831 18.656 981.485 117 191 242
68.831 19.156 981.353 126 189 236
68.831 19.656 981.153 138 190 232
68.831 20.156 980.870 153 179 210
68.831 20.656 980.560 129 143 165
68.831 21.156 980.285 129 131 141
68.831 21.656 980.065 150 145 148
68.831 22.156 979.847 188 184 179
69.331 16.156 981.641 119 190 240
69.331 16.656 981.683 113 190 244
69.331 17.156 981.675 116 192 241
69.331 17.656 981.657 116 191 240
69.331 18.156 981.625 115 192 241
69.331 18.656 981.534 117 190 242
69.331 19.156 981.419 126 192 240
69.331 19.656 981.259 139 194 235
69.331 20.156 981.003 161 191 226
69.331 20.656 980.710 134 151 177
69.331 21.156 980.438 124 128 142
69.331 21.656 980.184 141 136 142
69.331 22.156 979.949 176 170 168
69.831 16.156 981.605 121 187 234
69.831 16.656 981.678 115 191 243
69.831 17.156 981.676 115 192 240
69.831 17.656 981.663 115 191 240
69.831 18.156 981.648 115 192 241
69.831 18.656 981.578 118 192 243
69.831 19.156 981.479 124 191 238
69.831 19.656 981.348 137 195 235
69.831 20.156 981.145 164 199 236
69.831 20.656 980.914 142 163 190
69.831 21.156 980.601 122 127 144
69.831 21.656 980.260 132 129 136
69.831 22.156 980.036 163 158 157
69.831 22.656 979.854 201 194 186
70.331 16.156 981.594 127 189 231
70.331 16.656 981.672 115 191 240
70.331 17.156 981.685 113 192 241
70.331 17.656 981.675 116 192 240
70.331 18.156 981.662 117 192 242
70.331 18.656 981.610 116 191 241
70.331 19.156 981.526 122 189 237
70.331 19.656 981.440 133 192 234
70.331 20.156 981.275 161 200 239
70.331 20.656 981.039 156 180 208
70.331 21.156 980.711 127 133 152
70.331 21.656 980.337 126 123 133
70.331 22.156 980.127 151 146 145
70.331 22.656 979.982 184 176 168
70.831 16.156 981.609 131 188 228
70.831 16.656 981.679 113 189 240
70.831 17.156 981.714 115 191 238
70.831 17.656 981.711 115 191 240
70.831 18.156 981.686 116 192 241
70.831 18.656 981.639 117 191 241
70.831 19.156 981.560 122 190 238
70.831 19.656 981.487 130 193 235
70.831 20.156 981.331 155 200 238
70.831 20.656 981.093 168 194 225
70.831 21.156 980.786 136 144 166
70.831 21.656 980.469 125 124 135
70.831 22.156 980.243 141 138 140
70.831 22.656 980.072 173 168 162
70.831 23.156 979.861 201 192 185
71.331 16.156 981.609 139 190 227
71.331 16.656 981.689 113 188 240
71.331 17.156 981.735 116 191 238
71.331 17.656 981.752 115 191 240
71.331 18.156 981.741 116 193 242
71.331 18.656 981.685 119 193 242
71.331 19.156 981.588 121 191 239
71.331 19.656 981.517 126 193 236
71.331 20.156 981.372 149 198 237
71.331 20.656 981.112 171 202 236
71.331 21.156 980.834 148 159 184
71.331 21.656 980.596 126 128 141
71.331 22.156 980.384 133 132 135
71.331 22.656 980.171 167 161 158
71.331 23.156 979.990 211 201 198
71.831 16.156 981.581 152 197 228
71.831 16.656 981.711 118 185 232
71.831 17.156 981.758 115 190 239
71.831 17.656 981.782 113 191 240
71.831 18.156 981.770 112 192 243
71.831 18.656 981.719 117 194 243
71.831 19.156 981.639 119 191 239
71.831 19.656 981.554 123 192 238
71.831 20.156 981.468 142 196 237
71.831 20.656 981.223 168 203 240
71.831 21.156 980.938 158 174 204
71.831 21.656 980.720 137 140 156
71.831 22.156 980.488 131 129 135
71.831 22.656 980.251 154 145 146
71.831 23.156 980.053 196 186 183
71.831 23.656 979.825 223 214 205
72.331 16.156 981.544 181 215 240
72.331 16.656 981.716 128 187 228
72.331 17.156 981.767 115 190 237
72.331 17.656 981.791 112 189 238
72.331 18.156 981.778 111 191 242
72.331 18.656 981.752 115 191 243
72.331 19.156 981.704 116 191 240
72.331 19.656 981.600 120 192 241
72.331 20.156 981.514 134 191 236
72.331 20.656 981.359 158 202 241
72.331 21.156 981.079 161 185 216
72.331 21.656 980.841 142 149 168
72.331 22.156 980.624 133 130 140
72.331 22.656 980.349 144 135 138
72.331 23.156 980.096 179 170 166
72.331 23.656 979.857 207 198 189
72.831 16.156 981.528 200 224 241
72.831 16.656 981.722 144 191 227
72.831 17.156 981.779 117 190 236
72.831 17.656 981.796 113 190 238
72.831 18.156 981.789 113 192 241
72.831 18.656 981.776 113 191 243
72.831 19.156 981.739 118 192 242
72.831 19.656 981.650 120 192 241
72.831 20.156 981.549 126 190 236
72.831 20.656 981.410 143 197 237
72.831 21.156 981.162 166 198 231
72.831 21.656 980.955 147 160 183
72.831 22.156 980.722 137 134 146
72.831 22.656 980.444 142 134 139
72.831 23.156 980.181 173 166 161
72.831 23.656 979.926 209 200 191
73.331 16.156 981.434 216 231 242
73.331 16.656 981.693 164 203 232
73.331 17.156 981.768 118 188 232
73.331 17.656 981.781 116 189 235
73.331 18.156 981.778 115 190 240
73.331 18.656 981.778 116 193 242
73.331 19.156 981.765 119 194 243
73.331 19.656 981.711 120 193 241
73.331 20.156 981.602 124 193 241
73.331 20.656 981.448 132 195 238
73.331 21.156 981.230 156 199 234
73.331 21.656 981.022 152 169 195
73.331 22.156 980.758 138 136 152
73.331 22.656 980.511 139 134 139
73.331 23.156 980.228 171 166 160
73.331 23.656 979.990 206 197 188
73.331 24.156 979.728 230 219 209
73.831 16.156 981.207 226 234 242
73.831 16.656 981.586 186 217 241
73.831 17.156 981.726 122 190 232
73.831 17.656 981.760 119 191 238
73.831 18.156 981.776 117 192 242
73.831 18.656 981.791 119 192 243
73.831 19.156 981.793 119 194 244
73.831 19.656 981.757 119 192 240
73.831 20.156 981.673 119 191 239
73.831 20.656 981.527 124 192 236
73.831 21.156 981.310 145 196 232
73.831 21.656 981.076 161 184 211
73.831 22.156 980.807 139 140 157
73.831 22.656 980.568 134 130 136
73.831 23.156 980.272 155 150 146
73.831 23.656 980.014 190 181 173
73.831 24.156 979.768 226 216 206
74.331 16.156 981.104 225 228 228
74.331 16.656 981.516 201 217 231
74.331 17.156 981.671 136 190 228
74.331 17.656 981.732 113 191 234
74.331 18.156 981.773 117 192 242
74.331 18.656 981.799 120 191 240
74.331 19.156 981.810 119 195 240
74.331 19.656 981.789 118 193 241
74.331 20.156 981.716 119 192 238
74.331 20.656 981.599 119 192 241
74.331 21.156 981.427 133 190 239
74.331 21.656 981.148 162 195 231
74.331 22.156 980.886 142 149 170
74.331 22.656 980.628 133 130 141
74.331 23.156 980.345 144 137 143
74.331 23.656 980.065 174 164 162
74.331 24.156 979.811 216 206 197
74.831 16.156 980.995 225 225 222
74.831 16.656 981.361 191 201 212
74.831 17.156 981.571 146 194 228
74.831 17.656 981.708 118 190 232
74.831 18.156 981.764 117 191 242
74.831 18.656 981.802 119 191 241
74.831 19.156 981.825 118 194 240
74.831 19.656 981.809 118 191 242
74.831 20.156 981.738 119 192 239
74.831 20.656 981.618 119 190 240
74.831 21.156 981.459 130 188 238
74.831 21.656 981.196 163 197 235
74.831 22.156 980.935 157 169 192
74.831 22.656 980.661 136 134 148
74.831 23.156 980.380 134 129 136
74.831 23.656 980.116 163 154 154
74.831 24.156 979.863 207 198 189
75.331 16.156 980.934 230 225 219
75.331 16.656 981.225 205 208 215
75.331 17.156 981.519 168 204 232
75.331 17.656 981.691 121 189 227
75.331 18.156 981.754 115 186 237
75.331 18.656 981.798 116 186 238
75.331 19.156 981.822 116 192 240
75.331 19.656 981.814 117 193 242
75.331 20.156 981.755 116 191 240
75.331 20.656 981.655 119 191 240
75.331 21.156 981.499 128 189 237
75.331 21.656 981.279 158 200 238
75.331 22.156 981.028 166 185 211
75.331 22.656 980.734 139 142 159
75.331 23.156 980.476 129 126 137
75.331 23.656 980.214 148 142 144
75.331 24.156 979.908 193 185 178
75.831 16.156 980.914 233 225 216
75.831 16.656 981.160 230 226 226
75.831 17.156 981.494 195 220 239
75.831 17.656 981.675 128 189 223
75.831 18.156 981.752 118 186 236
75.831 18.656 981.786 115 186 239
75.831 19.156 981.810 113 193 240
75.831 19.656 981.807 116 192 241
75.831 20.156 981.764 116 191 241
75.831 20.656 981.690 118 190 238
75.831 21.156 981.548 127 192 237
75.831 21.656 981.365 147 197 238
75.831 22.156 981.167 163 192 224
75.831 22.656 980.842 138 147 170
75.831 23.156 980.533 130 131 144
75.831 23.656 980.325 142 139 143
75.831 24.156 980.016 179 173 168
75.831 24.656 979.796 219 210 201
76.331 16.156 980.905 234 225 215
76.331 16.656 981.117 238 231 228
76.331 17.156 981.425 215 231 242
76.331 17.656 981.619 143 196 227
76.331 18.156 981.740 119 185 235
76.331 18.656 981.784 115 186 239
76.331 19.156 981.803 108 189 238
76.331 19.656 981.802 113 191 240
76.331 20.156 981.786 113 191 240
76.331 20.656 981.733 118 190 238
76.331 21.156 981.596 127 192 237
76.331 21.656 981.464 135 193 236
76.331 22.156 981.313 158 196 232
76.331 22.656 980.977 148 164 189
76.331 23.156 980.625 133 136 152
76.331 23.656 980.454 140 139 145
76.331 24.156 980.189 172 170 166
76.331 24.656 979.893 210 203 195
76.831 16.656 981.061 237 227 225
76.831 17.156 981.307 223 231 238
76.831 17.656 981.561 158 208 235
76.831 18.156 981.760 119 185 234
76.831 18.656 981.802 115 186 241
76.831 19.156 981.808 108 189 238
76.831 19.656 981.801 112 190 239
76.831 20.156 981.779 113 190 241
76.831 20.656 981.726 118 189 237
76.831 21.156 981.606 123 191 235
76.831 21.656 981.487 132 193 237
76.831 22.156 981.369 154 197 236
76.831 22.656 981.039 164 183 211
76.831 23.156 980.689 137 142 160
76.831 23.656 980.509 138 138 148
76.831 24.156 980.297 164 161 160
76.831 24.656 979.984 201 194 188
77.331 16.656 980.969 234 225 218
77.331 17.156 981.181 224 232 229
77.331 17.656 981.505 179 209 229
77.331 18.156 981.735 128 186 228
77.331 18.656 981.784 109 188 237
77.331 19.156 981.795 108 191 239
77.331 19.656 981.786 113 189 239
77.331 20.156 981.754 116 191 241
77.331 20.656 981.700 115 190 239
77.331 21.156 981.611 118 191 240
77.331 21.656 981.519 124 192 240
77.331 22.156 981.416 146 196 238
77.331 22.656 981.162 168 197 227
77.331 23.156 980.789 140 151 172
77.331 23.656 980.550 132 134 148
77.331 24.156 980.336 156 152 157
77.331 24.656 980.029 191 186 183
77.331 25.156 979.877 221 213 210
77.831 16.656 980.895 233 225 214
77.831 17.156 981.092 230 231 226
77.831 17.656 981.415 196 212 232
77.831 18.156 981.688 143 190 229
77.831 18.656 981.771 113 188 236
77.831 19.156 981.791 108 190 238
77.831 19.656 981.786 115 187 238
77.831 20.156 981.736 116 190 240
77.831 20.656 981.684 115 190 240
77.831 21.156 981.629 115 190 240
77.831 21.656 981.565 119 191 240
77.831 22.156 981.465 136 190 233
77.831 22.656 981.254 166 200 232
77.831 23.156 980.955 145 161 184
77.831 23.656 980.690 132 134 149
77.831 24.156 980.406 146 143 150
77.831 24.656 980.134 180 174 175
77.831 25.156 979.954 212 207 204
78.331 17.156 981.025 235 231 223
78.331 17.656 981.323 221 230 241
78.331 18.156 981.638 166 203 235
78.331 18.656 981.748 121 188 232
78.331 19.156 981.781 111 188 238
78.331 19.656 981.774 113 187 239
78.331 20.156 981.746 112 189 239
78.331 20.656 981.698 113 189 239
78.331 21.156 981.644 113 189 239
78.331 21.656 981.604 116 190 239
78.331 22.156 981.492 128 189 232
78.331 22.656 981.269 157 200 235
78.331 23.156 981.061 152 174 202
78.331 23.656 980.797 131 139 158
78.331 24.156 980.519 139 138 148
78.331 24.656 980.204 163 157 159
78.331 25.156 980.005 198 193 189
78.331 25.656 979.848 223 216 208
78.831 17.156 980.940 235 230 220
78.831 17.656 981.258 231 235 239
78.831 18.156 981.588 188 217 240
78.831 18.656 981.724 128 187 226
78.831 19.156 981.773 111 188 236
78.831 19.656 981.776 110 191 242
78.831 20.156 981.748 112 189 241
78.831 20.656 981.706 113 189 239
78.831 21.156 981.673 113 189 238
78.831 21.656 981.637 115 190 240
78.831 22.156 981.549 124 190 236
78.831 22.656 981.360 144 195 236
78.831 23.156 981.118 155 187 220
78.831 23.656 980.845 130 145 171
78.831 24.156 980.568 130 133 146
78.831 24.656 980.253 153 148 153
78.831 25.156 980.028 186 181 179
78.831 25.656 979.880 223 216 210
79.331 17.156 980.783 233 230 218
79.331 17.656 981.161 235 235 230
79.331 18.156 981.455 207 226 242
79.331 18.656 981.685 142 192 227
79.331 19.156 981.743 116 189 236
79.331 19.656 981.755 108 190 238
79.331 20.156 981.750 110 189 240
79.331 20.656 981.734 113 189 238
79.331 21.156 981.701 113 190 239
79.331 21.656 981.662 113 191 239
79.331 22.156 981.599 118 187 237
79.331 22.656 981.462 128 189 234
79.331 23.156 981.203 149 191 230
79.331 23.656 980.952 134 155 186
79.331 24.156 980.653 126 132 149
79.331 24.656 980.335 142 137 144
79.331 25.156 980.118 183 174 176
79.331 25.656 979.992 220 213 207
79.831 17.656 981.043 234 226 220
79.831 18.156 981.307 218 230 238
79.831 18.656 981.618 163 204 237
79.831 19.156 981.708 119 185 232
79.831 19.656 981.748 109 189 237
79.831 20.156 981.771 110 189 239
79.831 20.656 981.762 112 190 238
79.831 21.156 981.729 113 191 237
79.831 21.656 981.684 111 190 239
79.831 22.156 981.582 113 189 240
79.831 22.656 981.437 119 185 237
79.831 23.156 981.228 139 187 231
79.831 23.656 981.003 144 169 204
79.831 24.156 980.709 127 136 155
79.831 24.656 980.510 136 132 142
79.831 25.156 980.276 172 166 166
79.831 25.656 980.070 210 203 198
79.831 26.156 979.842 220 212 204
80.331 17.656 980.869 235 225 215
80.331 18.156 981.134 213 218 222
80.331 18.656 981.500 170 200 229
80.331 19.156 981.682 127 186 231
80.331 19.656 981.743 112 188 237
80.331 20.156 981.793 111 188 237
80.331 20.656 981.806 111 189 237
80.331 21.156 981.777 113 190 237
80.331 21.656 981.705 110 190 239
80.331 22.156 981.538 112 189 240
80.331 22.656 981.403 116 185 236
80.331 23.156 981.247 131 187 232
80.331 23.656 981.028 153 186 221
80.331 24.156 980.806 132 143 165
80.331 24.656 980.599 136 133 143
80.331 25.156 980.416 158 152 155
80.331 25.656 980.196 190 183 179
80.331 26.156 979.990 216 208 199
80.831 17.656 980.762 235 226 214
80.831 18.156 981.006 219 220 215
80.831 18.656 981.367 180 201 217
80.831 19.156 981.655 139 190 228
80.831 19.656 981.759 117 188 239
80.831 20.156 981.829 117 187 236
80.831 20.656 981.846 119 190 240
80.831 21.156 981.809 113 187 237
80.831 21.656 981.732 115 191 240
80.831 22.156 981.561 115 189 238
80.831 22.656 981.423 118 188 236
80.831 23.156 981.274 124 188 235
80.831 23.656 981.067 150 195 233
80.831 24.156 980.866 139 154 177
80.831 24.656 980.666 136 134 146
80.831 25.156 980.521 149 147 152
80.831 25.656 980.355 177 172 174
80.831 26.156 980.075 213 202 200
81.331 17.656 980.739 235 224 212
81.331 18.156 981.008 233 224 221
81.331 18.656 981.357 216 225 241
81.331 19.156 981.643 163 202 238
81.331 19.656 981.778 119 185 232
81.331 20.156 981.835 128 189 240
81.331 20.656 981.841 155 216 255
81.331 21.156 981.826 123 191 243
81.331 21.656 981.748 117 188 240
81.331 22.156 981.585 115 190 240
81.331 22.656 981.472 115 190 239
81.331 23.156 981.340 120 190 235
81.331 23.656 981.108 145 194 235
81.331 24.156 980.929 144 164 192
81.331 24.656 980.760 134 138 153
81.331 25.156 980.578 142 140 148
81.331 25.656 980.380 171 166 165
81.331 26.156 980.093 200 190 187
81.831 18.156 980.957 238 226 223
81.831 18.656 981.308 228 230 239
81.831 19.156 981.612 180 211 238
81.831 19.656 981.764 124 187 227
81.831 20.156 981.812 121 185 234
81.831 20.656 981.820 120 188 240
81.831 21.156 981.800 116 186 237
81.831 21.656 981.727 115 189 239
81.831 22.156 981.596 113 190 240
81.831 22.656 981.498 115 190 239
81.831 23.156 981.400 118 189 237
81.831 23.656 981.175 134 189 234
81.831 24.156 980.979 148 179 214
81.831 24.656 980.810 130 140 161
81.831 25.156 980.642 138 140 148
81.831 25.656 980.418 166 161 160
81.831 26.156 980.142 195 186 181
82.331 18.156 980.875 235 227 219
82.331 18.656 981.224 234 233 232
82.331 19.156 981.566 196 221 240
82.331 19.656 981.742 133 189 222
82.331 20.156 981.786 113 188 232
82.331 20.656 981.787 111 189 237
82.331 21.156 981.755 109 190 238
82.331 21.656 981.688 108 189 239
82.331 22.156 981.595 111 189 239
82.331 22.656 981.518 116 188 239
82.331 23.156 981.412 117 188 238
82.331 23.656 981.230 124 189 235
82.331 24.156 981.014 147 188 229
82.331 24.656 980.847 134 151 179
82.331 25.156 980.728 136 139 153
82.331 25.656 980.455 162 158 157
82.331 26.156 980.212 194 185 181
82.331 26.656 980.013 221 212 204
82.831 18.156 980.779 233 227 216
82.831 18.656 981.202 238 232 226
82.831 19.156 981.543 214 230 241
82.831 19.656 981.694 153 197 227
82.831 20.156 981.744 116 188 232
82.831 20.656 981.741 111 189 236
82.831 21.156 981.712 108 189 238
82.831 21.656 981.661 107 189 239
82.831 22.156 981.598 110 189 240
82.831 22.656 981.537 115 189 241
82.831 23.156 981.442 115 189 239
82.831 23.656 981.293 119 190 237
82.831 24.156 981.055 141 190 236
82.831 24.656 980.890 137 162 195
82.831 25.156 980.801 134 139 155
82.831 25.656 980.547 154 150 152
82.831 26.156 980.307 187 179 177
82.831 26.656 980.059 214 205 196
83.331 18.656 981.123 239 230 220
83.331 19.156 981.446 227 233 242
83.331 19.656 981.609 180 211 240
83.331 20.156 981.691 126 188 236
83.331 20.656 981.699 117 185 236
83.331 21.156 981.675 112 186 238
83.331 21.656 981.646 110 189 240
83.331 22.156 981.607 109 189 240
83.331 22.656 981.546 109 189 240
83.331 23.156 981.478 110 190 238
83.331 23.656 981.378 116 189 236
83.331 24.156 981.106 133 188 237
83.331 24.656 980.928 145 175 213
83.331 25.156 980.831 135 142 158
83.331 25.656 980.592 146 141 146
83.331 26.156 980.364 173 164 165
83.331 26.656 980.048 203 194 185
83.331 27.156 979.837 227 216 206
83.831 18.656 980.945 234 230 218
83.831 19.156 981.241 228 232 237
83.831 19.656 981.458 204 220 239
83.831 20.156 981.600 140 194 230
83.831 20.656 981.646 113 187 238
83.831 21.156 981.655 106 188 239
83.831 21.656 981.646 110 189 233
83.831 22.156 981.617 109 190 239
83.831 22.656 981.562 108 190 243
83.831 23.156 981.484 112 189 238
83.831 23.656 981.400 112 188 238
83.831 24.156 981.203 120 187 240
83.831 24.656 980.988 145 190 234
83.831 25.156 980.867 132 147 172
83.831 25.656 980.673 142 138 150
83.831 26.156 980.469 161 150 157
83.831 26.656 980.115 191 183 176
83.831 27.156 979.858 223 213 202
84.331 18.656 980.801 233 225 215
84.331 19.156 981.083 225 226 226
84.331 19.656 981.327 211 220 232
84.331 20.156 981.510 153 200 231
84.331 20.656 981.614 117 188 235
84.331 21.156 981.648 108 188 239
84.331 21.656 981.651 111 188 235
84.331 22.156 981.625 109 190 240
84.331 22.656 981.571 108 190 243
84.331 23.156 981.484 111 189 238
84.331 23.656 981.413 112 189 239
84.331 24.156 981.320 116 185 238
84.331 24.656 981.050 142 190 237
84.331 25.156 980.883 138 159 187
84.331 25.656 980.685 137 140 153
84.331 26.156 980.519 149 141 150
84.331 26.656 980.197 176 167 164
84.331 27.156 979.938 212 202 193
84.831 19.156 981.023 228 224 219
84.831 19.656 981.232 203 206 211
84.831 20.156 981.449 162 199 224
84.831 20.656 981.593 122 187 231
84.831 21.156 981.645 111 188 237
84.831 21.656 981.658 113 190 236
84.831 22.156 981.637 110 190 242
84.831 22.656 981.583 109 190 243
84.831 23.156 981.487 112 189 239
84.831 23.656 981.425 111 188 239
84.831 24.156 981.342 116 187 240
84.831 24.656 981.083 134 190 236
84.831 25.156 980.908 144 176 208
84.831 25.656 980.714 134 144 162
84.831 26.156 980.577 142 141 151
84.831 26.656 980.258 166 157 156
84.831 27.156 980.029 205 196 189
84.831 27.656 979.796 233 222 210
85.331 19.156 980.936 233 224 214
85.331 19.656 981.118 215 214 212
85.331 20.156 981.376 187 212 229
85.331 20.656 981.565 133 189 226
85.331 21.156 981.631 116 187 235
85.331 21.656 981.653 112 188 235
85.331 22.156 981.634 107 189 242
85.331 22.656 981.576 108 189 242
85.331 23.156 981.495 111 188 239
85.331 23.656 981.441 112 189 241
85.331 24.156 981.355 115 189 239
85.331 24.656 981.127 125 189 236
85.331 25.156 980.952 144 187 224
85.331 25.656 980.768 129 150 171
85.331 26.156 980.589 138 141 153
85.331 26.656 980.295 154 148 152
85.331 27.156 980.032 201 193 189
85.331 27.656 979.773 233 222 212
85.831 19.156 980.861 233 224 213
85.831 19.656 981.069 231 227 220
85.831 20.156 981.356 212 225 237
85.831 20.656 981.561 151 198 231
85.831 21.156 981.632 118 186 230
85.831 21.656 981.654 113 188 234
85.831 22.156 981.638 107 189 242
85.831 22.656 981.592 108 189 242
85.831 23.156 981.526 111 187 238
85.831 23.656 981.460 110 188 240
85.831 24.156 981.363 112 187 238
85.831 24.656 981.188 120 187 238
85.831 25.156 980.999 140 191 234
85.831 25.656 980.829 132 160 188
85.831 26.156 980.640 132 140 155
85.831 26.656 980.324 146 142 149
85.831 27.156 980.026 187 181 179
85.831 27.656 979.818 226 217 208
86.331 19.156 980.813 234 226 214
86.331 19.656 981.018 233 230 220
86.331 20.156 981.328 223 228 235
86.331 20.656 981.546 168 207 238
86.331 21.156 981.631 122 187 232
86.331 21.656 981.657 113 187 234
86.331 22.156 981.643 106 188 242
86.331 22.656 981.597 108 189 242
86.331 23.156 981.546 112 187 238
86.331 23.656 981.473 111 188 240
86.331 24.156 981.402 115 187 238
86.331 24.656 981.240 118 187 239
86.331 25.156 981.034 133 190 236
86.331 25.656 980.893 139 170 201
86.331 26.156 980.735 134 143 161
86.331 26.656 980.436 141 138 148
86.331 27.156 980.102 170 167 164
86.331 27.656 979.929 210 203 193
86.331 28.156 979.730 227 217 207
86.831 19.656 980.971 234 230 219
86.831 20.156 981.269 231 231 231
86.831 20.656 981.533 185 215 237
86.831 21.156 981.641 130 189 230
86.831 21.656 981.663 113 187 237
86.831 22.156 981.652 107 187 241
86.831 22.656 981.613 110 188 241
86.831 23.156 981.561 111 187 238
86.831 23.656 981.486 110 188 240
86.831 24.156 981.434 111 187 238
86.831 24.656 981.300 113 187 238
86.831 25.156 981.085 127 190 236
86.831 25.656 980.965 147 184 219
86.831 26.156 980.781 134 147 171
86.831 26.656 980.551 139 138 149
86.831 27.156 980.237 160 155 156
86.831 27.656 980.042 197 189 182
86.831 28.156 979.804 214 205 195
87.331 19.656 980.914 235 227 214
87.331 20.156 981.157 235 233 229
87.331 20.656 981.452 206 225 239
87.331 21.156 981.611 145 195 232
87.331 21.656 981.655 116 186 237
87.331 22.156 981.657 107 187 240
87.331 22.656 981.638 110 188 242
87.331 23.156 981.582 110 188 240
87.331 23.656 981.518 110 188 240
87.331 24.156 981.468 111 188 240
87.331 24.656 981.363 111 188 238
87.331 25.156 981.180 120 188 235
87.331 25.656 981.022 147 191 229
87.331 26.156 980.815 135 155 184
87.331 26.656 980.597 134 137 149
87.331 27.156 980.341 152 148 150
87.331 27.656 980.137 184 177 171
87.331 28.156 979.888 209 202 194
87.831 19.656 980.835 234 226 213
87.831 20.156 981.044 235 231 224
87.831 20.656 981.320 220 233 239
87.831 21.156 981.540 163 205 235
87.831 21.656 981.628 121 187 233
87.831 22.156 981.654 110 187 240
87.831 22.656 981.655 109 189 242
87.831 23.156 981.615 109 189 240
87.831 23.656 981.568 110 188 240
87.831 24.156 981.519 111 188 240
87.831 24.656 981.435 109 188 240
87.831 25.156 981.309 116 187 236
87.831 25.656 981.099 137 188 231
87.831 26.156 980.873 134 163 199
87.831 26.656 980.662 135 139 158
87.831 27.156 980.445 145 143 151
87.831 27.656 980.202 168 161 158
87.831 28.156 979.995 185 180 176
88.331 20.156 980.929 235 228 218
88.331 20.656 981.196 226 231 233
88.331 21.156 981.444 183 213 234
88.331 21.656 981.586 129 187 227
88.331 22.156 981.649 112 186 237
88.331 22.656 981.665 107 188 241
88.331 23.156 981.644 109 189 242
88.331 23.656 981.608 110 188 240
88.331 24.156 981.571 110 187 239
88.331 24.656 981.504 108 188 240
88.331 25.156 981.390 109 188 238
88.331 25.656 981.185 124 185 233
88.331 26.156 980.960 137 176 218
88.331 26.656 980.726 132 143 168
88.331 27.156 980.547 136 137 151
88.331 27.656 980.295 148 143 147
88.331 28.156 980.057 161 156 155
88.331 28.656 979.787 196 195 193
88.831 20.156 980.821 233 225 216
88.831 20.656 981.092 227 224 222
88.831 21.156 981.364 193 211 225
88.831 21.656 981.548 142 190 225
88.831 22.156 981.644 116 184 234
88.831 22.656 981.685 109 187 238
88.831 23.156 981.678 109 188 240
88.831 23.656 981.641 109 187 239
88.831 24.156 981.605 110 187 237
88.831 24.656 981.528 108 189 239
88.831 25.156 981.417 108 188 240
88.831 25.656 981.246 119 186 237
88.831 26.156 981.040 135 184 230
88.831 26.656 980.810 131 150 180
88.831 27.156 980.648 129 137 155
88.831 27.656 980.396 137 135 141
88.831 28.156 980.097 151 147 149
88.831 28.656 979.845 195 193 195
89.331 20.156 980.718 233 226 217
89.331 20.656 980.959 233 225 219
89.331 21.156 981.285 193 202 210
89.331 21.656 981.523 156 195 226
89.331 22.156 981.640 120 185 234
89.331 22.656 981.700 112 188 239
89.331 23.156 981.698 109 188 238
89.331 23.656 981.663 110 186 241
89.331 24.156 981.617 110 186 236
89.331 24.656 981.528 109 188 239
89.331 25.156 981.424 107 188 238
89.331 25.656 981.273 115 185 236
89.331 26.156 981.103 133 189 236
89.331 26.656 980.890 131 160 192
89.331 27.156 980.676 125 138 158
89.331 27.656 980.456 134 134 143
89.331 28.156 980.152 153 148 152
89.331 28.656 979.903 184 181 184
89.831 20.656 980.843 233 223 215
89.831 21.156 981.195 216 221 226
89.831 21.656 981.494 177 211 240
89.831 22.156 981.643 124 187 233
89.831 22.656 981.707 109 185 234
89.831 23.156 981.716 109 188 239
89.831 23.656 981.681 108 186 240
89.831 24.156 981.617 110 186 237
89.831 24.656 981.512 109 188 237
89.831 25.156 981.418 106 186 237
89.831 25.656 981.298 115 186 237
89.831 26.156 981.172 130 188 236
89.831 26.656 980.949 139 173 206
89.831 27.156 980.718 126 143 164
89.831 27.656 980.494 136 137 146
89.831 28.156 980.220 152 148 153
89.831 28.656 979.939 179 176 179
89.831 29.156 979.788 202 202 205
90.331 20.656 980.749 234 226 214
90.331 21.156 981.100 231 233 231
90.331 21.656 981.451 199 221 243
90.331 22.156 981.638 137 188 229
90.331 22.656 981.713 116 187 232
90.331 23.156 981.728 108 188 236
90.331 23.656 981.692 108 187 237
90.331 24.156 981.615 107 188 239
90.331 24.656 981.500 107 188 237
90.331 25.156 981.418 111 188 237
90.331 25.656 981.311 113 186 234
90.331 26.156 981.209 123 189 235
90.331 26.656 981.010 144 187 227
90.331 27.156 980.811 126 149 176
90.331 27.656 980.536 128 135 151
90.331 28.156 980.272 140 137 147
90.331 28.656 979.971 161 160 166
90.331 29.156 979.768 193 193 195
90.831 20.656 980.670 235 225 213
90.831 21.156 981.016 234 232 226
90.831 21.656 981.396 209 225 240
90.831 22.156 981.627 151 196 232
90.831 22.656 981.712 116 185 231
90.831 23.156 981.724 108 186 237
90.831 23.656 981.694 111 185 238
90.831 24.156 981.593 110 187 239
90.831 24.656 981.490 109 187 239
90.831 25.156 981.413 112 188 238
90.831 25.656 981.305 115 187 236
90.831 26.156 981.205 120 188 236
90.831 26.656 981.054 144 191 233
90.831 27.156 980.893 131 160 191
90.831 27.656 980.572 121 130 148
90.831 28.156 980.287 126 126 137
90.831 28.656 979.984 152 150 156
90.831 29.156 979.722 197 194 196
90.831 29.656 979.596 192 190 192
91.331 21.156 980.891 235 228 219
91.331 21.656 981.301 224 228 236
91.331 22.156 981.577 172 207 235
91.331 22.656 981.666 122 186 229
91.331 23.156 981.686 111 187 238
91.331 23.656 981.646 111 185 238
91.331 24.156 981.538 110 186 240
91.331 24.656 981.456 108 187 241
91.331 25.156 981.375 110 187 238
91.331 25.656 981.278 112 187 236
91.331 26.156 981.188 117 187 235
91.331 26.656 981.056 131 190 238
91.331 27.156 980.890 130 168 205
91.331 27.656 980.578 120 137 160
91.331 28.156 980.225 120 125 139
91.331 28.656 979.959 147 146 154
91.331 29.156 979.688 202 199 201
91.331 29.656 979.580 197 193 192
91.831 21.156 980.824 235 226 215
91.831 21.656 981.233 235 233 232
91.831 22.156 981.479 196 219 239
91.831 22.656 981.572 133 189 228
91.831 23.156 981.603 115 187 236
91.831 23.656 981.543 110 186 238
91.831 24.156 981.464 107 185 237
91.831 24.656 981.393 107 188 238
91.831 25.156 981.314 108 188 238
91.831 25.656 981.243 111 187 236
91.831 26.156 981.156 115 187 235
91.831 26.656 981.034 123 187 238
91.831 27.156 980.792 130 175 214
91.831 27.656 980.523 123 145 173
91.831 28.156 980.162 123 132 149
91.831 28.656 979.917 136 139 148
91.831 29.156 979.681 175 171 175
91.831 29.656 979.583 218 212 207
92.331 21.156 980.630 233 225 213
92.331 21.656 981.050 235 231 226
92.331 22.156 981.319 213 227 238
92.331 22.656 981.427 156 201 232
92.331 23.156 981.462 119 186 231
92.331 23.656 981.434 113 185 236
92.331 24.156 981.384 111 187 238
92.331 24.656 981.317 110 187 237
92.331 25.156 981.250 112 187 236
92.331 25.656 981.177 113 184 233
92.331 26.156 981.072 118 184 231
92.331 26.656 980.939 122 183 229
92.331 27.156 980.643 138 179 217
92.331 27.656 980.377 131 151 176
92.331 28.156 980.104 128 136 151
92.331 28.656 979.835 141 142 147
92.331 29.156 979.659 171 168 165
92.331 29.656 979.573 208 199 190
92.331 30.156 979.454 225 215 205
92.831 21.656 980.730 233 225 219
92.831 22.156 981.065 220 227 234
92.831 22.656 981.221 179 213 239
92.831 23.156 981.269 131 190 232
92.831 23.656 981.285 116 184 235
92.831 24.156 981.269 115 184 235
92.831 24.656 981.217 116 184 236
92.831 25.156 981.152 118 184 235
92.831 25.656 981.053 119 181 231
92.831 26.156 980.932 120 179 225
92.831 26.656 980.751 125 175 216
92.831 27.156 980.479 135 168 198
92.831 27.656 980.197 136 149 167
92.831 28.156 979.981 158 158 167
92.831 28.656 979.739 187 181 180
92.831 29.156 979.607 220 208 200
92.831 29.656 979.526 224 213 200
92.831 30.156 979.425 227 217 202
93.331 21.656 980.410 231 223 215
93.331 22.156 980.716 214 216 221
93.331 22.656 980.923 171 190 206
93.331 23.156 981.017 148 193 228
93.331 23.656 981.113 122 184 231
93.331 24.156 981.140 124 184 228
93.331 24.656 981.073 129 183 228
93.331 25.156 980.995 131 179 218
93.331 25.656 980.909 132 168 204
93.331 26.156 980.744 126 157 188
93.331 26.656 980.528 131 153 177
93.331 27.156 980.262 143 157 173
93.331 27.656 980.044 166 167 171
93.331 28.156 979.874 198 192 191
93.331 28.656 979.674 216 208 200
93.331 29.156 979.541 225 215 205
93.331 29.656 979.487 231 218 205
93.331 30.156 979.409 232 219 204
93.831 21.656 980.220 232 222 214
93.831 22.156 980.423 218 218 218
93.831 22.656 980.621 173 185 196
93.831 23.156 980.729 155 184 208
