56.831 -1.844 981.059 130 193 235
56.831 -1.344 981.073 131 194 237
56.831 -0.844 981.067 134 194 238
56.831 -0.344 981.057 135 193 238
56.831 0.156 981.039 139 192 239
56.831 0.656 980.956 141 192 237
56.831 1.156 980.772 148 191 229
56.831 1.656 980.576 133 159 187
56.831 2.156 980.218 125 136 152
56.831 2.656 979.966 137 136 143
56.831 3.156 979.755 168 157 153
56.831 3.656 979.631 216 198 186
56.831 4.156 979.565 228 210 196
57.331 -5.844 979.492 235 231 224
57.331 -5.344 979.569 233 231 225
57.331 -4.844 979.792 227 228 224
57.331 -4.344 980.203 219 227 232
57.331 -3.844 980.671 196 219 236
57.331 -3.344 980.975 156 199 231
57.331 -2.844 981.101 134 190 235
57.331 -2.344 981.143 130 191 238
57.331 -1.844 981.173 130 192 239
57.331 -1.344 981.184 131 194 238
57.331 -0.844 981.173 132 194 238
57.331 -0.344 981.144 134 194 238
57.331 0.156 981.117 137 193 238
57.331 0.656 981.054 138 193 239
57.331 1.156 980.883 143 194 233
57.331 1.656 980.617 140 173 205
57.331 2.156 980.339 122 138 159
57.331 2.656 980.103 127 131 144
57.331 3.156 979.880 151 144 148
57.331 3.656 979.711 201 188 182
57.331 4.156 979.605 228 212 198
57.831 -5.344 979.562 208 203 199
57.831 -4.844 979.783 228 227 224
57.831 -4.344 980.226 222 226 230
57.831 -3.844 980.697 202 221 238
57.831 -3.344 980.984 161 198 230
57.831 -2.844 981.119 138 192 237
57.831 -2.344 981.191 133 191 240
57.831 -1.844 981.222 134 192 241
57.831 -1.344 981.224 132 193 240
57.831 -0.844 981.216 132 195 239
57.831 -0.344 981.192 131 195 239
57.831 0.156 981.149 132 194 239
57.831 0.656 981.085 132 194 239
57.831 1.156 980.910 140 195 236
57.831 1.656 980.652 149 186 221
57.831 2.156 980.441 125 145 171
57.831 2.656 980.169 123 131 149
57.831 3.156 979.991 140 137 146
57.831 3.656 979.828 183 171 172
57.831 4.156 979.642 222 210 196
58.331 -5.344 979.531 230 225 218
58.331 -4.844 979.746 234 233 229
58.331 -4.344 980.203 227 228 229
58.331 -3.844 980.673 218 225 236
58.331 -3.344 980.956 179 205 230
58.331 -2.844 981.111 143 196 236
58.331 -2.344 981.196 131 193 236
58.331 -1.844 981.233 130 194 238
58.331 -1.344 981.243 131 195 241
58.331 -0.844 981.241 130 195 241
58.331 -0.344 981.223 129 194 240
58.331 0.156 981.192 130 194 240
58.331 0.656 981.139 130 194 237
58.331 1.156 981.006 141 195 235
58.331 1.656 980.741 148 195 231
58.331 2.156 980.559 127 157 186
58.331 2.656 980.239 119 134 150
58.331 3.156 980.057 134 135 142
58.331 3.656 979.943 171 163 161
58.331 4.156 979.705 216 206 193
58.831 -5.344 979.489 237 233 226
58.831 -4.844 979.664 233 233 229
58.831 -4.344 980.090 227 228 229
58.831 -3.844 980.537 222 227 237
58.831 -3.344 980.860 194 217 241
58.831 -2.844 981.082 151 199 236
58.831 -2.344 981.192 134 194 236
58.831 -1.844 981.238 131 194 238
58.831 -1.344 981.257 131 195 241
58.831 -0.844 981.265 128 194 241
58.831 -0.344 981.243 128 194 241
58.831 0.156 981.219 130 194 240
58.831 0.656 981.167 129 193 238
58.831 1.156 981.036 135 193 237
58.831 1.656 980.856 145 193 233
58.831 2.156 980.647 136 170 204
58.831 2.656 980.324 119 136 157
58.831 3.156 980.142 132 134 143
58.831 3.656 980.039 162 154 153
58.831 4.156 979.782 203 193 182
58.831 4.656 979.624 221 211 198
59.331 -5.344 979.484 240 237 230
59.331 -4.844 979.617 236 236 231
59.331 -4.344 979.953 228 228 228
59.331 -3.844 980.330 217 219 226
59.331 -3.344 980.701 187 204 224
59.331 -2.844 981.021 159 199 232
59.331 -2.344 981.163 136 193 235
59.331 -1.844 981.215 131 193 237
59.331 -1.344 981.246 131 195 239
59.331 -0.844 981.276 127 195 240
59.331 -0.344 981.265 127 195 242
59.331 0.156 981.233 127 194 239
59.331 0.656 981.191 128 193 239
59.331 1.156 981.084 130 193 240
59.331 1.656 980.948 135 190 234
59.331 2.156 980.719 142 180 217
59.331 2.656 980.398 122 142 167
59.331 3.156 980.223 129 133 144
59.331 3.656 980.119 153 147 149
59.331 4.156 979.892 194 184 175
59.331 4.656 979.737 216 206 196
59.831 -5.344 979.493 241 238 233
59.831 -4.844 979.633 237 237 232
59.831 -4.344 979.913 233 233 230
59.831 -3.844 980.209 219 219 222
59.831 -3.344 980.582 172 185 200
59.831 -2.844 980.957 161 194 222
59.831 -2.344 981.136 142 194 234
59.831 -1.844 981.196 132 192 236
59.831 -1.344 981.237 129 193 237
59.831 -0.844 981.276 126 194 240
59.831 -0.344 981.281 127 195 242
59.831 0.156 981.243 126 193 241
59.831 0.656 981.214 127 193 241
59.831 1.156 981.134 128 194 241
59.831 1.656 981.045 133 193 237
59.831 2.156 980.815 146 189 227
59.831 2.656 980.512 128 153 181
59.831 3.156 980.339 127 134 148
59.831 3.656 980.199 148 143 148
59.831 4.156 980.016 181 170 166
59.831 4.656 979.863 211 201 192
60.331 -5.344 979.497 241 238 233
60.331 -4.844 979.617 237 237 232
60.331 -4.344 979.830 234 233 229
60.331 -3.844 980.074 228 225 226
60.331 -3.344 980.528 215 223 234
60.331 -2.844 980.940 184 210 235
60.331 -2.344 981.124 148 197 236
60.331 -1.844 981.182 134 192 236
60.331 -1.344 981.226 129 193 237
60.331 -0.844 981.274 125 194 240
60.331 -0.344 981.283 125 196 242
60.331 0.156 981.254 127 195 242
60.331 0.656 981.225 127 193 241
60.331 1.156 981.173 127 193 239
60.331 1.656 981.075 133 192 237
60.331 2.156 980.879 150 196 235
60.331 2.656 980.580 142 169 198
60.331 3.156 980.445 127 137 152
60.331 3.656 980.257 141 138 145
60.331 4.156 980.080 170 161 158
60.331 4.656 979.973 207 198 191
60.331 5.156 979.680 224 214 204
60.831 -4.844 979.572 235 234 230
60.831 -4.344 979.729 234 233 227
60.831 -3.844 979.987 233 230 228
60.831 -3.344 980.496 221 226 236
60.831 -2.844 980.913 200 223 243
60.831 -2.344 981.109 156 202 240
60.831 -1.844 981.190 136 192 237
60.831 -1.344 981.247 130 193 238
60.831 -0.844 981.283 125 194 240
60.831 -0.344 981.293 124 196 242
60.831 0.156 981.281 127 195 242
60.831 0.656 981.250 128 194 242
60.831 1.156 981.202 129 193 237
60.831 1.656 981.100 134 193 237
60.831 2.156 980.895 151 197 237
60.831 2.656 980.652 155 184 214
60.831 3.156 980.485 131 142 160
60.831 3.656 980.297 137 136 146
60.831 4.156 980.147 164 154 154
60.831 4.656 980.002 201 192 186
60.831 5.156 979.713 225 216 206
61.331 -4.844 979.542 233 232 225
61.331 -4.344 979.687 234 233 227
61.331 -3.844 979.922 234 231 226
61.331 -3.344 980.393 226 230 232
61.331 -2.844 980.820 214 230 241
61.331 -2.344 981.078 167 205 236
61.331 -1.844 981.212 140 195 234
61.331 -1.344 981.271 126 193 237
61.331 -0.844 981.289 125 195 244
61.331 -0.344 981.303 127 194 242
61.331 0.156 981.309 127 195 242
61.331 0.656 981.289 126 195 242
61.331 1.156 981.238 127 194 239
61.331 1.656 981.132 133 193 237
61.331 2.156 980.953 148 198 240
61.331 2.656 980.734 158 195 231
61.331 3.156 980.524 133 151 176
61.331 3.656 980.377 134 136 152
61.331 4.156 980.234 155 147 152
61.331 4.656 979.990 189 179 177
61.331 5.156 979.793 221 211 200
61.331 5.656 979.626 226 218 204
61.831 -4.844 979.516 233 233 226
61.831 -4.344 979.639 237 234 229
61.831 -3.844 979.815 234 232 227
61.831 -3.344 980.267 230 231 231
61.831 -2.844 980.731 220 232 239
61.831 -2.344 981.032 180 212 240
61.831 -1.844 981.206 146 196 233
61.831 -1.344 981.273 127 193 235
61.831 -0.844 981.287 125 194 241
61.831 -0.344 981.315 126 193 241
61.831 0.156 981.328 125 194 241
61.831 0.656 981.316 123 195 241
61.831 1.156 981.281 126 194 240
61.831 1.656 981.170 130 192 236
61.831 2.156 981.023 143 195 238
61.831 2.656 980.805 154 196 233
61.831 3.156 980.583 140 162 190
61.831 3.656 980.457 129 136 153
61.831 4.156 980.291 147 143 151
61.831 4.656 980.015 180 171 170
61.831 5.156 979.892 217 207 197
61.831 5.656 979.680 227 219 206
62.331 -4.344 979.577 237 234 229
62.331 -3.844 979.722 236 232 227
62.331 -3.344 980.173 231 231 229
62.331 -2.844 980.652 224 233 239
62.331 -2.344 980.938 189 215 238
62.331 -1.844 981.137 155 199 233
62.331 -1.344 981.250 133 195 235
62.331 -0.844 981.283 124 192 238
62.331 -0.344 981.314 127 193 241
62.331 0.156 981.326 125 194 241
62.331 0.656 981.320 123 195 241
62.331 1.156 981.300 124 194 240
62.331 1.656 981.215 130 193 238
62.331 2.156 981.060 139 195 237
62.331 2.656 980.902 152 196 236
62.331 3.156 980.700 147 174 205
62.331 3.656 980.506 128 140 162
62.331 4.156 980.343 140 140 150
62.331 4.656 980.143 168 161 161
62.331 5.156 979.966 206 197 189
62.331 5.656 979.731 224 216 205
62.831 -4.344 979.517 236 233 228
62.831 -3.844 979.632 237 233 226
62.831 -3.344 979.964 233 230 226
62.831 -2.844 980.434 227 232 235
62.831 -2.344 980.794 207 224 242
62.831 -1.844 981.042 167 202 232
62.831 -1.344 981.214 137 194 231
62.831 -0.844 981.275 128 193 237
62.831 -0.344 981.304 128 193 239
62.831 0.156 981.315 125 193 241
62.831 0.656 981.316 123 195 242
62.831 1.156 981.300 125 193 242
62.831 1.656 981.237 130 194 238
62.831 2.156 981.099 137 196 239
62.831 2.656 980.977 148 198 238
62.831 3.156 980.802 155 190 223
62.831 3.656 980.575 127 146 173
62.831 4.156 980.422 135 140 154
62.831 4.656 980.276 157 153 158
62.831 5.156 980.004 196 186 182
62.831 5.656 979.750 224 215 205
62.831 6.156 979.682 228 220 209
63.331 -3.844 979.594 237 233 226
63.331 -3.344 979.815 235 231 225
63.331 -2.844 980.262 230 230 229
63.331 -2.344 980.721 220 230 241
63.331 -1.844 980.985 186 214 239
63.331 -1.344 981.170 147 197 232
63.331 -0.844 981.259 131 193 237
63.331 -0.344 981.299 129 193 238
63.331 0.156 981.312 126 193 241
63.331 0.656 981.315 124 195 243
63.331 1.156 981.296 126 193 242
63.331 1.656 981.250 130 194 240
63.331 2.156 981.136 134 196 239
63.331 2.656 981.012 142 197 239
63.331 3.156 980.855 153 196 234
63.331 3.656 980.652 130 159 189
63.331 4.156 980.497 129 138 157
63.331 4.656 980.350 147 146 154
63.331 5.156 980.020 184 174 173
63.331 5.656 979.813 218 209 202
63.331 6.156 979.735 227 218 209
63.831 -3.844 979.594 238 233 225
63.831 -3.344 979.798 237 231 222
63.831 -2.844 980.211 231 227 224
63.831 -2.344 980.677 217 220 230
63.831 -1.844 980.922 186 208 227
63.831 -1.344 981.108 153 199 232
63.831 -0.844 981.227 133 193 236
63.831 -0.344 981.284 129 193 239
63.831 0.156 981.306 126 194 241
63.831 0.656 981.313 124 195 244
63.831 1.156 981.295 125 194 242
63.831 1.656 981.255 128 195 241
63.831 2.156 981.151 131 195 239
63.831 2.656 981.055 136 196 239
63.831 3.156 980.900 147 195 235
63.831 3.656 980.715 137 172 208
63.831 4.156 980.529 127 140 161
63.831 4.656 980.375 140 141 153
63.831 5.156 980.104 170 163 164
63.831 5.656 979.923 209 200 195
63.831 6.156 979.839 227 218 209
64.331 -3.844 979.556 239 233 226
64.331 -3.344 979.721 237 232 224
64.331 -2.844 980.070 231 226 222
64.331 -2.344 980.533 218 217 222
64.331 -1.844 980.837 179 195 211
64.331 -1.344 981.055 159 199 231
64.331 -0.844 981.188 135 193 234
64.331 -0.344 981.258 129 194 239
64.331 0.156 981.293 126 194 241
64.331 0.656 981.305 125 194 243
64.331 1.156 981.293 125 194 243
64.331 1.656 981.254 128 196 241
64.331 2.156 981.155 128 196 239
64.331 2.656 981.070 131 194 238
64.331 3.156 980.894 141 193 234
64.331 3.656 980.759 148 186 223
64.331 4.156 980.576 131 147 170
64.331 4.656 980.386 134 138 151
64.331 5.156 980.253 160 153 155
64.331 5.656 980.020 196 187 182
64.331 6.156 979.924 226 216 207
64.831 -3.344 979.618 236 233 228
64.831 -2.844 979.891 233 230 222
64.831 -2.344 980.326 223 223 223
64.831 -1.844 980.734 204 213 226
64.831 -1.344 981.007 176 204 233
64.831 -0.844 981.159 141 194 234
64.831 -0.344 981.237 125 193 238
64.831 0.156 981.277 126 194 240
64.831 0.656 981.289 127 193 240
64.831 1.156 981.283 125 194 243
64.831 1.656 981.252 128 196 241
64.831 2.156 981.172 128 196 241
64.831 2.656 981.060 130 194 238
64.831 3.156 980.894 144 197 237
64.831 3.656 980.797 155 195 231
64.831 4.156 980.622 138 158 185
64.831 4.656 980.432 133 139 155
64.831 5.156 980.351 153 146 149
64.831 5.656 980.110 190 176 173
64.831 6.156 979.961 218 206 197
65.331 -3.344 979.556 238 235 230
65.331 -2.844 979.777 233 231 223
65.331 -2.344 980.120 224 223 220
65.331 -1.844 980.576 222 230 236
65.331 -1.344 980.935 197 221 245
65.331 -0.844 981.139 152 200 238
65.331 -0.344 981.225 128 192 236
65.331 0.156 981.266 127 193 241
65.331 0.656 981.277 128 193 242
65.331 1.156 981.281 125 194 244
65.331 1.656 981.255 128 196 241
65.331 2.156 981.194 128 196 241
65.331 2.656 981.074 131 196 240
65.331 3.156 980.916 141 195 237
65.331 3.656 980.830 154 196 235
65.331 4.156 980.645 148 169 197
65.331 4.656 980.486 132 140 159
65.331 5.156 980.410 147 142 148
65.331 5.656 980.204 177 167 164
65.331 6.156 979.984 207 196 189
65.331 6.656 979.838 226 216 205
65.831 -3.344 979.520 238 235 230
65.831 -2.844 979.711 235 233 225
65.831 -2.344 979.949 227 226 221
65.831 -1.844 980.409 224 228 231
65.831 -1.344 980.862 207 227 244
65.831 -0.844 981.114 164 206 238
65.831 -0.344 981.211 132 193 233
65.831 0.156 981.257 129 193 240
65.831 0.656 981.271 127 192 242
65.831 1.156 981.282 125 194 243
65.831 1.656 981.264 128 196 241
65.831 2.156 981.226 129 196 241
65.831 2.656 981.154 132 196 242
65.831 3.156 981.004 140 196 237
65.831 3.656 980.915 154 200 236
65.831 4.156 980.706 156 184 213
65.831 4.656 980.529 133 147 167
65.831 5.156 980.460 141 140 150
65.831 5.656 980.265 166 156 157
65.831 6.156 980.029 199 190 185
65.831 6.656 979.902 220 210 200
66.331 -3.344 979.501 241 238 233
66.331 -2.844 979.641 236 233 226
66.331 -2.344 979.837 232 228 221
66.331 -1.844 980.233 227 227 227
66.331 -1.344 980.749 217 232 243
66.331 -0.844 981.083 176 210 237
66.331 -0.344 981.203 141 195 233
66.331 0.156 981.249 131 192 238
66.331 0.656 981.270 126 192 241
66.331 1.156 981.291 125 194 242
66.331 1.656 981.276 128 196 241
66.331 2.156 981.261 129 196 241
66.331 2.656 981.227 130 195 241
66.331 3.156 981.133 139 196 239
66.331 3.656 981.020 150 198 236
66.331 4.156 980.830 160 192 224
66.331 4.656 980.593 136 154 178
66.331 5.156 980.493 135 138 151
66.331 5.656 980.337 158 152 156
66.331 6.156 980.132 190 183 178
66.331 6.656 979.955 216 208 197
66.831 -3.344 979.495 239 236 231
66.831 -2.844 979.593 236 233 226
66.831 -2.344 979.774 233 230 220
66.831 -1.844 980.103 230 227 225
66.831 -1.344 980.634 223 232 239
66.831 -0.844 981.047 183 211 232
66.831 -0.344 981.197 146 196 229
66.831 0.156 981.243 133 193 236
66.831 0.656 981.274 128 192 241
66.831 1.156 981.296 125 194 242
66.831 1.656 981.294 129 194 240
66.831 2.156 981.286 129 195 241
66.831 2.656 981.264 129 194 242
66.831 3.156 981.201 135 195 238
66.831 3.656 981.099 148 199 237
66.831 4.156 980.946 161 198 233
66.831 4.656 980.678 143 166 192
66.831 5.156 980.541 130 137 152
66.831 5.656 980.408 148 144 152
66.831 6.156 980.211 180 173 172
66.831 6.656 980.007 210 201 192
66.831 7.156 979.933 227 216 204
67.331 -3.344 979.472 237 234 229
67.331 -2.844 979.567 234 232 224
67.331 -2.344 979.747 235 230 221
67.331 -1.844 980.058 233 227 224
67.331 -1.344 980.485 227 232 237
67.331 -0.844 980.944 193 219 236
67.331 -0.344 981.170 156 203 233
67.331 0.156 981.245 134 194 235
67.331 0.656 981.286 129 192 240
67.331 1.156 981.302 127 195 243
67.331 1.656 981.306 130 195 241
67.331 2.156 981.305 130 195 243
67.331 2.656 981.292 130 195 242
67.331 3.156 981.239 134 194 238
67.331 3.656 981.169 146 198 237
67.331 4.156 981.037 162 202 237
67.331 4.656 980.757 156 183 209
67.331 5.156 980.585 134 142 160
67.331 5.656 980.481 141 140 149
67.331 6.156 980.291 168 160 160
67.331 6.656 980.106 198 189 180
67.331 7.156 979.957 223 212 199
67.831 -2.844 979.567 237 231 222
67.831 -2.344 979.746 233 228 222
67.831 -1.844 980.021 233 227 224
67.831 -1.344 980.372 228 226 230
67.831 -0.844 980.804 213 227 241
67.831 -0.344 981.097 172 210 238
67.831 0.156 981.223 136 193 233
67.831 0.656 981.287 126 193 236
67.831 1.156 981.310 126 197 239
67.831 1.656 981.318 125 197 240
67.831 2.156 981.322 126 196 243
67.831 2.656 981.314 128 196 241
67.831 3.156 981.284 132 195 238
67.831 3.656 981.233 140 199 239
67.831 4.156 981.058 157 201 236
67.831 4.656 980.849 163 196 226
67.831 5.156 980.634 136 151 177
67.831 5.656 980.517 136 136 152
67.831 6.156 980.346 155 149 153
67.831 6.656 980.155 188 179 172
67.831 7.156 979.959 217 207 195
68.331 -2.844 979.555 235 231 222
68.331 -2.344 979.727 235 233 225
68.331 -1.844 979.962 234 230 225
68.331 -1.344 980.309 227 225 225
68.331 -0.844 980.711 213 222 235
68.331 -0.344 981.016 180 211 236
68.331 0.156 981.194 144 197 233
68.331 0.656 981.284 130 193 236
68.331 1.156 981.316 128 196 238
68.331 1.656 981.330 126 196 240
68.331 2.156 981.337 126 197 243
68.331 2.656 981.346 128 196 243
68.331 3.156 981.330 129 195 238
68.331 3.656 981.277 134 196 237
68.331 4.156 981.075 150 199 237
68.331 4.656 980.935 163 200 236
68.331 5.156 980.739 144 166 194
68.331 5.656 980.535 134 139 158
68.331 6.156 980.404 147 143 150
68.331 6.656 980.167 175 168 162
68.331 7.156 979.936 209 200 190
68.331 7.656 979.847 228 216 205
68.831 -2.344 979.685 235 232 225
68.831 -1.844 979.931 235 232 226
68.831 -1.344 980.292 227 226 225
68.831 -0.844 980.676 203 210 218
68.831 -0.344 980.955 170 194 215
68.831 0.156 981.175 151 195 228
68.831 0.656 981.290 135 192 232
68.831 1.156 981.330 131 195 238
68.831 1.656 981.354 129 195 240
68.831 2.156 981.363 127 196 243
68.831 2.656 981.375 126 197 243
68.831 3.156 981.361 127 196 239
68.831 3.656 981.295 130 196 237
68.831 4.156 981.145 140 197 238
68.831 4.656 980.995 150 196 236
68.831 5.156 980.808 145 175 208
68.831 5.656 980.589 130 143 166
68.831 6.156 980.433 141 141 151
68.831 6.656 980.193 164 156 155
68.831 7.156 979.961 199 188 180
68.831 7.656 979.861 225 212 202
69.331 -2.344 979.586 237 233 228
69.331 -1.844 979.892 233 231 224
69.331 -1.344 980.266 228 227 223
69.331 -0.844 980.612 215 217 222
69.331 -0.344 980.895 194 207 224
69.331 0.156 981.165 169 202 229
69.331 0.656 981.299 144 194 229
69.331 1.156 981.338 134 194 238
69.331 1.656 981.373 130 194 240
69.331 2.156 981.386 127 195 242
69.331 2.656 981.383 125 195 244
69.331 3.156 981.379 125 195 241
69.331 3.656 981.311 127 195 238
69.331 4.156 981.179 131 194 239
69.331 4.656 981.033 140 195 239
69.331 5.156 980.860 148 186 225
69.331 5.656 980.685 130 150 177
69.331 6.156 980.447 135 140 154
69.331 6.656 980.262 156 150 154
69.331 7.156 980.002 186 176 172
69.331 7.656 979.831 216 206 197
69.831 -2.344 979.523 236 232 227
69.831 -1.844 979.807 233 232 224
69.831 -1.344 980.120 230 231 223
69.831 -0.844 980.453 226 225 224
69.831 -0.344 980.805 224 228 241
69.831 0.156 981.140 184 208 232
69.831 0.656 981.304 156 200 232
69.831 1.156 981.347 136 196 239
69.831 1.656 981.369 130 193 238
69.831 2.156 981.375 126 194 241
69.831 2.656 981.375 125 195 244
69.831 3.156 981.381 125 195 243
69.831 3.656 981.319 126 195 240
69.831 4.156 981.200 127 195 240
69.831 4.656 981.107 135 195 239
69.831 5.156 980.933 147 191 231
69.831 5.656 980.730 135 161 191
69.831 6.156 980.467 131 140 158
69.831 6.656 980.322 146 143 150
69.831 7.156 980.055 177 168 165
69.831 7.656 979.839 210 200 191
69.831 8.156 979.768 226 216 206
70.331 -2.344 979.515 237 233 229
70.331 -1.844 979.664 234 232 225
70.331 -1.344 979.909 232 233 222
70.331 -0.844 980.178 233 227 225
70.331 -0.344 980.597 233 231 241
70.331 0.156 981.040 202 219 240
70.331 0.656 981.276 162 201 230
70.331 1.156 981.351 133 193 234
70.331 1.656 981.368 131 194 239
70.331 2.156 981.371 126 193 241
70.331 2.656 981.367 125 195 244
70.331 3.156 981.375 125 195 244
70.331 3.656 981.326 126 195 242
70.331 4.156 981.238 125 193 237
70.331 4.656 981.146 131 194 238
70.331 5.156 980.956 147 196 236
70.331 5.656 980.765 142 171 204
70.331 6.156 980.487 130 142 162
70.331 6.656 980.396 142 139 149
70.331 7.156 980.104 169 159 160
70.331 7.656 979.910 202 191 185
70.331 8.156 979.786 225 215 205
70.831 -1.844 979.606 235 233 226
70.831 -1.344 979.751 233 231 222
70.831 -0.844 980.017 233 226 222
70.831 -0.344 980.422 233 231 237
70.831 0.156 980.863 210 225 244
70.831 0.656 981.199 169 205 232
70.831 1.156 981.310 135 194 234
70.831 1.656 981.336 128 194 239
70.831 2.156 981.355 125 194 243
70.831 2.656 981.359 126 195 244
70.831 3.156 981.362 126 194 243
70.831 3.656 981.326 124 195 243
70.831 4.156 981.276 126 195 240
70.831 4.656 981.186 131 194 237
70.831 5.156 980.986 144 194 234
70.831 5.656 980.866 152 186 221
70.831 6.156 980.534 131 148 173
70.831 6.656 980.365 136 138 151
70.831 7.156 980.111 155 148 150
70.831 7.656 979.925 189 180 174
70.831 8.156 979.822 220 210 199
71.331 -1.844 979.575 234 233 228
71.331 -1.344 979.705 236 232 227
71.331 -0.844 979.974 234 228 225
71.331 -0.344 980.370 230 228 230
71.331 0.156 980.708 215 230 242
71.331 0.656 981.104 172 204 229
71.331 1.156 981.271 141 196 234
71.331 1.656 981.309 128 195 237
71.331 2.156 981.328 123 194 242
71.331 2.656 981.338 125 194 243
71.331 3.156 981.335 127 194 242
71.331 3.656 981.320 122 196 243
71.331 4.156 981.292 123 195 242
71.331 4.656 981.210 127 192 236
71.331 5.156 981.064 139 195 235
71.331 5.656 980.911 155 198 236
71.331 6.156 980.549 134 157 186
71.331 6.656 980.367 130 137 153
71.331 7.156 980.141 144 139 147
71.331 7.656 979.909 174 169 166
71.331 8.156 979.854 212 204 194
71.831 -1.344 979.686 237 233 229
71.831 -0.844 979.891 237 231 227
71.831 -0.344 980.295 228 228 227
71.831 0.156 980.634 218 231 240
71.831 0.656 980.970 185 213 233
71.831 1.156 981.213 147 199 234
71.831 1.656 981.283 129 195 235
71.831 2.156 981.293 124 196 242
71.831 2.656 981.315 125 194 243
71.831 3.156 981.318 126 196 243
71.831 3.656 981.311 121 197 244
71.831 4.156 981.292 123 196 244
71.831 4.656 981.217 126 194 240
71.831 5.156 981.097 137 195 239
71.831 5.656 980.952 147 196 237
71.831 6.156 980.563 138 169 202
71.831 6.656 980.468 127 140 161
71.831 7.156 980.223 137 138 151
71.831 7.656 979.956 159 159 163
71.831 8.156 979.881 196 196 193
72.331 -1.344 979.639 236 233 229
72.331 -0.844 979.753 236 233 227
72.331 -0.344 980.147 230 228 224
72.331 0.156 980.593 222 231 235
72.331 0.656 980.871 203 226 241
72.331 1.156 981.140 158 205 237
72.331 1.656 981.253 133 196 234
72.331 2.156 981.269 124 196 240
72.331 2.656 981.285 124 195 243
72.331 3.156 981.291 124 196 242
72.331 3.656 981.290 121 197 243
72.331 4.156 981.276 121 195 244
72.331 4.656 981.224 125 194 243
72.331 5.156 981.138 130 194 239
72.331 5.656 980.993 139 194 238
72.331 6.156 980.642 141 181 216
72.331 6.656 980.498 125 145 171
72.331 7.156 980.198 126 136 155
72.331 7.656 980.050 156 162 176
72.331 8.156 979.924 207 213 218
72.331 8.656 979.763 224 230 232
72.831 -1.344 979.611 234 233 228
72.831 -0.844 979.721 235 232 224
72.831 -0.344 979.989 233 231 225
72.831 0.156 980.428 222 226 230
72.831 0.656 980.663 208 223 237
72.831 1.156 981.013 170 209 238
72.831 1.656 981.235 138 195 232
72.831 2.156 981.276 126 196 239
72.831 2.656 981.285 124 196 242
72.831 3.156 981.288 125 195 242
72.831 3.656 981.285 123 197 243
72.831 4.156 981.250 124 196 246
72.831 4.656 981.221 124 194 243
72.831 5.156 981.146 127 195 241
72.831 5.656 980.965 134 194 239
72.831 6.156 980.776 142 188 228
72.831 6.656 980.516 125 153 183
72.831 7.156 980.232 121 136 162
72.831 7.656 980.112 145 154 174
72.831 8.156 979.963 184 192 204
72.831 8.656 979.781 192 194 204
73.331 -1.344 979.573 233 233 227
73.331 -0.844 979.711 235 233 224
73.331 -0.344 980.001 233 231 224
73.331 0.156 980.356 227 227 229
73.331 0.656 980.604 195 205 215
73.331 1.156 980.954 163 194 221
73.331 1.656 981.187 143 197 232
73.331 2.156 981.253 128 195 238
73.331 2.656 981.281 125 196 241
73.331 3.156 981.286 127 195 242
73.331 3.656 981.287 124 195 243
73.331 4.156 981.248 125 195 244
73.331 4.656 981.224 124 194 241
73.331 5.156 981.137 126 194 241
73.331 5.656 980.909 129 194 240
73.331 6.156 980.796 142 193 235
73.331 6.656 980.538 133 167 199
73.331 7.156 980.316 118 136 165
73.331 7.656 980.158 132 144 168
73.331 8.156 979.984 170 173 190
73.331 8.656 979.891 210 203 219
73.831 -1.344 979.551 233 234 226
73.831 -0.844 979.718 234 233 223
73.831 -0.344 979.958 235 233 227
73.831 0.156 980.258 228 228 229
73.831 0.656 980.575 208 214 224
73.831 1.156 980.917 176 202 227
73.831 1.656 981.128 149 199 233
73.831 2.156 981.241 129 194 237
73.831 2.656 981.287 127 195 241
73.831 3.156 981.293 127 194 242
73.831 3.656 981.304 125 195 243
73.831 4.156 981.259 126 195 244
73.831 4.656 981.239 126 194 241
73.831 5.156 981.127 124 195 241
73.831 5.656 980.989 127 194 239
73.831 6.156 980.809 140 194 236
73.831 6.656 980.556 141 177 212
73.831 7.156 980.439 117 140 170
73.831 7.656 980.183 124 137 161
73.831 8.156 979.993 156 156 176
73.831 8.656 979.914 200 188 208
73.831 9.156 979.675 222 210 229
74.331 -1.344 979.543 235 234 229
74.331 -0.844 979.707 234 234 226
74.331 -0.344 979.936 234 233 227
74.331 0.156 980.167 233 232 227
74.331 0.656 980.548 228 228 228
74.331 1.156 980.832 210 226 240
74.331 1.656 981.091 166 209 238
74.331 2.156 981.227 134 196 236
74.331 2.656 981.300 127 195 239
74.331 3.156 981.311 126 195 240
74.331 3.656 981.318 124 196 243
74.331 4.156 981.290 124 197 242
74.331 4.656 981.261 125 195 244
74.331 5.156 981.194 125 194 244
74.331 5.656 981.053 127 194 240
74.331 6.156 980.868 138 195 236
74.331 6.656 980.637 144 188 225
74.331 7.156 980.461 119 149 180
74.331 7.656 980.194 117 132 159
74.331 8.156 980.012 147 152 172
74.331 8.656 979.929 199 199 211
74.331 9.156 979.723 227 233 241
74.831 -0.844 979.652 234 233 227
74.831 -0.344 979.853 233 233 226
74.831 0.156 980.022 233 232 227
74.831 0.656 980.501 233 233 232
74.831 1.156 980.837 217 231 242
74.831 1.656 981.071 176 214 241
74.831 2.156 981.215 139 197 236
74.831 2.656 981.302 128 194 237
74.831 3.156 981.328 126 195 240
74.831 3.656 981.331 124 195 243
74.831 4.156 981.317 124 197 242
74.831 4.656 981.279 125 195 244
74.831 5.156 981.233 125 195 245
74.831 5.656 981.093 127 193 240
74.831 6.156 980.979 134 194 236
74.831 6.656 980.764 150 195 234
74.831 7.156 980.502 129 161 194
74.831 7.656 980.235 110 129 155
74.831 8.156 980.072 128 136 156
74.831 8.656 979.975 168 171 183
74.831 9.156 979.775 196 203 212
74.831 9.656 979.648 223 233 242
75.331 -0.844 979.586 233 233 227
75.331 -0.344 979.746 233 233 227
75.331 0.156 979.917 233 233 227
75.331 0.656 980.385 233 233 230
75.331 1.156 980.795 221 232 238
75.331 1.656 981.021 187 215 237
75.331 2.156 981.191 147 197 233
75.331 2.656 981.299 131 193 237
75.331 3.156 981.336 126 195 240
75.331 3.656 981.339 125 196 242
75.331 4.156 981.330 124 197 242
75.331 4.656 981.312 125 195 244
75.331 5.156 981.258 124 194 243
75.331 5.656 981.195 126 194 242
75.331 6.156 981.016 133 194 237
75.331 6.656 980.844 146 195 236
75.331 7.156 980.604 140 176 212
75.331 7.656 980.293 111 135 163
75.331 8.156 980.178 122 132 155
75.331 8.656 980.006 163 169 183
75.331 9.156 979.822 212 222 230
75.331 9.656 979.690 231 244 251
75.831 -0.844 979.537 235 234 230
75.831 -0.344 979.648 234 233 228
75.831 0.156 979.770 234 233 228
75.831 0.656 980.064 234 233 228
75.831 1.156 980.626 227 232 235
75.831 1.656 980.932 204 225 239
75.831 2.156 981.159 160 203 234
75.831 2.656 981.280 133 193 236
75.831 3.156 981.327 127 195 241
75.831 3.656 981.338 126 195 240
75.831 4.156 981.335 124 196 242
75.831 4.656 981.325 125 195 244
75.831 5.156 981.313 124 194 243
75.831 5.656 981.247 124 195 242
75.831 6.156 981.108 130 195 239
75.831 6.656 980.917 143 197 240
75.831 7.156 980.629 145 187 225
75.831 7.656 980.331 119 146 176
75.831 8.156 980.215 119 133 157
75.831 8.656 980.026 164 172 187
75.831 9.156 979.826 222 233 239
75.831 9.656 979.701 231 244 250
76.331 -0.344 979.608 236 235 231
76.331 0.156 979.706 235 234 229
76.331 0.656 979.984 235 234 229
76.331 1.156 980.477 233 233 231
76.331 1.656 980.751 215 227 236
76.331 2.156 981.071 176 211 238
76.331 2.656 981.241 138 195 237
76.331 3.156 981.310 125 194 241
76.331 3.656 981.340 125 194 239
76.331 4.156 981.357 123 196 242
76.331 4.656 981.367 124 195 244
76.331 5.156 981.332 125 195 244
76.331 5.656 981.291 124 195 241
76.331 6.156 981.227 128 195 240
76.331 6.656 980.976 136 195 239
76.331 7.156 980.726 144 193 231
76.331 7.656 980.478 126 159 192
76.331 8.156 980.294 117 134 160
76.331 8.656 980.090 135 144 159
76.331 9.156 979.869 168 176 184
76.331 9.656 979.741 170 181 187
76.831 -0.344 979.572 237 236 232
76.831 0.156 979.715 236 235 230
76.831 0.656 979.970 236 236 228
76.831 1.156 980.345 233 230 227
76.831 1.656 980.579 208 216 223
76.831 2.156 980.964 171 201 226
76.831 2.656 981.190 142 197 237
76.831 3.156 981.306 127 195 242
76.831 3.656 981.360 126 194 238
76.831 4.156 981.390 122 195 241
76.831 4.656 981.393 123 194 243
76.831 5.156 981.352 124 194 243
76.831 5.656 981.311 122 194 240
76.831 6.156 981.227 125 195 240
76.831 6.656 981.039 131 193 239
76.831 7.156 980.909 143 193 234
76.831 7.656 980.626 136 172 207
76.831 8.156 980.421 121 142 168
76.831 8.656 980.212 124 133 150
76.831 9.156 979.981 172 179 188
76.831 9.656 979.750 163 168 177
76.831 10.156 979.620 157 160 171
77.331 -0.344 979.540 237 236 232
77.331 0.156 979.705 236 235 231
77.331 0.656 979.905 236 235 231
77.331 1.156 980.189 233 231 230
77.331 1.656 980.446 213 216 221
77.331 2.156 980.822 168 187 207
77.331 2.656 981.128 149 193 229
77.331 3.156 981.321 133 194 240
77.331 3.656 981.389 122 193 237
77.331 4.156 981.408 124 195 241
77.331 4.656 981.408 124 195 241
77.331 5.156 981.378 123 195 243
77.331 5.656 981.349 123 193 242
77.331 6.156 981.236 126 194 239
77.331 6.656 981.076 130 193 237
77.331 7.156 980.976 139 194 236
77.331 7.656 980.708 149 187 224
77.331 8.156 980.449 129 149 179
77.331 8.656 980.278 119 129 147
77.331 9.156 979.990 168 175 185
77.331 9.656 979.762 194 201 207
77.331 10.156 979.639 159 159 167
77.831 0.156 979.703 236 235 231
77.831 0.656 979.865 236 235 231
77.831 1.156 980.036 234 233 230
77.831 1.656 980.376 224 225 228
77.831 2.156 980.796 206 219 234
77.831 2.656 981.041 171 203 236
77.831 3.156 981.334 139 191 234
77.831 3.656 981.418 128 195 237
77.831 4.156 981.446 126 193 238
77.831 4.656 981.448 126 194 241
77.831 5.156 981.411 125 195 244
77.831 5.656 981.374 124 194 243
77.831 6.156 981.304 128 195 240
77.831 6.656 981.195 131 194 238
77.831 7.156 981.087 141 197 237
77.831 7.656 980.883 154 193 232
77.831 8.156 980.537 137 158 189
77.831 8.656 980.296 119 130 150
77.831 9.156 980.027 150 161 171
77.831 9.656 979.831 208 216 221
77.831 10.156 979.687 167 168 175
78.331 0.156 979.621 236 235 231
78.331 0.656 979.739 236 235 231
78.331 1.156 979.909 238 234 229
78.331 1.656 980.265 231 230 227
78.331 2.156 980.688 219 226 235
78.331 2.656 980.974 189 210 237
78.331 3.156 981.331 154 196 233
78.331 3.656 981.443 136 194 234
78.331 4.156 981.455 130 194 238
78.331 4.656 981.451 129 195 241
78.331 5.156 981.441 128 195 243
78.331 5.656 981.389 127 195 243
78.331 6.156 981.315 129 195 240
78.331 6.656 981.240 131 194 238
78.331 7.156 981.104 140 196 238
78.331 7.656 980.906 154 199 236
78.331 8.156 980.663 141 169 201
78.331 8.656 980.380 115 131 151
78.331 9.156 980.125 133 147 158
78.331 9.656 979.945 203 212 219
78.331 10.156 979.733 186 193 198
78.831 0.656 979.625 237 234 231
78.831 1.156 979.832 238 234 227
78.831 1.656 980.110 232 231 226
78.831 2.156 980.502 224 226 230
78.831 2.656 980.872 203 213 231
78.831 3.156 981.265 168 196 227
78.831 3.656 981.418 149 196 232
78.831 4.156 981.445 136 194 238
78.831 4.656 981.444 131 193 240
78.831 5.156 981.435 129 195 243
78.831 5.656 981.399 129 195 243
78.831 6.156 981.347 130 194 241
78.831 6.656 981.276 131 194 238
78.831 7.156 981.152 139 196 238
78.831 7.656 980.957 154 203 242
78.831 8.156 980.686 145 181 214
78.831 8.656 980.496 115 137 161
78.831 9.156 980.132 125 139 154
78.831 9.656 980.001 180 189 197
78.831 10.156 979.820 214 223 227
78.831 10.656 979.688 225 233 244
79.331 0.656 979.495 237 234 230
79.331 1.156 979.649 236 233 227
79.331 1.656 979.919 233 233 228
79.331 2.156 980.271 228 227 227
79.331 2.656 980.647 222 222 234
79.331 3.156 981.091 177 197 221
79.331 3.656 981.342 152 195 230
79.331 4.156 981.415 138 195 237
79.331 4.656 981.411 132 193 237
79.331 5.156 981.413 130 195 241
79.331 5.656 981.402 128 194 242
79.331 6.156 981.373 129 194 242
79.331 6.656 981.319 131 194 240
79.331 7.156 981.177 133 193 237
79.331 7.656 980.964 141 196 237
79.331 8.156 980.730 146 192 228
79.331 8.656 980.504 120 147 177
79.331 9.156 980.159 120 134 155
79.331 9.656 980.034 162 170 183
79.331 10.156 979.851 214 223 228
79.331 10.656 979.732 221 231 239
79.831 0.656 979.427 236 234 230
79.831 1.156 979.512 238 234 230
79.831 1.656 979.763 235 235 233
79.831 2.156 979.990 232 230 228
79.831 2.656 980.467 228 226 232
79.831 3.156 980.931 187 203 225
79.831 3.656 981.236 152 195 230
79.831 4.156 981.372 138 195 234
79.831 4.656 981.402 131 193 235
79.831 5.156 981.409 130 195 239
79.831 5.656 981.406 127 195 241
79.831 6.156 981.391 127 195 242
79.831 6.656 981.322 128 194 240
79.831 7.156 981.174 131 195 239
79.831 7.656 980.977 133 195 239
79.831 8.156 980.769 142 194 234
79.831 8.656 980.539 124 157 191
79.831 9.156 980.287 117 129 157
79.831 9.656 980.134 145 149 166
79.831 10.156 979.959 172 179 187
79.831 10.656 979.823 179 184 190
80.331 0.656 979.391 240 239 235
80.331 1.156 979.476 240 238 235
80.331 1.656 979.642 238 238 235
80.331 2.156 979.897 233 230 228
80.331 2.656 980.189 223 221 225
80.331 3.156 980.614 193 210 230
80.331 3.656 981.084 155 195 230
80.331 4.156 981.319 138 195 234
80.331 4.656 981.376 131 194 236
80.331 5.156 981.400 128 195 241
80.331 5.656 981.393 127 195 242
80.331 6.156 981.380 128 195 242
80.331 6.656 981.325 128 195 241
80.331 7.156 981.177 128 195 240
80.331 7.656 980.996 132 196 240
80.331 8.156 980.806 139 195 236
80.331 8.656 980.602 137 172 210
80.331 9.156 980.363 118 130 161
80.331 9.656 980.270 128 133 154
80.331 10.156 980.100 161 167 179
80.331 10.656 979.909 190 190 200
80.831 0.656 979.368 241 240 238
80.831 1.156 979.441 240 240 238
80.831 1.656 979.574 240 239 235
80.831 2.156 979.847 237 234 230
80.831 2.656 980.141 223 224 228
80.831 3.156 980.530 186 202 219
80.831 3.656 981.033 162 193 225
80.831 4.156 981.233 141 195 235
80.831 4.656 981.307 132 194 238
80.831 5.156 981.379 126 193 242
80.831 5.656 981.385 127 193 241
80.831 6.156 981.364 127 194 239
80.831 6.656 981.322 126 194 241
80.831 7.156 981.194 126 195 242
80.831 7.656 981.035 131 195 239
80.831 8.156 980.822 143 194 237
80.831 8.656 980.655 150 188 226
80.831 9.156 980.453 122 143 176
80.831 9.656 980.334 119 129 156
80.831 10.156 980.175 142 146 168
80.831 10.656 979.964 185 184 200
80.831 11.156 979.816 219 208 225
81.331 0.656 979.341 243 241 239
81.331 1.156 979.417 241 241 241
81.331 1.656 979.528 241 241 239
81.331 2.156 979.765 240 236 233
81.331 2.656 980.044 228 228 230
81.331 3.156 980.443 206 219 232
81.331 3.656 980.943 180 206 231
81.331 4.156 981.176 144 194 230
81.331 4.656 981.261 133 191 233
81.331 5.156 981.363 127 194 241
81.331 5.656 981.379 126 194 241
81.331 6.156 981.344 126 193 238
81.331 6.656 981.310 126 194 241
81.331 7.156 981.167 126 195 243
81.331 7.656 981.042 130 195 239
81.331 8.156 980.872 140 194 237
81.331 8.656 980.775 154 194 233
81.331 9.156 980.539 130 156 189
81.331 9.656 980.405 119 132 159
81.331 10.156 980.229 136 141 163
81.331 10.656 979.995 160 161 179
81.331 11.156 979.823 176 173 189
81.831 1.156 979.397 241 240 241
81.831 1.656 979.484 241 241 239
81.831 2.156 979.657 240 239 235
81.831 2.656 979.889 233 233 233
81.831 3.156 980.277 217 228 236
81.831 3.656 980.825 200 220 240
81.831 4.156 981.093 159 202 236
81.831 4.656 981.248 137 194 233
81.831 5.156 981.351 128 193 239
81.831 5.656 981.355 126 194 241
81.831 6.156 981.312 126 193 238
81.831 6.656 981.289 126 194 241
81.831 7.156 981.180 128 195 243
81.831 7.656 981.079 130 195 240
81.831 8.156 980.949 137 194 238
81.831 8.656 980.839 152 197 237
81.831 9.156 980.629 142 172 206
81.831 9.656 980.474 117 132 161
81.831 10.156 980.291 134 142 166
81.831 10.656 980.059 171 174 193
81.831 11.156 979.846 205 204 219
81.831 11.656 979.696 224 231 244
82.331 1.156 979.378 240 239 239
82.331 1.656 979.449 240 240 238
82.331 2.156 979.571 240 239 235
82.331 2.656 979.785 236 235 233
82.331 3.156 980.053 224 230 234
82.331 3.656 980.668 209 223 236
82.331 4.156 980.999 170 208 237
82.331 4.656 981.226 142 194 231
82.331 5.156 981.321 132 195 238
82.331 5.656 981.305 127 195 241
82.331 6.156 981.291 125 193 238
82.331 6.656 981.288 128 194 242
82.331 7.156 981.204 127 195 241
82.331 7.656 981.127 131 196 241
82.331 8.156 981.006 132 194 238
82.331 8.656 980.883 147 196 238
82.331 9.156 980.670 149 185 220
82.331 9.656 980.510 119 140 167
82.331 10.156 980.324 131 140 166
82.331 10.656 980.112 177 179 199
82.331 11.156 979.903 210 209 226
82.331 11.656 979.690 200 197 214
82.831 1.156 979.333 239 239 235
82.831 1.656 979.407 238 239 236
82.831 2.156 979.535 239 240 235
82.831 2.656 979.685 238 237 233
82.831 3.156 979.950 227 231 232
82.831 3.656 980.510 216 225 235
82.831 4.156 980.872 181 212 238
82.831 4.656 981.154 147 194 229
82.831 5.156 981.287 131 193 235
82.831 5.656 981.286 127 194 239
82.831 6.156 981.297 125 193 239
82.831 6.656 981.290 128 194 242
82.831 7.156 981.258 128 195 242
82.831 7.656 981.180 130 196 241
82.831 8.156 981.024 132 195 240
82.831 8.656 980.904 142 196 239
82.831 9.156 980.736 155 195 232
82.831 9.656 980.545 129 154 183
82.831 10.156 980.397 123 136 162
82.831 10.656 980.206 157 159 183
82.831 11.156 980.014 202 205 222
82.831 11.656 979.819 222 219 235
83.331 1.656 979.353 238 240 235
83.331 2.156 979.489 240 241 236
83.331 2.656 979.574 241 238 235
83.331 3.156 979.843 232 232 233
83.331 3.656 980.409 221 225 233
83.331 4.156 980.753 190 219 243
83.331 4.656 981.029 155 200 233
83.331 5.156 981.232 133 195 236
83.331 5.656 981.288 127 195 240
83.331 6.156 981.313 127 195 241
83.331 6.656 981.302 129 195 243
83.331 7.156 981.295 129 195 244
83.331 7.656 981.252 129 196 241
83.331 8.156 981.130 132 195 241
83.331 8.656 980.946 137 195 238
83.331 9.156 980.848 155 197 234
83.331 9.656 980.618 144 171 200
83.331 10.156 980.507 122 137 163
83.331 10.656 980.243 136 142 168
83.331 11.156 980.069 184 192 208
83.331 11.656 979.915 215 213 229
83.331 12.156 979.597 214 215 235
83.831 1.656 979.308 240 238 234
83.831 2.156 979.441 243 241 237
83.831 2.656 979.529 240 239 237
83.831 3.156 979.806 233 233 233
83.831 3.656 980.248 219 219 224
83.831 4.156 980.625 184 196 217
83.831 4.656 980.942 158 195 230
83.831 5.156 981.181 133 194 239
83.831 5.656 981.256 126 194 237
83.831 6.156 981.315 131 196 238
83.831 6.656 981.333 129 197 241
83.831 7.156 981.325 127 196 246
83.831 7.656 981.300 128 196 243
83.831 8.156 981.186 128 196 239
83.831 8.656 981.019 132 196 239
83.831 9.156 980.900 142 196 235
83.831 9.656 980.724 151 185 219
83.831 10.156 980.571 124 142 171
83.831 10.656 980.330 127 139 162
83.831 11.156 980.132 173 180 198
83.831 11.656 979.927 214 216 231
83.831 12.156 979.651 214 216 230
84.331 1.656 979.323 239 238 234
84.331 2.156 979.433 241 240 236
84.331 2.656 979.503 239 238 236
84.331 3.156 979.762 236 236 236
84.331 3.656 980.067 222 222 224
84.331 4.156 980.550 180 192 209
84.331 4.656 980.816 158 193 224
84.331 5.156 981.115 136 194 236
84.331 5.656 981.247 129 193 237
84.331 6.156 981.322 131 195 238
84.331 6.656 981.362 129 196 241
84.331 7.156 981.361 127 196 245
84.331 7.656 981.320 128 196 243
84.331 8.156 981.264 128 196 239
84.331 8.656 981.128 131 196 238
84.331 9.156 980.990 140 196 236
84.331 9.656 980.845 158 193 230
84.331 10.156 980.616 130 150 179
84.331 10.656 980.404 124 135 158
84.331 11.156 980.152 150 154 171
84.331 11.656 979.954 190 190 202
84.331 12.156 979.720 215 215 225
84.831 2.156 979.422 239 238 234
84.831 2.656 979.477 238 237 233
84.831 3.156 979.701 238 237 236
84.831 3.656 979.923 232 231 232
84.831 4.156 980.425 214 223 236
84.831 4.656 980.765 185 214 240
84.831 5.156 981.103 145 196 234
84.831 5.656 981.272 131 193 236
84.831 6.156 981.334 131 195 238
84.831 6.656 981.361 129 196 241
84.831 7.156 981.361 127 196 244
84.831 7.656 981.318 128 196 243
84.831 8.156 981.264 129 196 239
84.831 8.656 981.183 131 195 239
84.831 9.156 981.082 141 196 237
84.831 9.656 980.936 161 198 234
84.831 10.156 980.622 142 164 193
84.831 10.656 980.396 122 132 152
84.831 11.156 980.191 131 132 146
84.831 11.656 980.003 153 149 156
84.831 12.156 979.753 195 189 192
84.831 12.656 979.553 215 211 208
85.331 2.156 979.405 239 238 233
85.331 2.656 979.491 239 238 234
85.331 3.156 979.655 239 238 235
85.331 3.656 979.888 235 233 234
85.331 4.156 980.333 225 231 238
85.331 4.656 980.856 202 223 241
85.331 5.156 981.102 156 199 233
85.331 5.656 981.289 134 192 232
85.331 6.156 981.333 130 194 238
85.331 6.656 981.350 129 196 241
85.331 7.156 981.352 128 195 243
85.331 7.656 981.308 128 195 243
85.331 8.156 981.266 129 196 240
85.331 8.656 981.221 131 195 239
85.331 9.156 981.113 142 196 239
85.331 9.656 981.028 161 202 238
85.331 10.156 980.680 155 181 211
85.331 10.656 980.408 125 136 158
85.331 11.156 980.268 127 128 141
85.331 11.656 980.086 144 138 142
85.331 12.156 979.798 192 183 181
85.331 12.656 979.569 221 212 205
85.831 2.156 979.369 239 238 233
85.831 2.656 979.478 240 239 234
85.831 3.156 979.616 240 239 235
85.831 3.656 979.821 236 235 233
85.831 4.156 980.299 228 231 234
85.831 4.656 980.842 213 228 241
85.831 5.156 981.071 168 204 232
85.831 5.656 981.238 138 193 231
85.831 6.156 981.304 131 195 239
85.831 6.656 981.314 129 196 241
85.831 7.156 981.325 128 195 242
85.831 7.656 981.297 128 195 242
85.831 8.156 981.269 131 195 239
85.831 8.656 981.240 131 195 239
85.831 9.156 981.149 140 196 238
85.831 9.656 981.058 159 200 236
85.831 10.156 980.811 164 193 223
85.831 10.656 980.484 133 146 171
85.831 11.156 980.362 126 128 143
85.831 11.656 980.111 137 131 135
85.831 12.156 979.872 174 164 161
85.831 12.656 979.639 218 208 199
86.331 2.656 979.414 240 239 234
86.331 3.156 979.542 239 238 233
86.331 3.656 979.733 240 236 234
86.331 4.156 980.159 232 232 230
86.331 4.656 980.772 220 231 238
86.331 5.156 981.007 181 212 236
86.331 5.656 981.189 141 195 232
86.331 6.156 981.258 130 195 239
86.331 6.656 981.264 128 195 240
86.331 7.156 981.287 128 195 241
86.331 7.656 981.288 128 195 241
86.331 8.156 981.258 131 195 239
86.331 8.656 981.212 132 195 239
86.331 9.156 981.148 137 194 238
86.331 9.656 981.075 154 198 236
86.331 10.156 980.893 164 195 227
86.331 10.656 980.575 143 160 186
86.331 11.156 980.389 127 132 149
86.331 11.656 980.108 132 126 133
86.331 12.156 979.935 162 152 151
86.331 12.656 979.728 212 203 196
86.831 2.656 979.410 240 239 235
86.831 3.156 979.487 240 238 235
86.831 3.656 979.653 239 237 234
86.831 4.156 979.943 233 233 232
86.831 4.656 980.498 224 231 237
86.831 5.156 980.908 195 220 239
86.831 5.656 981.148 150 195 230
86.831 6.156 981.212 133 194 238
86.831 6.656 981.218 129 194 240
86.831 7.156 981.244 128 196 243
86.831 7.656 981.259 126 196 244
86.831 8.156 981.220 127 196 243
86.831 8.656 981.175 129 196 240
86.831 9.156 981.114 134 195 238
86.831 9.656 981.054 145 194 233
86.831 10.156 980.899 158 197 232
86.831 10.656 980.673 155 174 206
86.831 11.156 980.405 130 138 158
86.831 11.656 980.094 131 129 135
86.831 12.156 979.948 148 142 140
86.831 12.656 979.739 200 191 184
87.331 2.656 979.393 239 238 236
87.331 3.156 979.429 239 238 236
87.331 3.656 979.597 238 237 235
87.331 4.156 979.837 235 234 233
87.331 4.656 980.147 227 231 234
87.331 5.156 980.748 206 224 240
87.331 5.656 981.045 161 200 231
87.331 6.156 981.139 138 193 236
87.331 6.656 981.164 130 194 239
87.331 7.156 981.180 129 195 243
87.331 7.656 981.223 129 195 244
87.331 8.156 981.168 127 196 243
87.331 8.656 981.117 128 196 242
87.331 9.156 981.064 132 195 239
87.331 9.656 980.979 139 194 236
87.331 10.156 980.851 149 196 236
87.331 10.656 980.711 160 189 226
87.331 11.156 980.416 134 149 174
87.331 11.656 980.093 129 133 142
87.331 12.156 979.945 141 137 138
87.331 12.656 979.739 185 176 170
87.331 13.156 979.530 226 212 202
87.831 2.656 979.346 240 239 237
87.831 3.156 979.410 240 239 237
87.831 3.656 979.528 238 237 235
87.831 4.156 979.754 239 235 233
87.831 4.656 979.977 231 231 232
87.831 5.156 980.521 214 227 238
87.831 5.656 980.859 172 206 234
87.831 6.156 981.036 139 193 233
87.831 6.656 981.102 130 193 239
87.831 7.156 981.107 131 195 241
87.831 7.656 981.144 133 194 239
87.831 8.156 981.075 129 194 240
87.831 8.656 981.015 129 196 241
87.831 9.156 980.964 132 195 240
87.831 9.656 980.867 135 193 239
87.831 10.156 980.773 142 194 239
87.831 10.656 980.625 151 194 235
87.831 11.156 980.340 135 160 188
87.831 11.656 980.072 129 135 148
87.831 12.156 979.909 137 133 136
87.831 12.656 979.713 172 163 158
87.831 13.156 979.511 222 211 200
88.331 2.656 979.295 243 241 239
88.331 3.156 979.385 241 240 238
88.331 3.656 979.463 240 239 237
88.331 4.156 979.626 238 234 231
88.331 4.656 979.850 233 233 230
88.331 5.156 980.321 220 230 235
88.331 5.656 980.672 192 220 241
88.331 6.156 980.939 147 196 233
88.331 6.656 981.033 131 193 237
88.331 7.156 981.042 131 194 241
88.331 7.656 981.038 131 194 239
88.331 8.156 980.978 127 195 240
88.331 8.656 980.906 127 195 242
88.331 9.156 980.853 129 195 242
88.331 9.656 980.791 131 194 240
88.331 10.156 980.688 135 195 239
88.331 10.656 980.508 143 195 235
88.331 11.156 980.229 139 169 199
88.331 11.656 980.004 135 142 158
88.331 12.156 979.830 138 133 139
88.331 12.656 979.628 161 151 149
88.331 13.156 979.480 216 206 195
88.831 2.656 979.286 243 241 239
88.831 3.156 979.373 243 241 239
88.831 3.656 979.477 240 239 237
88.831 4.156 979.568 238 237 233
88.831 4.656 979.805 236 233 229
88.831 5.156 980.260 220 223 227
88.831 5.656 980.552 186 207 224
88.831 6.156 980.827 155 198 231
88.831 6.656 980.953 135 192 236
88.831 7.156 980.984 130 195 240
88.831 7.656 980.969 129 196 241
88.831 8.156 980.924 128 195 240
88.831 8.656 980.835 128 193 238
88.831 9.156 980.773 130 194 238
88.831 9.656 980.716 135 194 236
88.831 10.156 980.552 137 192 233
88.831 10.656 980.377 148 192 226
88.831 11.156 980.163 148 172 195
88.831 11.656 979.896 145 149 160
88.831 12.156 979.703 168 159 163
88.831 12.656 979.528 196 187 182
88.831 13.156 979.442 224 214 204
88.831 13.656 979.365 233 224 210
89.331 3.156 979.388 243 241 239
89.331 3.656 979.495 241 240 238
89.331 4.156 979.549 238 238 236
89.331 4.656 979.811 238 237 233
89.331 5.156 980.117 226 226 226
89.331 5.656 980.460 179 195 208
89.331 6.156 980.704 154 191 220
89.331 6.656 980.824 139 192 232
89.331 7.156 980.885 132 192 236
89.331 7.656 980.862 134 192 236
89.331 8.156 980.829 135 192 234
89.331 8.656 980.738 138 191 230
89.331 9.156 980.665 143 190 226
89.331 9.656 980.545 144 185 217
89.331 10.156 980.354 144 181 209
89.331 10.656 980.208 150 176 199
89.331 11.156 980.042 162 174 188
89.331 11.656 979.775 192 192 195
89.331 12.156 979.567 215 210 205
89.331 12.656 979.471 228 219 212
89.331 13.156 979.400 233 222 211
89.331 13.656 979.338 234 225 210
89.831 3.156 979.398 241 240 238
89.831 3.656 979.494 243 241 239
89.831 4.156 979.537 239 241 239
89.831 4.656 979.820 239 238 234
89.831 5.156 979.995 233 233 231
89.831 5.656 980.350 206 218 229
89.831 6.156 980.579 179 210 236
89.831 6.656 980.651 148 196 232
89.831 7.156 980.697 138 189 231
89.831 7.656 980.664 140 187 227
89.831 8.156 980.654 142 184 221
89.831 8.656 980.541 145 180 213
89.831 9.156 980.481 151 179 205
89.831 9.656 980.328 161 184 202
89.831 10.156 980.151 176 192 210
89.831 10.656 980.064 188 198 212
89.831 11.156 979.872 205 206 211
89.831 11.656 979.656 215 211 206
89.831 12.156 979.505 224 217 207
89.831 12.656 979.431 230 221 211
89.831 13.156 979.352 233 221 210
89.831 13.656 979.307 234 224 210
90.331 3.656 979.486 240 240 235
90.331 4.156 979.543 239 240 235
90.331 4.656 979.739 240 240 237
90.331 5.156 979.968 234 237 239
90.331 5.656 980.216 219 228 234
90.331 6.156 980.404 206 221 237
90.331 6.656 980.523 171 193 216
90.331 7.156 980.549 151 177 205
90.331 7.656 980.452 155 177 201
90.331 8.156 980.429 167 184 199
90.331 8.656 980.349 181 191 200
90.331 9.156 980.256 196 201 204
90.331 9.656 980.159 206 208 207
