136.831 -68.344 982.703 202 207 201
136.831 -67.844 982.737 198 203 196
136.831 -67.344 982.828 196 202 198
136.831 -66.844 983.050 191 198 195
136.831 -66.344 983.505 171 175 176
136.831 -65.844 984.682 211 212 214
137.331 -68.344 982.691 194 195 187
137.331 -67.844 982.726 193 191 186
137.331 -67.344 982.811 173 171 167
137.331 -66.844 982.974 163 163 161
137.331 -66.344 983.467 190 191 193
137.331 -65.844 984.675 207 208 210
137.831 -68.344 982.663 184 177 171
137.831 -67.844 982.711 179 171 165
137.831 -67.344 982.782 168 160 157
137.831 -66.844 982.919 160 152 150
137.831 -66.344 983.352 190 190 190
137.831 -65.844 984.572 207 208 210
138.331 -68.344 982.591 189 184 180
138.331 -67.844 982.631 190 185 181
138.331 -67.344 982.710 180 175 172
138.331 -66.844 982.815 189 184 181
138.331 -66.344 983.148 184 183 182
138.331 -65.844 984.038 195 196 198
138.331 -65.344 985.191 213 215 214
138.831 -68.344 982.460 199 195 191
138.831 -67.844 982.488 189 185 183
138.831 -67.344 982.584 194 190 188
138.831 -66.844 982.633 204 200 198
138.831 -66.344 982.788 185 184 185
138.831 -65.844 983.238 190 190 192
138.831 -65.344 984.241 213 213 215
138.831 -64.844 985.259 216 216 216
139.331 -68.344 982.162 189 188 186
139.331 -67.844 982.191 188 187 185
139.331 -67.344 982.301 190 189 187
139.331 -66.844 982.346 189 188 186
139.331 -66.344 982.509 184 184 185
139.331 -65.844 982.954 190 190 192
139.331 -65.344 983.554 216 216 216
139.331 -64.844 984.354 215 215 215
139.331 -64.344 985.413 216 216 216
139.831 -68.344 981.671 199 198 196
139.831 -67.844 981.676 200 199 197
139.831 -67.344 981.764 196 195 193
139.831 -66.844 981.845 198 197 195
139.831 -66.344 982.112 190 188 188
139.831 -65.844 982.572 197 195 195
139.831 -65.344 983.238 207 205 206
139.831 -64.844 983.694 218 216 217
139.831 -64.344 984.531 214 212 213
139.831 -63.844 985.287 217 215 216
139.831 -59.344 985.479 203 203 204
139.831 -58.844 985.314 199 199 199
139.831 -58.344 985.229 200 200 200
139.831 -57.844 985.232 197 197 197
139.831 -57.344 985.240 196 196 196
139.831 -56.844 985.164 199 199 197
139.831 -56.344 984.988 196 194 194
139.831 -55.844 985.007 190 190 191
139.831 -55.344 985.336 202 200 204
140.331 -68.344 981.186 216 214 213
140.331 -67.844 981.142 213 212 210
140.331 -67.344 981.163 207 206 205
140.331 -66.844 981.258 207 206 205
140.331 -66.344 981.558 209 205 202
140.331 -65.844 982.075 217 213 210
140.331 -65.344 982.831 224 220 217
140.331 -64.844 983.221 224 220 219
140.331 -64.344 983.685 208 204 204
140.331 -63.844 984.334 204 200 199
140.331 -63.344 984.959 203 199 198
140.331 -62.844 985.087 197 196 194
140.331 -62.344 985.231 195 194 192
140.331 -61.844 985.323 195 194 192
140.331 -61.344 985.381 197 196 194
140.331 -59.844 985.251 199 198 196
140.331 -59.344 984.889 202 201 199
140.331 -58.844 984.545 194 193 191
140.331 -58.344 984.465 192 191 189
140.331 -57.844 984.608 192 190 188
140.331 -57.344 984.513 192 191 189
140.331 -56.844 984.363 192 190 186
140.331 -56.344 984.178 179 179 174
140.331 -55.844 984.258 186 185 184
140.331 -55.344 984.648 207 205 208
140.831 -68.344 980.835 222 220 218
140.831 -67.844 980.808 221 219 216
140.831 -67.344 980.800 218 216 212
140.831 -66.844 980.917 219 216 212
140.831 -66.344 981.166 217 214 209
140.831 -65.844 981.748 220 217 211
140.831 -65.344 982.242 218 215 210
140.831 -64.844 982.553 207 203 199
140.831 -64.344 983.065 201 197 194
140.831 -63.844 983.383 202 198 195
140.831 -63.344 983.672 202 198 196
140.831 -62.844 983.758 199 195 192
140.831 -62.344 983.942 200 195 192
140.831 -61.844 984.060 203 199 196
140.831 -61.344 984.283 202 198 195
140.831 -60.844 984.619 204 200 197
140.831 -60.344 984.606 208 203 200
140.831 -59.844 984.131 208 203 200
140.831 -59.344 983.649 209 205 201
140.831 -58.844 983.492 208 203 200
140.831 -58.344 983.526 196 191 188
140.831 -57.844 983.731 192 188 184
140.831 -57.344 983.516 193 188 184
140.831 -56.844 983.342 189 185 179
140.831 -56.344 983.227 181 179 171
140.831 -55.844 983.400 190 189 186
140.831 -55.344 984.058 219 216 217
141.331 -68.344 980.685 218 217 214
141.331 -67.844 980.649 219 218 214
141.331 -67.344 980.617 222 221 217
141.331 -66.844 980.708 221 220 216
141.331 -66.344 980.919 224 221 214
141.331 -65.844 981.305 225 220 214
141.331 -65.344 981.600 219 214 208
141.331 -64.844 981.834 210 203 197
141.331 -64.344 982.289 204 197 190
141.331 -63.844 982.501 204 197 191
141.331 -63.344 982.466 205 198 191
141.331 -62.844 982.399 206 197 192
141.331 -62.344 982.450 200 191 186
141.331 -61.844 982.550 190 184 177
141.331 -61.344 982.896 195 188 182
141.331 -60.844 983.163 199 192 186
141.331 -60.344 982.879 207 200 194
141.331 -59.844 982.273 203 194 189
141.331 -59.344 981.939 200 191 184
141.331 -58.844 982.158 200 191 184
141.331 -58.344 982.350 199 190 183
141.331 -57.844 982.391 202 193 186
141.331 -57.344 982.196 202 193 188
141.331 -56.844 982.093 202 193 185
141.331 -56.344 981.985 204 195 188
141.331 -55.844 982.288 209 202 197
141.831 -68.344 980.723 215 214 210
141.831 -67.844 980.678 219 218 214
141.831 -67.344 980.621 223 222 218
141.831 -66.844 980.652 224 223 219
141.831 -66.344 980.809 226 223 217
141.831 -65.844 981.064 221 216 210
141.831 -65.344 981.290 218 213 207
141.831 -64.844 981.450 213 207 200
141.831 -64.344 981.644 205 198 190
141.831 -63.844 981.790 203 196 188
141.831 -63.344 981.716 206 199 191
141.831 -62.844 981.568 205 198 190
141.831 -62.344 981.563 205 198 190
141.831 -61.844 981.591 211 204 196
141.831 -61.344 981.758 207 200 192
141.831 -60.844 981.669 201 194 186
141.831 -60.344 981.243 199 192 184
141.831 -59.844 980.898 197 187 179
141.831 -59.344 980.814 204 194 185
141.831 -58.844 981.120 214 204 194
142.331 -68.344 980.896 204 203 201
142.331 -67.844 980.855 212 211 207
142.331 -67.344 980.778 216 215 211
142.331 -66.844 980.794 218 217 213
142.331 -66.344 980.903 217 214 210
142.331 -65.844 981.036 214 211 205
142.331 -65.344 981.177 210 205 199
142.331 -64.844 981.236 207 202 196
142.331 -64.344 981.264 211 207 199
142.331 -63.844 981.310 210 204 196
142.331 -63.344 981.243 212 205 197
142.331 -62.844 981.158 212 205 197
140.331 -54.844 985.491 223 223 226
107.831 -60.344 985.545 179 179 187
107.831 -59.844 986.018 177 180 187
108.331 -62.844 985.555 175 176 180
108.331 -62.344 985.899 177 179 183
108.331 -61.844 985.896 181 183 187
108.331 -61.344 985.860 180 180 185
108.331 -60.844 985.877 179 177 183
108.331 -60.344 986.064 175 174 180
108.331 -59.844 986.275 179 179 187
108.831 -63.344 985.670 167 167 171
108.831 -62.844 986.041 171 172 176
108.831 -62.344 986.229 173 174 178
108.831 -61.844 986.213 176 175 180
108.831 -61.344 986.249 179 177 182
108.831 -60.844 986.357 180 179 184
108.831 -60.344 986.405 177 176 181
108.831 -59.844 986.408 173 173 180
109.331 -63.844 985.514 184 184 187
109.331 -63.344 986.011 171 171 173
109.331 -62.844 986.307 171 171 173
109.331 -62.344 986.436 179 179 180
109.331 -61.844 986.521 181 181 183
109.331 -61.344 986.627 188 188 190
109.331 -60.844 986.605 191 190 194
109.331 -60.344 986.561 189 188 193
109.331 -59.844 986.542 183 184 188
109.831 -64.344 985.555 180 180 182
109.831 -63.844 985.939 188 188 190
109.831 -63.344 986.312 190 190 192
109.831 -62.844 986.438 198 198 198
109.831 -62.344 986.585 203 203 205
109.831 -61.844 986.648 213 213 215
109.831 -61.344 986.713 214 214 216
109.831 -60.844 986.748 218 218 221
109.831 -60.344 986.756 219 218 223
109.831 -59.844 986.762 202 203 207
109.831 -59.344 986.896 170 173 181
110.331 -65.344 985.709 188 188 190
110.331 -64.844 985.812 191 191 193
110.331 -64.344 986.067 199 199 201
110.331 -63.844 986.340 205 205 207
110.331 -63.344 986.487 211 211 213
110.331 -62.844 986.575 215 215 215
110.331 -62.344 986.638 218 218 218
110.331 -61.844 986.714 217 217 219
110.331 -61.344 986.826 220 220 222
110.331 -60.844 986.906 215 215 217
110.331 -60.344 986.940 221 221 223
110.331 -59.844 987.034 212 213 217
110.831 -66.344 985.653 207 207 208
110.831 -65.844 985.857 205 205 206
110.831 -65.344 986.080 208 208 209
110.831 -64.844 986.164 207 207 208
110.831 -64.344 986.344 207 207 208
110.831 -63.844 986.449 214 214 215
110.831 -63.344 986.581 219 219 220
110.831 -62.844 986.638 221 221 221
110.831 -62.344 986.697 224 224 224
110.831 -61.844 986.798 222 222 222
110.831 -61.344 986.926 222 222 223
110.831 -60.844 987.004 219 219 221
110.831 -60.344 987.059 220 220 222
110.831 -59.844 987.127 219 219 224
110.831 -59.344 987.168 177 176 182
111.331 -67.844 985.578 211 212 214
111.331 -67.344 985.840 216 216 218
111.331 -66.844 985.941 220 220 220
111.331 -66.344 986.004 221 221 221
111.331 -65.844 986.190 218 218 218
111.331 -65.344 986.277 219 219 219
111.331 -64.844 986.322 221 221 221
111.331 -64.344 986.432 221 221 221
111.331 -63.844 986.533 222 222 222
111.331 -63.344 986.672 224 224 224
111.331 -62.844 986.739 225 225 223
111.331 -62.344 986.779 225 225 225
111.331 -61.844 986.870 225 225 225
111.331 -61.344 987.013 221 221 221
111.331 -60.844 987.102 220 220 221
111.331 -60.344 987.164 225 225 227
111.331 -59.844 987.204 222 223 227
111.331 -59.344 987.242 188 189 194
111.831 -68.344 985.651 217 217 217
111.831 -67.844 986.131 219 219 219
111.831 -67.344 986.273 226 226 226
111.831 -66.844 986.285 230 227 227
111.831 -66.344 986.334 226 226 226
111.831 -65.844 986.399 224 224 224
111.831 -65.344 986.439 223 223 223
111.831 -64.844 986.505 224 224 224
111.831 -64.344 986.616 227 227 227
111.831 -63.844 986.704 227 227 227
111.831 -63.344 986.819 228 228 228
111.831 -62.844 986.866 230 230 227
111.831 -62.344 986.883 226 226 224
111.831 -61.844 986.964 226 226 226
111.831 -61.344 987.098 223 223 223
111.831 -60.844 987.184 219 219 219
111.831 -60.344 987.253 221 221 221
111.831 -59.844 987.300 222 225 231
111.831 -59.344 987.330 199 202 209
112.331 -68.344 986.120 218 216 217
112.331 -67.844 986.340 220 220 220
112.331 -67.344 986.394 228 226 227
112.331 -66.844 986.421 228 227 225
112.331 -66.344 986.465 228 228 228
112.331 -65.844 986.489 226 226 226
112.331 -65.344 986.570 227 227 227
112.331 -64.844 986.702 223 223 223
112.331 -64.344 986.815 226 226 226
112.331 -63.844 986.854 226 226 226
112.331 -63.344 986.908 227 227 226
112.331 -62.844 986.933 233 233 230
112.331 -62.344 986.978 228 228 226
112.331 -61.844 987.081 226 226 226
112.331 -61.344 987.178 222 222 222
112.331 -60.844 987.241 221 221 221
112.331 -60.344 987.309 210 210 210
112.331 -59.844 987.362 215 218 223
112.331 -59.344 987.376 205 208 215
112.831 -68.344 986.185 212 212 212
112.831 -67.844 986.405 217 218 220
112.831 -67.344 986.451 224 224 224
112.831 -66.844 986.496 225 224 225
112.831 -66.344 986.527 224 224 224
112.831 -65.844 986.571 227 227 227
112.831 -65.344 986.706 227 227 227
112.831 -64.844 986.852 225 224 224
112.831 -64.344 986.920 223 222 221
112.831 -63.844 986.962 228 227 225
112.831 -63.344 986.998 232 231 228
112.831 -62.844 987.014 233 231 231
112.831 -62.344 987.089 232 231 230
112.831 -61.844 987.185 230 230 229
112.831 -61.344 987.249 231 231 230
112.831 -60.844 987.296 226 226 228
112.831 -60.344 987.350 219 220 222
112.831 -59.844 987.392 215 215 218
112.831 -59.344 987.396 218 219 225
113.331 -68.344 986.236 213 213 213
113.331 -67.844 986.434 218 219 221
113.331 -67.344 986.525 224 224 224
113.331 -66.844 986.616 225 224 225
113.331 -66.344 986.657 226 226 226
113.331 -65.844 986.702 227 227 227
113.331 -65.344 986.859 224 224 224
113.331 -64.844 986.950 223 222 223
113.331 -64.344 986.990 224 222 221
113.331 -63.844 987.057 228 227 225
113.331 -63.344 987.100 222 221 219
113.331 -62.844 987.120 220 219 217
113.331 -62.344 987.202 227 225 226
113.331 -61.844 987.263 225 225 225
113.331 -61.344 987.312 227 227 227
113.331 -60.844 987.333 234 234 235
113.331 -60.344 987.369 230 230 231
113.331 -59.844 987.408 224 223 226
113.331 -59.344 987.414 223 224 229
113.831 -68.844 985.622 209 208 207
113.831 -68.344 986.293 208 208 208
113.831 -67.844 986.487 214 215 217
113.831 -67.344 986.659 225 225 225
113.831 -66.844 986.772 227 227 227
113.831 -66.344 986.823 226 226 226
113.831 -65.844 986.848 227 227 227
113.831 -65.344 986.955 221 221 221
113.831 -64.844 987.000 227 226 227
113.831 -64.344 987.057 228 227 225
113.831 -63.844 987.137 212 211 209
113.831 -63.344 987.152 186 185 183
113.831 -62.844 987.178 179 179 176
113.831 -62.344 987.248 194 193 191
113.831 -61.844 987.297 223 221 222
113.831 -61.344 987.337 225 225 225
113.831 -60.844 987.357 226 226 226
113.831 -60.344 987.389 228 228 228
113.831 -59.844 987.418 230 231 232
113.831 -59.344 987.421 225 226 230
114.331 -68.844 985.627 202 202 201
114.331 -68.344 986.299 205 205 205
114.331 -67.844 986.595 213 214 216
114.331 -67.344 986.770 222 222 222
114.331 -66.844 986.848 227 226 226
114.331 -66.344 986.901 225 224 225
114.331 -65.844 986.948 223 223 223
114.331 -65.344 987.000 223 223 223
114.331 -64.844 987.040 228 227 228
114.331 -64.344 987.086 228 227 225
114.331 -63.844 987.147 202 201 199
114.331 -63.344 987.157 184 184 181
114.331 -62.844 987.181 180 179 176
114.331 -62.344 987.241 184 181 179
114.331 -61.844 987.286 202 201 199
114.331 -61.344 987.343 226 224 225
114.331 -60.844 987.371 224 224 224
114.331 -60.344 987.395 233 233 232
114.331 -59.844 987.415 231 232 233
114.331 -59.344 987.415 227 228 232
114.331 -58.844 987.398 169 170 179
114.831 -68.844 985.587 201 200 199
114.831 -68.344 986.258 204 204 205
114.831 -67.844 986.679 214 215 217
114.831 -67.344 986.811 222 222 222
114.831 -66.844 986.885 224 223 224
114.831 -66.344 986.943 224 224 224
114.831 -65.844 987.009 227 227 227
114.831 -65.344 987.035 227 227 227
114.831 -64.844 987.073 227 226 227
114.831 -64.344 987.102 225 224 222
114.831 -63.844 987.153 193 192 190
114.831 -63.344 987.177 186 185 183
114.831 -62.844 987.203 190 186 184
114.831 -62.344 987.247 205 201 200
114.831 -61.844 987.291 219 218 216
114.831 -61.344 987.348 217 216 214
114.831 -60.844 987.381 224 222 222
114.831 -60.344 987.404 233 233 233
114.831 -59.844 987.412 231 232 233
114.831 -59.344 987.415 227 228 232
114.831 -58.844 987.408 183 184 192
115.331 -68.344 986.157 205 205 205
115.331 -67.844 986.639 214 215 217
115.331 -67.344 986.827 222 222 222
115.331 -66.844 986.912 223 223 223
115.331 -66.344 986.984 224 224 224
115.331 -65.844 987.059 226 226 226
115.331 -65.344 987.086 226 226 226
115.331 -64.844 987.113 222 221 222
115.331 -64.344 987.133 203 202 200
115.331 -63.844 987.180 185 184 182
115.331 -63.344 987.226 184 183 180
115.331 -62.844 987.253 216 212 209
115.331 -62.344 987.276 233 230 228
115.331 -61.844 987.308 212 208 207
115.331 -61.344 987.352 200 199 197
115.331 -60.844 987.386 220 219 218
115.331 -60.344 987.411 233 231 231
115.331 -59.844 987.421 232 233 234
115.331 -59.344 987.438 227 228 232
115.331 -58.844 987.443 196 198 205
115.831 -68.344 986.081 204 204 205
115.831 -67.844 986.564 210 210 210
115.831 -67.344 986.836 218 218 218
115.831 -66.844 986.939 223 223 223
115.831 -66.344 987.026 228 228 228
115.831 -65.844 987.106 230 230 229
115.831 -65.344 987.155 230 230 229
115.831 -64.844 987.176 224 224 224
115.831 -64.344 987.188 211 209 210
115.831 -63.844 987.226 209 207 208
115.831 -63.344 987.269 206 204 205
115.831 -62.844 987.289 231 230 227
115.831 -62.344 987.305 230 230 227
115.831 -61.844 987.325 194 193 193
115.831 -61.344 987.355 185 185 185
115.831 -60.844 987.388 205 205 205
115.831 -60.344 987.417 233 233 232
115.831 -59.844 987.436 233 233 233
115.831 -59.344 987.467 228 233 235
115.831 -58.844 987.472 204 209 215
116.331 -68.344 986.018 198 198 198
116.331 -67.844 986.489 201 202 205
116.331 -67.344 986.820 210 211 213
116.331 -66.844 986.945 223 223 223
116.331 -66.344 987.046 233 233 232
116.331 -65.844 987.131 233 233 232
116.331 -65.344 987.201 233 233 232
116.331 -64.844 987.226 233 233 232
116.331 -64.344 987.239 230 228 229
116.331 -63.844 987.255 231 228 229
116.331 -63.344 987.280 222 220 221
116.331 -62.844 987.283 231 231 228
116.331 -62.344 987.296 214 214 213
116.331 -61.844 987.325 180 180 180
116.331 -61.344 987.356 181 181 181
116.331 -60.844 987.388 190 190 191
116.331 -60.344 987.414 230 230 231
116.331 -59.844 987.437 227 228 230
116.331 -59.344 987.470 221 224 229
116.331 -58.844 987.481 204 208 216
116.831 -68.344 985.932 188 188 189
116.831 -67.844 986.448 199 200 204
116.831 -67.344 986.789 210 211 214
116.831 -66.844 986.935 224 225 227
116.831 -66.344 987.035 230 231 231
116.831 -65.844 987.121 227 230 229
116.831 -65.344 987.207 226 226 227
116.831 -64.844 987.239 227 227 228
116.831 -64.344 987.263 224 224 225
116.831 -63.844 987.264 226 225 226
116.831 -63.344 987.272 226 225 227
116.831 -62.844 987.273 221 221 221
116.831 -62.344 987.291 175 175 175
116.831 -61.844 987.331 163 163 164
116.831 -61.344 987.363 163 163 164
116.831 -60.844 987.389 167 167 168
116.831 -60.344 987.408 201 200 205
116.831 -59.844 987.433 216 216 221
116.831 -59.344 987.458 210 213 220
116.831 -58.844 987.472 199 204 214
117.331 -68.344 985.827 189 188 193
117.331 -67.844 986.390 200 201 205
117.331 -67.344 986.703 207 208 212
117.331 -66.844 986.894 218 219 223
117.331 -66.344 987.000 218 219 221
117.331 -65.844 987.090 213 214 216
117.331 -65.344 987.187 211 212 214
117.331 -64.844 987.231 208 208 210
117.331 -64.344 987.258 206 206 208
117.331 -63.844 987.266 199 199 201
117.331 -63.344 987.278 210 210 212
117.331 -62.844 987.293 212 213 215
117.331 -62.344 987.316 197 198 200
117.331 -61.844 987.350 155 156 158
117.331 -61.344 987.383 159 160 164
117.331 -60.844 987.401 161 162 166
117.331 -60.344 987.420 162 163 167
117.331 -59.844 987.446 195 194 201
117.331 -59.344 987.461 214 216 226
117.331 -58.844 987.470 180 186 197
117.331 -58.344 987.467 128 131 146
117.831 -68.344 985.759 180 181 185
117.831 -67.844 986.243 192 193 198
117.831 -67.344 986.619 194 197 202
117.831 -66.844 986.840 200 201 205
117.831 -66.344 986.980 204 205 209
117.831 -65.844 987.059 199 200 205
117.831 -65.344 987.132 200 201 205
117.831 -64.844 987.206 187 188 192
117.831 -64.344 987.235 195 194 199
117.831 -63.844 987.250 202 201 206
117.831 -63.344 987.280 215 214 219
117.831 -62.844 987.311 222 223 225
117.831 -62.344 987.336 218 219 223
117.831 -61.844 987.359 181 183 186
117.831 -61.344 987.391 173 174 178
117.831 -60.844 987.406 169 170 174
117.831 -60.344 987.431 168 169 174
117.831 -59.844 987.458 163 162 170
117.831 -59.344 987.469 198 201 210
117.831 -58.844 987.471 168 175 186
117.831 -58.344 987.466 128 131 146
118.331 -68.344 985.805 166 167 171
118.331 -67.844 986.179 184 186 191
118.331 -67.344 986.587 195 198 204
118.331 -66.844 986.759 203 204 208
118.331 -66.344 986.977 212 215 218
118.331 -65.844 987.050 205 209 212
118.331 -65.344 987.108 206 207 211
118.331 -64.844 987.196 183 184 187
118.331 -64.344 987.221 197 198 202
118.331 -63.844 987.231 213 212 217
118.331 -63.344 987.264 216 215 220
118.331 -62.844 987.303 210 211 215
118.331 -62.344 987.330 204 205 209
118.331 -61.844 987.356 166 167 171
118.331 -61.344 987.387 151 152 156
118.331 -60.844 987.403 150 151 156
118.331 -60.344 987.425 155 156 161
118.331 -59.844 987.454 149 149 154
118.331 -59.344 987.466 183 189 195
118.331 -58.844 987.465 175 183 193
118.331 -58.344 987.457 141 144 159
118.831 -68.344 985.957 160 161 166
118.831 -67.844 986.237 180 184 188
118.831 -67.344 986.581 196 199 205
118.831 -66.844 986.719 206 209 215
118.831 -66.344 986.948 213 217 223
118.831 -65.844 987.033 202 206 211
118.831 -65.344 987.106 197 199 205
118.831 -64.844 987.185 183 184 190
118.831 -64.344 987.205 184 186 191
118.831 -63.844 987.201 184 184 189
118.831 -63.344 987.220 197 198 204
118.831 -62.844 987.277 205 207 211
118.831 -62.344 987.319 203 205 209
118.831 -61.844 987.348 162 164 168
118.831 -61.344 987.375 156 158 164
118.831 -60.844 987.392 154 156 162
118.831 -60.344 987.404 164 167 172
118.831 -59.844 987.429 193 195 201
118.831 -59.344 987.454 193 197 206
118.831 -58.844 987.456 172 179 189
118.831 -58.344 987.448 158 164 178
119.331 -68.844 985.701 153 156 161
119.331 -68.344 986.117 153 156 163
119.331 -67.844 986.318 166 170 176
119.331 -67.344 986.588 185 190 196
119.331 -66.844 986.717 186 191 197
119.331 -66.344 986.876 184 189 195
119.331 -65.844 987.007 179 184 189
119.331 -65.344 987.082 177 183 188
119.331 -64.844 987.156 174 177 184
119.331 -64.344 987.190 180 184 188
119.331 -63.844 987.182 189 192 197
119.331 -63.344 987.199 202 205 210
119.331 -62.844 987.271 209 212 217
119.331 -62.344 987.322 205 208 213
119.331 -61.844 987.349 184 186 193
119.331 -61.344 987.362 172 175 182
119.331 -60.844 987.374 148 151 158
119.331 -60.344 987.379 157 160 167
119.331 -59.844 987.398 183 186 195
119.331 -59.344 987.428 192 199 209
119.331 -58.844 987.438 170 179 189
119.331 -58.344 987.438 163 171 184
119.831 -68.844 985.784 149 154 160
119.831 -68.344 986.155 151 155 164
119.831 -67.844 986.343 148 152 161
119.831 -67.344 986.568 161 168 176
119.831 -66.844 986.706 166 172 180
119.831 -66.344 986.837 175 180 189
119.831 -65.844 986.978 173 177 186
119.831 -65.344 987.047 166 170 176
119.831 -64.844 987.132 158 162 168
119.831 -64.344 987.176 155 158 165
119.831 -63.844 987.171 184 186 191
119.831 -63.344 987.201 214 217 222
119.831 -62.844 987.294 205 210 214
119.831 -62.344 987.329 202 207 213
119.831 -61.844 987.346 184 189 195
119.831 -61.344 987.346 159 164 171
119.831 -60.844 987.344 144 148 155
119.831 -60.344 987.355 145 149 158
119.831 -59.844 987.382 154 161 171
119.831 -59.344 987.408 184 191 202
119.831 -58.844 987.420 168 176 187
119.831 -58.344 987.431 156 166 180
119.831 -57.844 987.442 103 118 138
120.331 -69.344 985.597 135 139 148
120.331 -68.844 985.803 131 137 145
120.331 -68.344 986.120 137 144 154
120.331 -67.844 986.298 136 143 153
120.331 -67.344 986.502 150 157 167
120.331 -66.844 986.709 163 172 181
120.331 -66.344 986.839 173 180 188
120.331 -65.844 986.947 168 175 183
120.331 -65.344 987.024 145 152 160
120.331 -64.844 987.109 144 148 156
120.331 -64.344 987.159 153 158 165
120.331 -63.844 987.157 175 180 186
120.331 -63.344 987.194 193 198 205
120.331 -62.844 987.303 205 210 216
120.331 -62.344 987.334 186 191 197
120.331 -61.844 987.344 169 174 180
120.331 -61.344 987.346 143 147 156
120.331 -60.844 987.341 145 149 158
120.331 -60.344 987.352 136 140 149
120.331 -59.844 987.381 131 138 148
120.331 -59.344 987.403 155 166 175
120.331 -58.844 987.416 157 168 179
120.331 -58.344 987.434 151 160 175
120.331 -57.844 987.442 106 120 141
120.831 -69.344 985.533 143 148 159
120.831 -68.844 985.811 134 141 151
120.831 -68.344 986.117 138 145 155
120.831 -67.844 986.290 139 146 156
120.831 -67.344 986.498 153 161 172
120.831 -66.844 986.714 162 170 181
120.831 -66.344 986.836 171 179 188
120.831 -65.844 986.922 169 177 187
120.831 -65.344 987.012 168 175 184
120.831 -64.844 987.084 167 173 182
120.831 -64.344 987.145 172 177 186
120.831 -63.844 987.154 180 185 194
120.831 -63.344 987.182 179 184 190
120.831 -62.844 987.272 172 179 187
120.831 -62.344 987.318 173 180 188
120.831 -61.844 987.341 172 179 188
120.831 -61.344 987.362 169 176 185
120.831 -60.844 987.363 170 177 187
120.831 -60.344 987.376 168 175 185
120.831 -59.844 987.397 163 170 180
120.831 -59.344 987.410 168 177 188
120.831 -58.844 987.425 157 168 180
120.831 -58.344 987.442 149 158 173
120.831 -57.844 987.451 112 124 143
121.331 -68.844 985.818 148 152 162
121.331 -68.344 986.170 144 148 159
121.331 -67.844 986.365 142 149 159
121.331 -67.344 986.499 155 162 172
121.331 -66.844 986.703 163 169 181
121.331 -66.344 986.841 168 174 185
121.331 -65.844 986.917 173 181 192
121.331 -65.344 987.016 173 183 191
121.331 -64.844 987.067 171 179 189
121.331 -64.344 987.125 174 181 191
121.331 -63.844 987.179 174 181 189
121.331 -63.344 987.203 176 184 191
121.331 -62.844 987.256 173 183 189
121.331 -62.344 987.315 174 184 192
121.331 -61.844 987.350 161 170 179
121.331 -61.344 987.370 158 168 176
121.331 -60.844 987.383 162 170 180
121.331 -60.344 987.410 163 171 182
121.331 -59.844 987.430 168 175 185
121.331 -59.344 987.434 168 176 187
121.331 -58.844 987.438 160 170 182
121.331 -58.344 987.450 147 156 170
121.331 -57.844 987.463 121 131 149
121.831 -68.844 985.842 136 140 149
121.831 -68.344 986.187 136 140 151
121.831 -67.844 986.375 137 141 152
121.831 -67.344 986.486 148 155 165
121.831 -66.844 986.673 159 166 176
121.831 -66.344 986.864 166 173 184
121.831 -65.844 986.926 168 175 186
121.831 -65.344 986.999 168 175 186
121.831 -64.844 987.047 173 183 191
121.831 -64.344 987.117 175 184 192
121.831 -63.844 987.203 176 184 193
121.831 -63.344 987.220 177 184 194
121.831 -62.844 987.259 173 183 191
121.831 -62.344 987.327 170 179 188
121.831 -61.844 987.361 160 169 178
121.831 -61.344 987.376 157 167 175
121.831 -60.844 987.406 163 171 181
121.831 -60.344 987.449 163 172 181
121.831 -59.844 987.468 167 171 180
121.831 -59.344 987.462 168 174 185
121.831 -58.844 987.459 171 180 191
121.831 -58.344 987.468 155 163 176
121.831 -57.844 987.479 141 149 165
122.331 -68.844 985.845 137 144 152
122.331 -68.344 986.088 137 144 154
122.331 -67.844 986.270 142 149 159
122.331 -67.344 986.464 145 152 162
122.331 -66.844 986.670 159 166 177
122.331 -66.344 986.863 166 173 184
122.331 -65.844 986.926 168 175 186
122.331 -65.344 986.989 170 179 189
122.331 -64.844 987.065 176 184 195
122.331 -64.344 987.144 180 187 197
122.331 -63.844 987.221 183 189 199
122.331 -63.344 987.242 184 190 200
122.331 -62.844 987.284 176 184 193
122.331 -62.344 987.344 175 183 192
122.331 -61.844 987.370 173 180 188
122.331 -61.344 987.386 174 181 189
122.331 -60.844 987.424 190 194 204
122.331 -60.344 987.468 179 184 190
122.331 -59.844 987.488 187 194 204
122.331 -59.344 987.487 189 193 205
122.331 -58.844 987.487 184 188 198
122.331 -58.344 987.488 173 181 192
122.331 -57.844 987.488 161 170 185
122.831 -68.844 985.830 141 148 156
122.831 -68.344 986.008 148 155 165
122.831 -67.844 986.174 151 158 168
122.831 -67.344 986.417 149 156 166
122.831 -66.844 986.678 151 158 168
122.831 -66.344 986.861 155 161 173
122.831 -65.844 986.935 163 170 181
122.831 -65.344 987.016 168 175 185
122.831 -64.844 987.115 173 180 190
122.831 -64.344 987.169 173 179 189
122.831 -63.844 987.246 185 190 200
122.831 -63.344 987.282 194 198 208
122.831 -62.844 987.326 196 203 212
122.831 -62.344 987.351 201 206 215
122.831 -61.844 987.374 197 203 211
122.831 -61.344 987.397 189 194 201
122.831 -60.844 987.432 201 206 213
122.831 -60.344 987.467 190 194 201
122.831 -59.844 987.487 200 204 214
122.831 -59.344 987.494 184 187 196
122.831 -58.844 987.499 181 186 194
122.831 -58.344 987.502 173 179 189
122.831 -57.844 987.502 166 173 188
122.831 -57.344 987.533 115 124 142
123.331 -68.844 985.848 151 158 166
123.331 -68.344 986.001 155 162 171
123.331 -67.844 986.161 151 158 168
123.331 -67.344 986.487 142 149 159
123.331 -66.844 986.776 143 150 160
123.331 -66.344 986.891 149 156 166
123.331 -65.844 986.984 164 171 181
123.331 -65.344 987.079 168 174 184
123.331 -64.844 987.153 169 173 183
123.331 -64.344 987.218 179 184 192
123.331 -63.844 987.311 209 213 222
123.331 -63.344 987.332 212 216 225
123.331 -62.844 987.346 204 208 217
123.331 -62.344 987.359 197 202 208
123.331 -61.844 987.387 196 201 207
123.331 -61.344 987.417 190 193 200
123.331 -60.844 987.440 192 195 201
123.331 -60.344 987.454 184 187 192
123.331 -59.844 987.467 191 196 202
123.331 -59.344 987.485 184 187 194
123.331 -58.844 987.506 173 176 183
123.331 -58.344 987.520 174 179 187
123.331 -57.844 987.522 167 172 185
123.331 -57.344 987.531 116 122 140
123.831 -68.844 985.935 153 157 166
123.831 -68.344 986.157 159 163 172
123.831 -67.844 986.368 151 155 164
123.831 -67.344 986.742 143 147 158
123.831 -66.844 986.886 136 140 151
123.831 -66.344 986.975 151 155 166
123.831 -65.844 987.061 164 168 179
123.831 -65.344 987.133 171 175 184
123.831 -64.844 987.200 180 184 193
123.831 -64.344 987.260 205 208 217
123.831 -63.844 987.339 210 213 220
123.831 -63.344 987.354 203 206 213
123.831 -62.844 987.363 197 202 208
123.831 -62.344 987.381 197 200 207
123.831 -61.844 987.406 188 191 198
123.831 -61.344 987.430 175 179 183
123.831 -60.844 987.442 185 187 192
123.831 -60.344 987.450 194 195 200
123.831 -59.844 987.460 192 195 201
123.831 -59.344 987.474 189 192 197
123.831 -58.844 987.499 194 197 202
123.831 -58.344 987.525 194 197 204
123.831 -57.844 987.532 192 196 205
123.831 -57.344 987.528 122 128 143
124.331 -68.844 986.074 159 164 171
124.331 -68.344 986.339 159 163 172
124.331 -67.844 986.628 149 153 162
124.331 -67.344 986.901 148 152 161
124.331 -66.844 986.982 136 140 150
124.331 -66.344 987.063 150 154 163
124.331 -65.844 987.124 163 168 176
124.331 -65.344 987.184 168 172 181
124.331 -64.844 987.258 199 202 210
124.331 -64.344 987.296 215 218 225
124.331 -63.844 987.349 190 193 200
124.331 -63.344 987.371 184 186 193
124.331 -62.844 987.380 185 188 195
124.331 -62.344 987.400 191 194 199
124.331 -61.844 987.419 183 185 190
124.331 -61.344 987.436 172 173 178
124.331 -60.844 987.442 185 186 190
124.331 -60.344 987.446 199 200 205
124.331 -59.844 987.454 205 208 213
124.331 -59.344 987.461 218 219 223
124.331 -58.844 987.482 223 224 228
124.331 -58.344 987.511 223 224 228
124.331 -57.844 987.519 217 220 226
124.331 -57.344 987.505 137 141 152
124.831 -68.844 985.805 163 168 174
124.831 -68.344 986.301 166 169 176
124.831 -67.844 986.728 155 159 168
124.831 -67.344 986.949 162 167 175
124.831 -66.844 987.040 147 151 160
124.831 -66.344 987.133 155 158 167
124.831 -65.844 987.211 162 166 173
124.831 -65.344 987.303 152 155 162
124.831 -64.844 987.356 150 152 159
124.831 -64.344 987.358 155 155 162
124.831 -63.844 987.372 155 156 161
124.831 -63.344 987.407 151 152 157
124.831 -62.844 987.416 176 179 183
124.831 -62.344 987.435 201 202 207
124.831 -61.844 987.449 204 205 209
124.831 -61.344 987.456 207 208 212
124.831 -60.844 987.452 214 214 218
124.831 -60.344 987.447 223 222 227
124.831 -59.844 987.448 224 225 230
124.831 -59.344 987.447 223 224 228
124.831 -58.844 987.452 225 225 227
124.831 -58.344 987.476 220 221 223
124.831 -57.844 987.491 216 217 222
124.831 -57.344 987.492 158 161 171
125.331 -68.344 985.981 160 163 171
125.331 -67.844 986.533 167 169 176
125.331 -67.344 986.896 161 164 171
125.331 -66.844 987.007 143 146 153
125.331 -66.344 987.184 138 138 146
125.331 -65.844 987.295 138 137 145
125.331 -65.344 987.366 139 138 144
125.331 -64.844 987.405 138 137 143
125.331 -64.344 987.405 142 141 146
125.331 -63.844 987.388 154 153 158
125.331 -63.344 987.408 169 168 173
125.331 -62.844 987.411 210 211 215
125.331 -62.344 987.424 224 225 229
125.331 -61.844 987.449 221 222 224
125.331 -61.344 987.461 222 223 225
125.331 -60.844 987.459 221 222 224
125.331 -60.344 987.452 231 232 233
125.331 -59.844 987.440 233 233 235
125.331 -59.344 987.431 232 233 234
125.331 -58.844 987.429 233 233 232
125.331 -58.344 987.447 225 225 227
125.331 -57.844 987.471 216 217 221
125.331 -57.344 987.480 179 183 189
125.831 -68.344 985.785 172 175 182
125.831 -67.844 986.465 174 177 184
125.831 -67.344 986.812 155 158 165
125.831 -66.844 986.974 159 162 170
125.831 -66.344 987.221 155 155 163
125.831 -65.844 987.323 161 160 166
125.831 -65.344 987.346 171 170 176
125.831 -64.844 987.380 174 173 178
125.831 -64.344 987.394 176 176 178
125.831 -63.844 987.393 175 175 177
125.831 -63.344 987.396 189 189 191
125.831 -62.844 987.398 217 218 220
125.831 -62.344 987.403 224 225 227
125.831 -61.844 987.412 225 226 228
125.831 -61.344 987.417 221 222 224
125.831 -60.844 987.431 225 226 228
125.831 -60.344 987.438 232 233 234
125.831 -59.844 987.430 231 232 233
125.831 -59.344 987.427 232 233 234
125.831 -58.844 987.424 233 233 233
125.831 -58.344 987.431 227 227 229
125.831 -57.844 987.443 218 219 223
125.831 -57.344 987.447 193 196 201
126.331 -68.344 985.903 164 168 172
126.331 -67.844 986.489 166 168 173
126.331 -67.344 986.738 161 164 170
126.331 -66.844 986.990 177 180 185
126.331 -66.344 987.287 173 174 179
126.331 -65.844 987.313 179 179 184
126.331 -65.344 987.278 177 176 182
126.331 -64.844 987.299 173 172 177
126.331 -64.344 987.355 174 174 176
126.331 -63.844 987.362 200 200 202
126.331 -63.344 987.367 218 218 220
126.331 -62.844 987.368 220 221 223
126.331 -62.344 987.374 223 224 226
126.331 -61.844 987.390 216 217 219
126.331 -61.344 987.398 210 211 213
126.331 -60.844 987.412 222 223 225
126.331 -60.344 987.418 228 230 231
126.331 -59.844 987.417 228 230 231
126.331 -59.344 987.416 228 230 231
126.331 -58.844 987.405 232 232 231
126.331 -58.344 987.399 233 233 234
126.331 -57.844 987.399 224 225 229
126.331 -57.344 987.402 208 211 216
126.331 -56.844 987.400 139 144 154
126.831 -68.844 985.729 172 174 179
126.831 -68.344 986.371 168 169 174
126.831 -67.844 986.623 164 167 171
126.831 -67.344 986.800 171 173 177
126.831 -66.844 987.126 186 188 192
126.831 -66.344 987.277 170 169 174
126.831 -65.844 987.289 186 185 190
126.831 -65.344 987.259 216 215 220
126.831 -64.844 987.281 200 199 202
126.831 -64.344 987.346 203 203 205
126.831 -63.844 987.359 223 223 225
126.831 -63.344 987.368 223 223 225
126.831 -62.844 987.358 225 226 228
126.831 -62.344 987.360 227 228 230
126.831 -61.844 987.371 214 215 217
126.831 -61.344 987.376 215 216 218
126.831 -60.844 987.385 227 228 230
126.831 -60.344 987.387 230 231 232
126.831 -59.844 987.372 233 233 235
126.831 -59.344 987.361 234 235 237
126.831 -58.844 987.342 234 234 234
126.831 -58.344 987.359 235 235 237
126.831 -57.844 987.381 232 233 236
126.831 -57.344 987.382 220 223 228
126.831 -56.844 987.361 143 147 156
126.831 -56.344 987.382 170 181 195
127.331 -68.844 986.059 173 174 178
127.331 -68.344 986.406 180 181 185
127.331 -67.844 986.628 174 175 179
127.331 -67.344 986.867 169 170 174
127.331 -66.844 987.239 194 195 199
127.331 -66.344 987.295 172 172 174
127.331 -65.844 987.275 199 199 201
127.331 -65.344 987.264 224 224 226
127.331 -64.844 987.299 226 226 228
127.331 -64.344 987.350 224 224 226
127.331 -63.844 987.356 228 228 230
127.331 -63.344 987.369 228 228 230
127.331 -62.844 987.370 230 232 230
127.331 -62.344 987.371 231 233 231
127.331 -61.844 987.373 213 215 214
127.331 -61.344 987.362 214 216 215
127.331 -60.844 987.343 233 234 233
127.331 -60.344 987.323 233 235 234
127.331 -59.844 987.275 235 236 238
127.331 -59.344 987.249 236 237 239
127.331 -58.844 987.260 236 236 236
127.331 -58.344 987.301 236 236 238
127.331 -57.844 987.330 231 232 235
127.331 -57.344 987.336 218 221 226
127.331 -56.844 987.321 149 152 162
127.331 -56.344 987.349 158 168 180
127.831 -68.344 986.061 179 180 182
127.831 -67.844 986.380 184 185 187
127.831 -67.344 986.826 183 184 185
127.831 -66.844 987.163 198 199 201
127.831 -66.344 987.296 172 172 174
127.831 -65.844 987.295 215 215 217
127.831 -65.344 987.295 231 231 232
127.831 -64.844 987.348 231 231 232
127.831 -64.344 987.363 228 228 230
127.831 -63.844 987.357 228 228 230
127.831 -63.344 987.368 231 231 232
127.831 -62.844 987.378 232 233 232
127.831 -62.344 987.388 232 233 232
127.831 -61.844 987.383 217 219 218
127.831 -61.344 987.345 225 227 226
127.831 -60.844 987.282 232 233 232
127.831 -60.344 987.229 233 235 234
127.831 -59.844 987.212 233 234 236
127.831 -59.344 987.216 235 236 238
127.831 -58.844 987.227 239 239 239
127.831 -58.344 987.250 235 235 237
127.831 -57.844 987.270 227 228 232
127.831 -57.344 987.290 218 221 226
127.831 -56.844 987.290 157 161 170
127.831 -56.344 987.310 146 154 166
128.331 -67.844 985.683 194 195 197
128.331 -67.344 986.499 189 190 192
128.331 -66.844 986.884 196 197 199
128.331 -66.344 987.262 174 174 176
128.331 -65.844 987.305 203 203 205
128.331 -65.344 987.338 221 221 223
128.331 -64.844 987.387 232 232 233
128.331 -64.344 987.379 231 231 232
128.331 -63.844 987.368 232 232 233
128.331 -63.344 987.367 233 233 235
128.331 -62.844 987.387 233 235 234
128.331 -62.344 987.396 231 233 231
128.331 -61.844 987.382 219 221 220
128.331 -61.344 987.325 222 224 223
128.331 -60.844 987.261 232 233 232
128.331 -60.344 987.217 234 236 235
128.331 -59.844 987.214 234 235 237
128.331 -59.344 987.219 234 235 237
128.331 -58.844 987.221 236 236 236
128.331 -58.344 987.236 235 235 237
128.331 -57.844 987.253 231 232 235
128.331 -57.344 987.277 220 223 228
128.331 -56.844 987.269 169 172 180
128.331 -56.344 987.273 133 141 152
128.831 -67.344 985.614 197 198 202
128.831 -66.844 986.673 195 196 200
128.831 -66.344 987.131 181 181 183
128.831 -65.844 987.315 190 190 192
128.831 -65.344 987.389 213 213 215
128.831 -64.844 987.422 227 227 229
128.831 -64.344 987.418 233 233 232
128.831 -63.844 987.403 236 236 236
128.831 -63.344 987.378 237 237 237
128.831 -62.844 987.398 234 234 234
128.831 -62.344 987.399 233 233 232
128.831 -61.844 987.390 217 217 217
128.831 -61.344 987.354 224 224 224
128.831 -60.844 987.294 231 231 230
128.831 -60.344 987.254 235 235 235
128.831 -59.844 987.249 235 235 237
128.831 -59.344 987.243 233 233 234
128.831 -58.844 987.241 234 235 234
128.831 -58.344 987.243 233 233 235
128.831 -57.844 987.249 230 231 234
128.831 -57.344 987.266 218 219 224
128.831 -56.844 987.260 179 183 191
128.831 -56.344 987.243 127 134 146
128.831 -55.844 987.323 185 204 218
129.331 -66.844 986.094 187 188 192
129.331 -66.344 986.871 181 181 183
129.331 -65.844 987.298 180 180 182
129.331 -65.344 987.383 197 197 199
129.331 -64.844 987.415 196 196 198
129.331 -64.344 987.421 221 221 221
129.331 -63.844 987.412 233 233 233
129.331 -63.344 987.384 237 237 237
129.331 -62.844 987.386 236 236 236
129.331 -62.344 987.383 234 234 234
129.331 -61.844 987.380 217 217 217
129.331 -61.344 987.351 223 223 223
129.331 -60.844 987.312 231 231 230
129.331 -60.344 987.294 233 233 233
129.331 -59.844 987.288 234 234 236
129.331 -59.344 987.276 234 234 234
129.331 -58.844 987.259 234 234 234
129.331 -58.344 987.241 233 233 235
129.331 -57.844 987.237 226 227 231
129.331 -57.344 987.241 214 215 220
129.331 -56.844 987.237 193 195 204
129.331 -56.344 987.221 129 136 146
129.331 -55.844 987.274 175 192 206
129.831 -66.344 986.818 181 181 183
129.831 -65.844 987.202 176 176 178
129.831 -65.344 987.352 186 186 188
129.831 -64.844 987.378 184 184 185
129.831 -64.344 987.394 189 189 189
129.831 -63.844 987.385 215 215 215
129.831 -63.344 987.359 234 234 234
129.831 -62.844 987.354 235 235 235
129.831 -62.344 987.358 233 233 232
129.831 -61.844 987.362 217 217 217
129.831 -61.344 987.346 224 224 224
129.831 -60.844 987.339 232 232 231
129.831 -60.344 987.328 235 235 235
129.831 -59.844 987.305 235 235 235
129.831 -59.344 987.286 236 236 236
129.831 -58.844 987.276 236 236 236
129.831 -58.344 987.251 234 236 235
129.831 -57.844 987.229 225 226 228
129.831 -57.344 987.217 217 218 222
129.831 -56.844 987.207 199 202 210
129.831 -56.344 987.206 136 143 153
129.831 -55.844 987.233 170 185 198
130.331 -66.344 986.687 179 179 182
130.331 -65.844 987.024 180 180 182
130.331 -65.344 987.292 184 184 186
130.331 -64.844 987.337 184 184 185
130.331 -64.344 987.331 191 191 191
130.331 -63.844 987.325 220 220 220
130.331 -63.344 987.342 233 233 232
130.331 -62.844 987.361 234 234 234
130.331 -62.344 987.353 232 232 231
130.331 -61.844 987.349 225 225 225
130.331 -61.344 987.353 224 224 224
130.331 -60.844 987.356 233 233 232
130.331 -60.344 987.346 234 234 234
130.331 -59.844 987.327 236 236 236
130.331 -59.344 987.301 234 234 234
130.331 -58.844 987.276 235 235 234
130.331 -58.344 987.247 235 237 236
130.331 -57.844 987.227 231 232 233
130.331 -57.344 987.214 226 227 231
130.331 -56.844 987.205 207 211 219
130.331 -56.344 987.203 142 149 159
130.331 -55.844 987.231 164 176 188
130.831 -66.344 986.431 186 186 189
130.831 -65.844 986.930 176 176 178
130.831 -65.344 987.138 179 179 180
130.831 -64.844 987.236 184 184 185
130.831 -64.344 987.267 192 192 192
130.831 -63.844 987.298 223 223 223
130.831 -63.344 987.327 232 232 231
130.831 -62.844 987.355 227 227 227
130.831 -62.344 987.350 225 225 225
130.831 -61.844 987.341 226 226 226
130.831 -61.344 987.358 230 230 229
130.831 -60.844 987.376 234 234 234
130.831 -60.344 987.365 234 234 234
130.831 -59.844 987.349 236 236 236
130.831 -59.344 987.318 235 235 234
130.831 -58.844 987.265 236 237 234
130.831 -58.344 987.231 236 238 237
130.831 -57.844 987.216 234 235 237
130.831 -57.344 987.207 227 228 232
130.831 -56.844 987.202 216 219 226
130.831 -56.344 987.197 153 157 166
130.831 -55.844 987.215 156 167 177
131.331 -66.344 986.059 201 201 204
131.331 -65.844 986.854 187 187 189
131.331 -65.344 987.072 183 183 184
131.331 -64.844 987.143 204 204 206
131.331 -64.344 987.227 217 217 217
131.331 -63.844 987.270 228 228 228
131.331 -63.344 987.288 232 232 231
131.331 -62.844 987.321 231 231 230
131.331 -62.344 987.325 227 227 227
131.331 -61.844 987.324 222 222 222
131.331 -61.344 987.344 226 226 226
131.331 -60.844 987.374 235 235 235
131.331 -60.344 987.378 233 233 233
131.331 -59.844 987.368 234 234 232
131.331 -59.344 987.346 235 235 233
131.331 -58.844 987.275 236 237 234
131.331 -58.344 987.219 234 236 235
131.331 -57.844 987.202 234 235 235
131.331 -57.344 987.199 228 230 233
131.331 -56.844 987.195 216 218 224
131.331 -56.344 987.181 163 168 176
131.331 -55.844 987.172 151 160 171
131.831 -66.344 986.015 201 201 204
131.831 -65.844 986.819 193 192 197
131.831 -65.344 987.011 191 191 193
131.831 -64.844 987.089 212 212 214
131.831 -64.344 987.185 233 233 235
131.831 -63.844 987.257 234 234 234
131.831 -63.344 987.278 234 234 234
131.831 -62.844 987.301 232 232 231
131.831 -62.344 987.315 227 227 227
131.831 -61.844 987.324 217 217 217
131.831 -61.344 987.360 225 225 225
131.831 -60.844 987.386 233 233 232
131.831 -60.344 987.394 234 234 234
131.831 -59.844 987.389 235 235 235
131.831 -59.344 987.345 235 235 235
131.831 -58.844 987.251 237 237 237
131.831 -58.344 987.190 234 234 236
131.831 -57.844 987.183 233 233 235
131.831 -57.344 987.186 233 233 235
131.831 -56.844 987.186 221 223 225
131.831 -56.344 987.177 179 183 188
131.831 -55.844 987.166 147 155 168
132.331 -66.344 985.854 189 189 191
132.331 -65.844 986.714 198 197 202
132.331 -65.344 986.925 210 210 212
132.331 -64.844 986.997 222 222 224
132.331 -64.344 987.059 234 234 236
132.331 -63.844 987.193 234 234 234
132.331 -63.344 987.271 233 233 233
132.331 -62.844 987.297 234 234 234
132.331 -62.344 987.322 232 232 231
132.331 -61.844 987.361 226 226 226
132.331 -61.344 987.403 227 227 227
132.331 -60.844 987.405 230 230 229
132.331 -60.344 987.400 233 233 232
132.331 -59.844 987.390 237 237 237
132.331 -59.344 987.336 238 238 238
132.331 -58.844 987.243 238 238 238
132.331 -58.344 987.179 236 236 237
132.331 -57.844 987.170 236 236 238
132.331 -57.344 987.177 231 231 232
132.331 -56.844 987.174 221 223 226
132.331 -56.344 987.170 192 195 200
132.331 -55.844 987.152 142 149 162
132.831 -66.344 985.552 202 202 204
132.831 -65.844 986.575 203 203 205
132.831 -65.344 986.872 223 223 225
132.831 -64.844 986.931 233 233 234
132.831 -64.344 986.985 233 233 233
132.831 -63.844 987.097 236 236 236
132.831 -63.344 987.261 235 235 235
132.831 -62.844 987.322 234 234 234
132.831 -62.344 987.347 232 232 231
132.831 -61.844 987.394 225 225 225
132.831 -61.344 987.437 226 226 226
132.831 -60.844 987.434 228 228 228
132.831 -60.344 987.415 232 232 231
132.831 -59.844 987.384 233 233 232
132.831 -59.344 987.309 235 235 235
132.831 -58.844 987.229 236 236 236
132.831 -58.344 987.195 238 238 239
132.831 -57.844 987.185 238 238 240
132.831 -57.344 987.174 233 233 234
132.831 -56.844 987.161 220 222 224
132.831 -56.344 987.158 201 204 210
132.831 -55.844 987.147 144 149 162
133.331 -65.844 986.415 205 205 207
133.331 -65.344 986.766 221 221 223
133.331 -64.844 986.904 234 234 234
133.331 -64.344 986.971 235 235 235
133.331 -63.844 987.083 236 236 236
133.331 -63.344 987.216 239 239 239
133.331 -62.844 987.319 235 235 235
133.331 -62.344 987.367 233 233 232
133.331 -61.844 987.399 227 227 227
133.331 -61.344 987.428 231 231 230
133.331 -60.844 987.428 233 233 232
133.331 -60.344 987.398 233 233 232
133.331 -59.844 987.340 232 232 231
133.331 -59.344 987.285 232 232 231
133.331 -58.844 987.235 236 236 236
133.331 -58.344 987.197 240 240 242
133.331 -57.844 987.179 238 238 240
133.331 -57.344 987.169 232 232 233
133.331 -56.844 987.153 225 226 229
133.331 -56.344 987.149 208 211 218
133.331 -55.844 987.143 149 152 164
133.831 -65.844 986.130 204 204 206
133.831 -65.344 986.582 218 218 218
133.831 -64.844 986.871 231 231 230
133.831 -64.344 986.959 233 233 233
133.831 -63.844 987.059 237 237 235
133.831 -63.344 987.160 239 239 237
133.831 -62.844 987.292 237 237 237
133.831 -62.344 987.362 232 232 231
133.831 -61.844 987.382 228 228 228
133.831 -61.344 987.401 232 232 231
133.831 -60.844 987.392 233 233 232
133.831 -60.344 987.352 233 233 232
133.831 -59.844 987.307 232 232 231
133.831 -59.344 987.282 232 232 231
133.831 -58.844 987.240 234 234 234
133.831 -58.344 987.191 238 238 240
133.831 -57.844 987.165 236 236 238
133.831 -57.344 987.153 233 233 235
133.831 -56.844 987.143 225 226 229
133.831 -56.344 987.145 213 213 221
133.831 -55.844 987.145 158 161 172
134.331 -65.844 985.779 201 201 201
134.331 -65.344 986.487 214 214 214
134.331 -64.844 986.814 226 226 226
134.331 -64.344 986.933 233 233 231
134.331 -63.844 986.998 236 236 234
134.331 -63.344 987.107 238 238 236
134.331 -62.844 987.275 240 240 240
134.331 -62.344 987.373 237 237 237
134.331 -61.844 987.386 230 230 229
134.331 -61.344 987.385 230 230 229
134.331 -60.844 987.365 230 230 229
134.331 -60.344 987.332 231 231 230
134.331 -59.844 987.299 233 233 232
134.331 -59.344 987.281 233 233 232
134.331 -58.844 987.248 233 233 232
134.331 -58.344 987.194 233 233 234
134.331 -57.844 987.161 233 233 234
134.331 -57.344 987.134 233 233 235
134.331 -56.844 987.113 227 230 232
134.331 -56.344 987.132 221 221 229
134.331 -55.844 987.148 168 168 179
134.831 -65.344 986.287 214 214 215
134.831 -64.844 986.743 225 225 225
134.831 -64.344 986.898 232 232 230
134.831 -63.844 986.969 236 235 235
134.831 -63.344 987.119 236 235 235
134.831 -62.844 987.342 237 237 237
134.831 -62.344 987.397 236 236 236
134.831 -61.844 987.385 234 234 234
134.831 -61.344 987.363 233 233 233
134.831 -60.844 987.345 232 232 231
134.831 -60.344 987.322 233 233 232
134.831 -59.844 987.295 233 233 234
134.831 -59.344 987.275 235 235 236
134.831 -58.844 987.249 234 234 235
134.831 -58.344 987.203 233 233 235
134.831 -57.844 987.158 233 233 235
134.831 -57.344 987.123 233 233 235
134.831 -56.844 987.108 232 233 235
134.831 -56.344 987.130 219 221 226
134.831 -55.844 987.139 179 181 191
134.831 -55.344 987.131 154 162 173
135.331 -65.344 986.079 213 213 215
135.331 -64.844 986.640 221 221 222
135.331 -64.344 986.835 230 230 229
135.331 -63.844 986.953 233 232 232
135.331 -63.344 987.160 236 234 235
135.331 -62.844 987.356 237 237 237
135.331 -62.344 987.397 236 236 236
135.331 -61.844 987.379 237 237 237
135.331 -61.344 987.336 238 238 238
135.331 -60.844 987.318 235 235 235
135.331 -60.344 987.300 232 232 231
135.331 -59.844 987.274 233 233 234
135.331 -59.344 987.253 235 235 237
135.331 -58.844 987.241 235 235 237
135.331 -58.344 987.218 235 235 237
135.331 -57.844 987.160 233 233 235
135.331 -57.344 987.123 233 233 234
135.331 -56.844 987.115 231 231 233
135.331 -56.344 987.114 215 218 223
135.331 -55.844 987.112 186 190 198
135.331 -55.344 987.100 147 156 164
135.831 -65.344 986.029 221 221 223
135.831 -64.844 986.511 218 218 219
135.831 -64.344 986.781 228 228 228
135.831 -63.844 986.949 231 228 229
135.831 -63.344 987.193 233 232 232
135.831 -62.844 987.317 234 234 234
135.831 -62.344 987.366 235 235 235
135.831 -61.844 987.361 234 234 234
135.831 -61.344 987.323 235 235 235
135.831 -60.844 987.296 234 234 234
135.831 -60.344 987.255 236 236 236
135.831 -59.844 987.230 236 236 238
135.831 -59.344 987.218 235 235 237
135.831 -58.844 987.213 235 235 237
135.831 -58.344 987.204 235 235 237
135.831 -57.844 987.169 233 233 235
135.831 -57.344 987.135 233 233 234
135.831 -56.844 987.120 228 228 231
