154.331 -110.344 992.009 162 168 180
154.331 -109.844 991.944 172 176 188
154.331 -109.344 991.904 181 185 197
154.331 -108.844 991.849 179 181 194
154.331 -108.344 991.810 172 174 187
154.331 -107.844 991.805 162 164 176
154.331 -107.344 991.813 156 158 171
154.331 -106.844 991.812 152 154 166
154.331 -106.344 991.806 148 150 162
154.331 -105.844 991.774 145 147 159
154.331 -105.344 991.780 143 145 157
154.331 -104.844 991.793 138 141 153
154.331 -104.344 991.801 136 140 151
154.331 -103.844 991.800 135 139 150
154.331 -103.344 991.798 134 138 149
154.331 -102.844 991.765 133 137 148
154.331 -102.344 991.780 133 137 148
154.831 -114.844 992.274 126 135 148
154.831 -114.344 992.211 148 154 170
154.831 -113.844 992.171 161 166 181
154.831 -113.344 992.147 166 170 184
154.831 -112.844 992.124 157 162 175
154.831 -112.344 992.109 158 163 176
154.831 -111.844 992.096 162 168 180
154.831 -111.344 992.074 160 166 177
154.831 -110.844 992.052 154 159 171
154.831 -110.344 992.020 147 151 163
154.831 -109.844 991.970 143 147 159
154.831 -109.344 991.933 142 146 157
154.831 -108.844 991.875 142 144 157
154.831 -108.344 991.827 141 143 155
154.831 -107.844 991.825 138 140 152
154.831 -107.344 991.823 136 138 150
154.831 -106.844 991.824 138 140 152
154.831 -106.344 991.819 139 141 153
154.831 -105.844 991.815 138 140 152
154.831 -105.344 991.807 138 140 152
154.831 -104.844 991.828 136 139 150
154.831 -104.344 991.836 133 137 148
154.831 -103.844 991.854 132 136 147
154.831 -103.344 991.824 131 135 146
154.831 -102.844 991.792 133 137 148
154.831 -102.344 991.778 133 137 148
155.331 -118.344 993.504 208 210 215
155.331 -117.844 993.205 172 177 183
155.331 -117.344 992.888 138 145 155
155.331 -116.844 992.637 139 146 155
155.331 -116.344 992.434 162 168 180
155.331 -115.844 992.320 169 174 186
155.331 -115.344 992.284 170 174 183
155.331 -114.844 992.229 156 160 170
155.331 -114.344 992.177 149 153 164
155.331 -113.844 992.141 144 148 159
155.331 -113.344 992.120 139 143 154
155.331 -112.844 992.109 136 140 151
155.331 -112.344 992.102 135 139 150
155.331 -111.844 992.083 137 141 152
155.331 -111.344 992.063 140 144 155
155.331 -110.844 992.038 138 142 153
155.331 -110.344 992.009 137 141 152
155.331 -109.844 991.961 137 139 151
155.331 -109.344 991.897 136 138 150
155.331 -108.844 991.851 138 140 152
155.331 -108.344 991.815 138 140 152
155.331 -107.844 991.797 135 137 149
155.331 -107.344 991.788 135 137 149
155.331 -106.844 991.801 138 140 152
155.331 -106.344 991.809 133 135 147
155.331 -105.844 991.816 134 136 148
155.331 -105.344 991.822 134 136 148
155.331 -104.844 991.840 133 136 147
155.331 -104.344 991.847 131 135 146
155.331 -103.844 991.849 131 135 146
155.331 -103.344 991.826 131 135 146
155.331 -102.844 991.786 132 136 147
155.331 -102.344 991.773 133 137 148
155.831 -122.344 993.290 215 216 218
155.831 -121.844 993.361 211 212 214
155.831 -121.344 993.460 206 207 209
155.831 -120.844 993.568 198 199 202
155.831 -120.344 993.581 191 192 195
155.831 -119.844 993.613 187 188 190
155.831 -119.344 993.620 183 183 184
155.831 -118.844 993.495 177 177 182
155.831 -118.344 993.189 169 172 177
155.831 -117.844 992.910 161 164 171
155.831 -117.344 992.687 152 155 164
155.831 -116.844 992.445 138 141 151
155.831 -116.344 992.300 137 139 151
155.831 -115.844 992.224 138 140 152
155.831 -115.344 992.184 138 140 152
155.831 -114.844 992.156 136 140 149
155.831 -114.344 992.119 136 140 149
155.831 -113.844 992.094 136 140 149
155.831 -113.344 992.083 136 140 151
155.831 -112.844 992.082 137 141 152
155.831 -112.344 992.090 136 140 151
155.831 -111.844 992.085 136 140 151
155.831 -111.344 992.063 137 141 152
155.831 -110.844 992.028 137 139 151
155.831 -110.344 991.991 137 139 151
155.831 -109.844 991.927 137 139 151
155.831 -109.344 991.866 137 139 151
155.831 -108.844 991.830 137 139 151
155.831 -108.344 991.794 136 138 150
155.831 -107.844 991.763 136 138 150
155.831 -107.344 991.737 136 138 150
155.831 -106.844 991.752 135 137 149
155.831 -106.344 991.774 135 137 149
155.831 -105.844 991.786 134 136 148
155.831 -105.344 991.816 134 136 148
155.831 -104.844 991.854 134 136 148
155.831 -104.344 991.867 133 135 147
155.831 -103.844 991.874 133 135 147
155.831 -103.344 991.864 133 135 147
155.831 -102.844 991.808 133 135 147
155.831 -102.344 991.772 133 135 147
156.331 -125.344 991.816 181 181 183
156.331 -124.844 992.041 193 192 196
156.331 -124.344 992.257 197 198 202
156.331 -123.844 992.512 196 197 201
156.331 -123.344 992.742 195 196 200
156.331 -122.844 992.893 189 190 194
156.331 -122.344 993.080 180 181 185
156.331 -121.844 993.168 171 172 176
156.331 -121.344 993.189 168 168 172
156.331 -120.844 993.203 159 161 166
156.331 -120.344 993.181 154 155 160
156.331 -119.844 993.137 151 152 156
156.331 -119.344 993.053 150 149 154
156.331 -118.844 992.899 149 149 154
156.331 -118.344 992.767 148 151 158
156.331 -117.844 992.688 148 151 160
156.331 -117.344 992.448 146 146 156
156.331 -116.844 992.292 137 138 150
156.331 -116.344 992.173 136 138 150
156.331 -115.844 992.109 134 136 149
156.331 -115.344 992.062 134 136 149
156.331 -114.844 992.050 134 137 149
156.331 -114.344 992.042 135 138 148
156.331 -113.844 992.042 135 139 148
156.331 -113.344 992.037 136 140 149
156.331 -112.844 992.041 135 139 150
156.331 -112.344 992.051 135 139 150
156.331 -111.844 992.056 136 139 151
156.331 -111.344 992.039 135 138 150
156.331 -110.844 992.014 138 138 149
156.331 -110.344 991.954 136 138 149
156.331 -109.844 991.887 136 138 149
156.331 -109.344 991.848 137 139 150
156.331 -108.844 991.807 136 138 150
156.331 -108.344 991.756 136 138 149
156.331 -107.844 991.728 136 138 150
156.331 -107.344 991.716 135 137 149
156.331 -106.844 991.716 134 136 148
156.331 -106.344 991.749 134 136 148
156.331 -105.844 991.771 135 137 149
156.331 -105.344 991.803 134 136 148
156.331 -104.844 991.836 132 134 146
156.331 -104.344 991.846 133 135 147
156.331 -103.844 991.861 132 134 146
156.331 -103.344 991.833 132 134 146
156.331 -102.844 991.809 132 134 146
156.331 -102.344 991.768 132 134 146
156.831 -125.344 992.011 157 156 161
156.831 -124.844 992.217 149 149 154
156.831 -124.344 992.295 146 147 151
156.831 -123.844 992.390 144 144 151
156.831 -123.344 992.545 146 146 154
156.831 -122.844 992.732 151 151 159
156.831 -122.344 992.820 146 146 154
156.831 -121.844 992.860 144 144 152
156.831 -121.344 992.912 144 144 152
156.831 -120.844 992.850 142 144 152
156.831 -120.344 992.797 142 145 153
156.831 -119.844 992.777 144 145 151
156.831 -119.344 992.733 146 145 153
156.831 -118.844 992.605 145 145 153
156.831 -118.344 992.466 144 144 155
156.831 -117.844 992.396 141 143 155
156.831 -117.344 992.270 142 142 151
156.831 -116.844 992.153 138 138 148
156.831 -116.344 992.092 135 137 149
156.831 -115.844 992.031 135 137 150
156.831 -115.344 992.018 135 137 149
156.831 -114.844 992.007 135 138 150
156.831 -114.344 991.997 136 139 148
156.831 -113.844 991.982 136 139 148
156.831 -113.344 991.959 136 138 149
156.831 -112.844 991.980 136 138 150
156.831 -112.344 992.016 136 138 150
156.831 -111.844 992.031 136 138 151
156.831 -111.344 992.014 136 138 151
156.831 -110.844 991.985 138 138 148
156.831 -110.344 991.921 138 138 148
156.831 -109.844 991.858 137 138 148
156.831 -109.344 991.822 136 139 148
156.831 -108.844 991.790 136 139 148
156.831 -108.344 991.755 135 139 148
156.831 -107.844 991.724 136 138 150
156.831 -107.344 991.695 136 138 150
156.831 -106.844 991.690 136 138 150
156.831 -106.344 991.709 134 136 148
156.831 -105.844 991.745 134 136 148
156.831 -105.344 991.763 133 135 147
156.831 -104.844 991.808 132 134 146
156.831 -104.344 991.834 132 134 146
156.831 -103.844 991.836 132 134 146
156.831 -103.344 991.811 132 134 146
156.831 -102.844 991.804 132 134 146
156.831 -102.344 991.785 132 134 146
157.331 -125.344 992.064 138 140 148
157.331 -124.844 992.179 136 139 146
157.331 -124.344 992.254 136 139 146
157.331 -123.844 992.316 136 139 148
157.331 -123.344 992.357 136 139 148
157.331 -122.844 992.441 139 142 151
157.331 -122.344 992.522 142 145 154
157.331 -121.844 992.558 141 144 153
157.331 -121.344 992.623 140 143 152
157.331 -120.844 992.557 140 143 152
157.331 -120.344 992.561 140 143 152
157.331 -119.844 992.537 140 143 152
157.331 -119.344 992.468 141 142 152
157.331 -118.844 992.370 140 143 152
157.331 -118.344 992.235 141 144 153
157.331 -117.844 992.125 140 143 152
157.331 -117.344 992.082 139 141 152
157.331 -116.844 992.039 137 139 151
157.331 -116.344 991.980 136 139 148
157.331 -115.844 991.943 137 140 149
157.331 -115.344 991.929 135 138 147
157.331 -114.844 991.923 135 138 147
157.331 -114.344 991.926 135 137 148
157.331 -113.844 991.922 136 138 150
157.331 -113.344 991.906 137 139 151
157.331 -112.844 991.926 136 138 150
157.331 -112.344 991.962 137 139 151
157.331 -111.844 991.994 136 138 150
157.331 -111.344 991.992 136 138 150
157.331 -110.844 991.944 136 139 148
157.331 -110.344 991.895 135 138 147
157.331 -109.844 991.850 137 140 149
157.331 -109.344 991.812 137 140 149
157.331 -108.844 991.786 136 139 148
157.331 -108.344 991.769 135 138 147
157.331 -107.844 991.744 136 139 148
157.331 -107.344 991.706 138 141 150
157.331 -106.844 991.670 140 143 152
157.331 -106.344 991.688 136 139 148
157.331 -105.844 991.712 134 136 148
157.331 -105.344 991.731 132 134 146
157.331 -104.844 991.753 131 134 146
157.331 -104.344 991.785 131 135 146
157.331 -103.844 991.792 132 134 146
157.331 -103.344 991.792 132 134 146
157.331 -102.844 991.791 132 134 146
157.331 -102.344 991.754 132 134 146
157.831 -125.344 991.983 138 141 148
157.831 -124.844 992.034 136 139 148
157.831 -124.344 992.104 137 140 149
157.831 -123.844 992.130 137 140 149
157.831 -123.344 992.199 137 140 149
157.831 -122.844 992.237 140 143 152
157.831 -122.344 992.280 141 144 153
157.831 -121.844 992.297 140 143 152
157.831 -121.344 992.353 138 141 150
157.831 -120.844 992.308 138 141 150
157.831 -120.344 992.324 138 141 150
157.831 -119.844 992.284 139 142 151
157.831 -119.344 992.267 138 141 150
157.831 -118.844 992.194 139 142 151
157.831 -118.344 992.106 141 144 153
157.831 -117.844 992.068 140 143 152
157.831 -117.344 992.007 139 141 153
157.831 -116.844 991.953 138 141 151
157.831 -116.344 991.910 137 140 149
157.831 -115.844 991.883 137 140 149
157.831 -115.344 991.866 137 140 149
157.831 -114.844 991.846 136 139 146
157.831 -114.344 991.841 136 139 147
157.831 -113.844 991.853 137 140 149
157.831 -113.344 991.862 137 140 149
157.831 -112.844 991.871 137 140 149
157.831 -112.344 991.908 137 140 149
157.831 -111.844 991.951 137 140 149
157.831 -111.344 991.955 138 141 150
157.831 -110.844 991.924 139 142 151
157.831 -110.344 991.882 142 145 154
157.831 -109.844 991.851 151 154 163
157.831 -109.344 991.830 154 157 166
157.831 -108.844 991.803 144 147 156
157.831 -108.344 991.785 137 140 149
157.831 -107.844 991.768 139 142 149
157.831 -107.344 991.717 145 148 155
157.831 -106.844 991.689 145 148 157
157.831 -106.344 991.697 142 145 154
157.831 -105.844 991.703 136 139 148
157.831 -105.344 991.725 132 134 146
157.831 -104.844 991.724 131 134 146
157.831 -104.344 991.725 131 135 146
157.831 -103.844 991.743 131 133 145
157.831 -103.344 991.752 131 133 145
157.831 -102.844 991.754 132 134 146
157.831 -102.344 991.732 131 133 145
158.331 -125.344 991.934 139 142 149
158.331 -124.844 991.935 139 142 151
158.331 -124.344 991.969 139 142 151
158.331 -123.844 992.017 140 143 152
158.331 -123.344 992.020 140 143 152
158.331 -122.844 992.026 138 141 150
158.331 -122.344 992.050 138 141 150
158.331 -121.844 992.085 137 140 149
158.331 -121.344 992.153 137 140 149
158.331 -120.844 992.177 138 141 150
158.331 -120.344 992.157 138 141 150
158.331 -119.844 992.127 139 142 151
158.331 -119.344 992.110 138 141 150
158.331 -118.844 992.054 137 140 149
158.331 -118.344 992.007 138 141 150
158.331 -117.844 991.980 139 142 151
158.331 -117.344 991.935 139 141 152
158.331 -116.844 991.893 139 142 151
158.331 -116.344 991.854 139 142 151
158.331 -115.844 991.844 138 141 150
158.331 -115.344 991.821 137 140 147
158.331 -114.844 991.798 137 140 147
158.331 -114.344 991.797 141 144 152
158.331 -113.844 991.801 143 146 155
158.331 -113.344 991.818 144 147 156
158.331 -112.844 991.844 147 150 159
158.331 -112.344 991.864 148 151 160
158.331 -111.844 991.883 147 150 159
158.331 -111.344 991.890 144 147 156
158.331 -110.844 991.883 141 144 153
158.331 -110.344 991.871 142 145 154
158.331 -109.844 991.851 155 158 167
158.331 -109.344 991.835 156 159 167
158.331 -108.844 991.820 154 157 166
158.331 -108.344 991.804 151 154 163
158.331 -107.844 991.782 151 154 161
158.331 -107.344 991.737 159 162 170
158.331 -106.844 991.715 156 159 167
158.331 -106.344 991.720 152 155 164
158.331 -105.844 991.723 145 148 157
158.331 -105.344 991.732 136 139 148
158.331 -104.844 991.696 131 133 145
158.331 -104.344 991.699 131 133 145
158.331 -103.844 991.705 130 134 145
158.331 -103.344 991.715 130 134 145
158.331 -102.844 991.724 129 133 144
158.331 -102.344 991.715 129 133 144
158.831 -125.344 991.872 140 143 150
158.831 -124.844 991.872 140 143 152
158.831 -124.344 991.891 142 145 154
158.831 -123.844 991.887 141 144 153
158.831 -123.344 991.882 138 141 150
158.831 -122.844 991.857 136 139 148
158.831 -122.344 991.862 135 138 147
158.831 -121.844 991.917 136 139 148
158.831 -121.344 991.966 137 140 149
158.831 -120.844 992.022 137 140 149
158.831 -120.344 991.995 139 142 151
158.831 -119.844 991.980 141 144 153
158.831 -119.344 991.962 139 142 151
158.831 -118.844 991.945 138 141 150
158.831 -118.344 991.929 139 142 151
158.831 -117.844 991.891 140 143 152
158.831 -117.344 991.866 139 142 151
158.831 -116.844 991.844 138 141 150
158.831 -116.344 991.820 138 141 149
158.831 -115.844 991.805 138 141 149
158.831 -115.344 991.787 140 143 150
158.831 -114.844 991.768 144 147 154
158.831 -114.344 991.761 149 151 158
158.831 -113.844 991.758 151 152 160
158.831 -113.344 991.768 153 154 162
158.831 -112.844 991.790 159 160 168
158.831 -112.344 991.821 159 160 167
158.831 -111.844 991.842 158 160 167
158.831 -111.344 991.844 150 152 159
158.831 -110.844 991.849 143 144 152
158.831 -110.344 991.852 142 143 151
158.831 -109.844 991.846 151 152 160
158.831 -109.344 991.843 156 158 165
158.831 -108.844 991.827 156 158 165
158.831 -108.344 991.809 159 160 168
158.831 -107.844 991.802 160 163 171
158.831 -107.344 991.795 164 168 174
158.831 -106.844 991.781 164 168 175
158.831 -106.344 991.780 158 161 170
158.831 -105.844 991.778 152 155 164
158.831 -105.344 991.755 141 144 153
158.831 -104.844 991.690 132 135 145
158.831 -104.344 991.686 129 132 142
158.831 -103.844 991.691 129 133 143
158.831 -103.344 991.691 129 133 142
158.831 -102.844 991.710 128 133 142
158.831 -102.344 991.699 130 135 145
159.331 -125.344 991.842 141 144 151
159.331 -124.844 991.845 141 144 153
159.331 -124.344 991.853 142 145 154
159.331 -123.844 991.832 141 144 153
159.331 -123.344 991.824 137 140 149
159.331 -122.844 991.820 134 137 146
159.331 -122.344 991.822 134 137 146
159.331 -121.844 991.855 135 138 147
159.331 -121.344 991.905 136 139 148
159.331 -120.844 991.934 137 140 149
159.331 -120.344 991.950 138 141 150
159.331 -119.844 991.922 139 142 151
159.331 -119.344 991.913 140 143 152
159.331 -118.844 991.910 138 141 150
159.331 -118.344 991.894 136 139 148
159.331 -117.844 991.871 136 139 148
159.331 -117.344 991.850 135 138 147
159.331 -116.844 991.822 136 139 148
159.331 -116.344 991.788 135 138 146
159.331 -115.844 991.768 133 136 143
159.331 -115.344 991.773 141 144 151
159.331 -114.844 991.764 146 149 155
159.331 -114.344 991.754 150 151 156
159.331 -113.844 991.743 149 150 155
159.331 -113.344 991.744 156 157 162
159.331 -112.844 991.750 157 158 163
159.331 -112.344 991.776 157 158 163
159.331 -111.844 991.802 162 163 168
159.331 -111.344 991.818 159 160 165
159.331 -110.844 991.819 153 153 161
159.331 -110.344 991.819 150 150 158
159.331 -109.844 991.825 146 146 154
159.331 -109.344 991.832 153 153 161
159.331 -108.844 991.830 157 157 165
159.331 -108.344 991.822 157 157 165
159.331 -107.844 991.820 154 157 162
159.331 -107.344 991.842 153 156 163
159.331 -106.844 991.831 159 162 170
159.331 -106.344 991.819 157 160 167
159.331 -105.844 991.799 151 154 163
159.331 -105.344 991.775 142 145 154
159.331 -104.844 991.691 133 136 145
159.331 -104.344 991.675 127 130 139
159.331 -103.844 991.681 135 139 148
159.331 -103.344 991.680 144 148 157
159.331 -102.844 991.689 163 170 178
159.331 -102.344 991.709 140 147 155
159.831 -125.344 991.826 143 146 153
159.831 -124.844 991.849 144 147 156
159.831 -124.344 991.862 143 146 155
159.831 -123.844 991.837 141 144 153
159.831 -123.344 991.821 137 140 149
159.831 -122.844 991.806 134 137 146
159.831 -122.344 991.795 134 137 146
159.831 -121.844 991.816 135 138 147
159.831 -121.344 991.860 135 138 147
159.831 -120.844 991.894 136 139 148
159.831 -120.344 991.885 138 141 150
159.831 -119.844 991.843 140 143 152
159.831 -119.344 991.866 140 143 152
159.831 -118.844 991.878 140 143 152
159.831 -118.344 991.878 137 140 149
159.831 -117.844 991.864 135 138 147
159.831 -117.344 991.838 134 137 146
159.831 -116.844 991.810 134 137 145
159.831 -116.344 991.782 133 136 143
159.831 -115.844 991.765 134 137 144
159.831 -115.344 991.769 136 139 146
159.831 -114.844 991.765 144 147 152
159.831 -114.344 991.757 147 149 154
159.831 -113.844 991.747 147 148 153
159.831 -113.344 991.747 153 154 159
159.831 -112.844 991.755 154 155 160
159.831 -112.344 991.773 157 158 163
159.831 -111.844 991.780 161 162 167
159.831 -111.344 991.791 162 163 168
159.831 -110.844 991.802 161 161 170
159.831 -110.344 991.809 161 161 170
159.831 -109.844 991.821 158 158 166
159.831 -109.344 991.834 155 155 163
159.831 -108.844 991.846 160 160 168
159.831 -108.344 991.843 162 162 171
159.831 -107.844 991.847 155 158 163
159.831 -107.344 991.882 149 152 157
159.831 -106.844 991.892 152 155 162
159.831 -106.344 991.880 154 157 164
159.831 -105.844 991.829 148 151 158
159.831 -105.344 991.775 139 142 151
159.831 -104.844 991.691 134 137 146
159.831 -104.344 991.670 131 134 143
159.831 -103.844 991.677 162 167 175
159.831 -103.344 991.677 142 146 155
159.831 -102.844 991.678 159 167 174
159.831 -102.344 991.703 138 147 154
160.331 -125.344 991.840 143 145 153
160.331 -124.844 991.868 145 148 157
160.331 -124.344 991.878 142 145 154
160.331 -123.844 991.862 139 142 151
160.331 -123.344 991.822 137 139 149
160.331 -122.844 991.797 136 139 148
160.331 -122.344 991.781 135 138 147
160.331 -121.844 991.789 135 138 147
160.331 -121.344 991.814 136 138 147
160.331 -120.844 991.834 136 139 148
160.331 -120.344 991.825 140 143 152
160.331 -119.844 991.794 143 146 155
160.331 -119.344 991.814 141 144 152
160.331 -118.844 991.848 139 142 151
160.331 -118.344 991.856 139 142 150
160.331 -117.844 991.851 135 138 147
160.331 -117.344 991.831 135 139 145
160.331 -116.844 991.806 137 140 147
160.331 -116.344 991.796 140 143 150
160.331 -115.844 991.786 144 147 154
160.331 -115.344 991.779 147 150 155
160.331 -114.844 991.770 151 154 159
160.331 -114.344 991.773 148 151 156
160.331 -113.844 991.776 150 151 157
160.331 -113.344 991.781 151 152 158
160.331 -112.844 991.785 153 154 159
160.331 -112.344 991.789 154 155 160
160.331 -111.844 991.777 161 162 167
160.331 -111.344 991.780 162 163 168
160.331 -110.844 991.796 161 162 167
160.331 -110.344 991.800 162 163 168
160.331 -109.844 991.812 167 168 172
160.331 -109.344 991.824 162 163 168
160.331 -108.844 991.840 161 161 166
160.331 -108.344 991.850 163 163 170
160.331 -107.844 991.879 160 162 167
160.331 -107.344 991.958 157 160 165
160.331 -106.844 991.981 156 159 165
160.331 -106.344 991.949 153 156 163
160.331 -105.844 991.869 149 152 159
160.331 -105.344 991.784 139 142 149
160.331 -104.844 991.705 135 138 146
160.331 -104.344 991.683 136 139 148
160.331 -103.844 991.679 130 134 143
160.331 -103.344 991.674 134 138 147
160.331 -102.844 991.685 129 135 143
160.331 -102.344 991.729 127 134 142
160.831 -125.344 991.877 148 148 156
160.831 -124.844 991.899 145 148 156
160.831 -124.344 991.909 144 147 156
160.831 -123.844 991.886 143 143 153
160.831 -123.344 991.833 139 139 149
160.831 -122.844 991.811 137 137 147
160.831 -122.344 991.784 138 138 148
160.831 -121.844 991.769 137 137 147
160.831 -121.344 991.797 137 137 147
160.831 -120.844 991.799 137 138 147
160.831 -120.344 991.792 137 141 148
160.831 -119.844 991.778 139 143 149
160.831 -119.344 991.781 139 142 149
160.831 -118.844 991.812 135 139 146
160.831 -118.344 991.822 136 140 147
160.831 -117.844 991.829 137 141 147
160.831 -117.344 991.834 135 140 146
160.831 -116.844 991.825 139 144 150
160.831 -116.344 991.819 147 152 158
160.831 -115.844 991.804 158 163 170
160.831 -115.344 991.790 179 184 190
160.831 -114.844 991.785 189 194 200
160.831 -114.344 991.803 155 158 165
160.831 -113.844 991.824 150 153 160
160.831 -113.344 991.836 151 152 160
160.831 -112.844 991.828 150 151 157
160.831 -112.344 991.812 146 147 152
160.831 -111.844 991.793 156 156 162
160.831 -111.344 991.785 160 160 166
160.831 -110.844 991.796 161 161 166
160.831 -110.344 991.805 164 164 171
160.831 -109.844 991.818 168 168 173
160.831 -109.344 991.827 170 170 175
160.831 -108.844 991.842 163 163 170
160.831 -108.344 991.855 163 163 168
160.831 -107.844 991.900 164 164 171
160.831 -107.344 991.982 167 167 171
160.831 -106.844 992.033 161 162 168
160.831 -106.344 992.021 151 153 160
160.831 -105.844 991.922 145 148 155
160.831 -105.344 991.790 139 142 151
160.831 -104.844 991.710 136 139 148
160.831 -104.344 991.682 134 137 146
160.831 -103.844 991.666 134 137 146
160.831 -103.344 991.663 132 135 144
160.831 -102.844 991.695 132 135 144
160.831 -102.344 991.758 133 137 146
161.331 -125.344 991.913 152 152 160
161.331 -124.844 991.936 146 149 156
161.331 -124.344 991.927 145 148 155
161.331 -123.844 991.894 144 144 154
161.331 -123.344 991.837 142 142 152
161.331 -122.844 991.810 138 138 148
161.331 -122.344 991.788 138 138 148
161.331 -121.844 991.780 137 137 147
161.331 -121.344 991.799 137 137 147
161.331 -120.844 991.803 137 138 147
161.331 -120.344 991.793 135 138 147
161.331 -119.844 991.791 135 138 147
161.331 -119.344 991.784 136 139 148
161.331 -118.844 991.795 136 139 148
161.331 -118.344 991.792 136 139 148
161.331 -117.844 991.804 148 151 160
161.331 -117.344 991.834 171 179 184
161.331 -116.844 991.837 203 210 216
161.331 -116.344 991.840 208 215 221
161.331 -115.844 991.827 209 216 222
161.331 -115.344 991.818 202 209 215
161.331 -114.844 991.820 190 197 204
161.331 -114.344 991.834 154 158 167
161.331 -113.844 991.852 148 151 160
161.331 -113.344 991.867 150 153 162
161.331 -112.844 991.863 148 151 158
161.331 -112.344 991.842 149 150 158
161.331 -111.844 991.822 153 153 161
161.331 -111.344 991.810 160 161 166
161.331 -110.844 991.810 160 160 168
161.331 -110.344 991.821 160 160 168
161.331 -109.844 991.837 162 162 171
161.331 -109.344 991.846 155 155 163
161.331 -108.844 991.852 151 151 159
161.331 -108.344 991.865 157 157 165
161.331 -107.844 991.927 159 160 165
161.331 -107.344 992.011 155 156 161
161.331 -106.844 992.048 153 154 160
161.331 -106.344 992.052 147 149 157
161.331 -105.844 991.966 143 146 153
161.331 -105.344 991.793 140 143 150
161.331 -104.844 991.709 138 141 148
161.331 -104.344 991.668 136 139 146
161.331 -103.844 991.643 134 137 144
161.331 -103.344 991.640 142 145 152
161.331 -102.844 991.670 138 141 148
161.331 -102.344 991.740 135 138 145
161.831 -125.344 991.939 153 153 161
161.831 -124.844 991.938 147 150 157
161.831 -124.344 991.935 144 147 154
161.831 -123.844 991.886 143 143 153
161.831 -123.344 991.842 142 142 152
161.831 -122.844 991.825 140 140 150
161.831 -122.344 991.808 139 139 149
161.831 -121.844 991.808 137 137 147
161.831 -121.344 991.810 137 137 147
161.831 -120.844 991.818 135 137 146
161.831 -120.344 991.818 134 137 146
161.831 -119.844 991.827 136 139 148
161.831 -119.344 991.817 136 139 148
161.831 -118.844 991.805 136 139 148
161.831 -118.344 991.794 138 141 150
161.831 -117.844 991.805 161 164 173
161.831 -117.344 991.838 151 158 166
161.831 -116.844 991.852 150 157 165
161.831 -116.344 991.857 148 155 163
161.831 -115.844 991.855 147 154 162
161.831 -115.344 991.855 146 153 161
161.831 -114.844 991.859 147 154 162
161.831 -114.344 991.864 148 152 161
161.831 -113.844 991.883 146 150 159
161.831 -113.344 991.903 148 151 160
161.831 -112.844 991.901 151 154 161
161.831 -112.344 991.877 150 153 160
161.831 -111.844 991.854 153 153 161
161.831 -111.344 991.844 157 157 165
161.831 -110.844 991.838 156 156 164
161.831 -110.344 991.840 154 154 162
161.831 -109.844 991.858 154 154 162
161.831 -109.344 991.871 145 145 153
161.831 -108.844 991.867 141 141 149
161.831 -108.344 991.870 145 145 153
161.831 -107.844 991.908 145 146 151
161.831 -107.344 991.972 145 146 151
161.831 -106.844 992.011 149 150 155
161.831 -106.344 992.010 147 148 153
161.831 -105.844 991.948 143 144 149
161.831 -105.344 991.799 142 143 148
161.831 -104.844 991.684 138 140 145
161.831 -104.344 991.570 134 137 142
161.831 -103.844 991.518 148 149 154
161.831 -103.344 991.534 160 161 166
161.831 -102.844 991.533 155 156 161
161.831 -102.344 991.613 160 161 166
162.331 -125.344 991.949 153 154 159
162.331 -124.844 991.937 153 156 163
162.331 -124.344 991.937 148 151 158
162.331 -123.844 991.910 144 144 152
162.331 -123.344 991.895 143 143 151
162.331 -122.844 991.865 140 140 148
162.331 -122.344 991.841 139 139 147
162.331 -121.844 991.841 139 139 147
162.331 -121.344 991.843 140 140 148
162.331 -120.844 991.849 137 138 147
162.331 -120.344 991.857 135 138 147
162.331 -119.844 991.864 136 138 147
162.331 -119.344 991.852 137 139 149
162.331 -118.844 991.826 137 139 149
162.331 -118.344 991.808 138 140 149
162.331 -117.844 991.815 138 140 150
162.331 -117.344 991.836 136 141 147
162.331 -116.844 991.855 139 144 150
162.331 -116.344 991.859 143 147 153
162.331 -115.844 991.862 144 149 155
162.331 -115.344 991.865 146 150 156
162.331 -114.844 991.878 148 153 159
162.331 -114.344 991.899 153 156 165
162.331 -113.844 991.921 145 148 157
162.331 -113.344 991.938 143 146 153
162.331 -112.844 991.931 145 148 155
162.331 -112.344 991.909 149 149 157
162.331 -111.844 991.892 150 151 156
162.331 -111.344 991.876 150 150 156
162.331 -110.844 991.853 147 148 153
162.331 -110.344 991.841 142 142 147
162.331 -109.844 991.845 139 140 145
162.331 -109.344 991.860 138 138 143
162.331 -108.844 991.849 138 139 144
162.331 -108.344 991.833 141 142 147
162.331 -107.844 991.838 144 145 149
162.331 -107.344 991.893 144 144 148
162.331 -106.844 991.945 169 168 173
162.331 -106.344 991.923 154 153 158
162.331 -105.844 991.811 145 145 148
162.331 -105.344 991.688 151 150 153
162.331 -104.844 991.518 150 150 152
162.331 -104.344 991.166 153 154 156
162.331 -103.844 991.034 160 160 162
162.331 -103.344 991.098 173 173 173
162.331 -102.844 991.041 181 179 180
162.331 -102.344 991.127 179 179 176
162.831 -125.344 991.961 149 150 155
162.831 -124.844 991.946 152 155 161
162.831 -124.344 991.954 152 155 161
162.831 -123.844 991.962 154 154 162
162.831 -123.344 991.971 149 149 157
162.831 -122.844 991.929 147 147 155
162.831 -122.344 991.908 150 150 158
162.831 -121.844 991.908 147 147 155
162.831 -121.344 991.920 144 144 152
162.831 -120.844 991.923 141 141 149
162.831 -120.344 991.925 138 138 147
162.831 -119.844 991.939 137 137 146
162.831 -119.344 991.927 138 138 147
162.831 -118.844 991.880 140 140 148
162.831 -118.344 991.840 140 140 148
162.831 -117.844 991.837 140 140 148
162.831 -117.344 991.833 142 144 150
162.831 -116.844 991.851 144 146 152
162.831 -116.344 991.856 147 148 154
162.831 -115.844 991.866 146 148 154
162.831 -115.344 991.875 146 148 153
162.831 -114.844 991.893 146 148 154
162.831 -114.344 991.924 146 148 154
162.831 -113.844 991.932 142 144 150
162.831 -113.344 991.924 143 144 150
162.831 -112.844 991.890 143 143 148
162.831 -112.344 991.858 145 144 149
162.831 -111.844 991.841 145 144 150
162.831 -111.344 991.779 147 146 151
162.831 -110.844 991.707 146 145 149
162.831 -110.344 991.726 142 140 144
162.831 -109.844 991.745 139 138 142
162.831 -109.344 991.713 141 139 143
162.831 -108.844 991.655 145 144 148
162.831 -108.344 991.604 149 148 152
162.831 -107.844 991.577 157 156 158
162.831 -107.344 991.210 172 171 173
162.831 -106.844 991.024 179 175 177
162.831 -106.344 990.943 185 183 183
162.831 -105.844 990.742 179 176 176
162.831 -105.344 990.470 174 170 170
162.831 -104.844 990.250 168 166 163
162.831 -104.344 989.461 171 169 167
162.831 -103.844 989.288 177 173 171
162.831 -103.344 989.371 162 158 154
162.831 -102.844 989.318 183 175 172
162.831 -102.344 989.385 186 179 174
163.331 -125.344 991.988 148 149 154
163.331 -124.844 991.978 152 155 160
163.331 -124.344 991.979 153 156 161
163.331 -123.844 992.003 156 156 164
163.331 -123.344 992.021 153 153 161
163.331 -122.844 991.989 152 152 160
163.331 -122.344 991.980 151 151 159
163.331 -121.844 991.984 147 147 155
163.331 -121.344 992.009 145 145 153
163.331 -120.844 992.010 142 142 150
163.331 -120.344 992.022 141 141 149
163.331 -119.844 992.047 140 140 148
163.331 -119.344 992.026 140 140 148
163.331 -118.844 991.944 140 140 148
163.331 -118.344 991.867 139 139 147
163.331 -117.844 991.839 139 139 147
163.331 -117.344 991.811 147 146 151
163.331 -116.844 991.806 150 149 154
163.331 -116.344 991.794 149 148 153
163.331 -115.844 991.792 147 146 151
163.331 -115.344 991.841 145 144 149
163.331 -114.844 991.873 146 145 150
163.331 -114.344 991.879 145 144 150
163.331 -113.844 991.867 143 142 147
163.331 -113.344 991.833 145 144 149
163.331 -112.844 991.721 147 145 150
163.331 -112.344 991.549 152 150 153
163.331 -111.844 991.426 157 155 158
163.331 -111.344 990.964 166 163 166
163.331 -110.844 990.542 164 162 163
163.331 -110.344 990.666 173 171 172
163.331 -109.844 990.753 174 172 173
163.331 -109.344 990.649 176 174 174
163.331 -108.844 990.536 173 171 172
163.331 -108.344 990.469 171 169 171
163.331 -107.844 990.186 163 159 159
163.331 -107.344 987.786 189 185 184
163.331 -106.844 986.474 185 180 180
163.331 -106.344 986.268 193 188 185
163.331 -105.844 985.987 154 149 146
163.331 -105.344 985.592 168 159 156
163.831 -125.344 992.016 148 147 155
163.831 -124.844 992.016 150 149 156
163.831 -124.344 991.999 153 152 158
163.831 -123.844 992.025 152 151 158
163.831 -123.344 992.034 151 150 158
163.831 -122.844 992.023 149 148 155
163.831 -122.344 992.017 146 145 151
163.831 -121.844 992.017 146 145 151
163.831 -121.344 992.035 145 144 150
163.831 -120.844 992.038 142 143 148
163.831 -120.344 992.050 136 139 144
163.831 -119.844 992.049 140 142 147
163.831 -119.344 992.043 139 140 145
163.831 -118.844 991.969 139 140 145
163.831 -118.344 991.830 138 139 145
163.831 -117.844 991.709 141 140 147
163.831 -117.344 991.614 161 160 165
163.831 -116.844 991.581 179 179 181
163.831 -116.344 991.541 161 160 164
163.831 -115.844 991.481 158 157 159
163.831 -115.344 991.311 158 156 158
163.831 -114.844 990.937 168 166 167
163.831 -114.344 990.828 175 174 176
163.831 -113.844 990.702 179 179 178
163.831 -113.344 990.631 179 179 178
163.831 -112.844 990.481 176 174 174
163.831 -112.344 990.000 163 159 159
163.831 -111.844 989.410 177 173 172
163.831 -111.344 987.865 183 179 176
163.831 -110.844 986.547 174 171 171
163.831 -110.344 986.248 166 161 159
163.831 -109.844 986.023 167 162 160
163.831 -109.344 985.994 159 155 152
163.831 -108.844 985.974 168 161 159
163.831 -108.344 985.988 173 167 164
163.831 -107.844 985.509 152 145 141
164.331 -125.344 992.008 144 143 149
164.331 -124.844 992.008 150 149 155
164.331 -124.344 992.023 148 147 152
164.331 -123.844 992.039 148 147 152
164.331 -123.344 992.029 147 146 152
164.331 -122.844 992.013 146 145 151
164.331 -122.344 992.041 143 142 148
164.331 -121.844 992.014 145 144 148
164.331 -121.344 991.919 144 143 147
164.331 -120.844 991.911 142 141 146
164.331 -120.344 991.885 143 144 146
164.331 -119.844 991.923 142 142 144
164.331 -119.344 991.695 144 144 146
164.331 -118.844 990.973 155 155 157
164.331 -118.344 990.737 151 149 152
164.331 -117.844 990.641 163 159 163
164.331 -117.344 990.431 184 180 181
164.331 -116.844 990.146 177 173 172
164.331 -116.344 990.099 188 184 183
164.331 -115.844 990.024 167 162 159
164.331 -115.344 988.675 154 149 146
164.331 -114.844 986.163 171 167 163
164.331 -114.344 985.733 179 173 170
164.331 -113.844 985.498 168 163 159
164.831 -125.344 991.567 145 144 148
164.831 -124.844 991.000 144 143 147
164.831 -124.344 991.025 150 149 151
164.831 -123.844 991.043 156 152 155
164.831 -123.344 990.953 154 150 154
164.831 -122.844 990.942 159 155 159
164.831 -122.344 990.991 166 162 164
164.831 -121.844 990.877 170 168 170
164.831 -121.344 990.407 177 174 175
164.831 -120.844 990.358 154 150 151
164.831 -120.344 990.381 167 161 161
164.831 -119.844 990.682 192 187 185
164.831 -119.344 989.523 186 180 177
164.831 -118.844 986.132 174 168 163
164.831 -118.344 986.061 161 155 149
164.831 -117.844 986.966 171 163 157
164.831 -117.344 986.467 174 164 161
165.331 -125.344 989.012 152 148 147
165.331 -124.844 986.229 157 153 151
165.331 -124.344 986.094 166 161 158
165.331 -123.844 986.101 173 168 166
165.331 -123.344 985.934 160 154 154
165.331 -122.844 985.879 164 159 156
165.331 -122.344 985.746 168 162 159
165.331 -121.844 985.539 164 159 156
149.331 -81.344 985.840 119 121 140
149.331 -80.844 985.934 116 117 133
149.331 -80.344 985.840 125 127 140
149.831 -86.344 987.522 122 136 163
149.831 -85.844 987.410 132 145 170
149.831 -85.344 987.347 134 148 165
149.831 -84.844 986.991 147 158 173
149.831 -84.344 986.943 158 167 178
149.831 -83.844 987.153 143 149 161
149.831 -83.344 987.109 140 145 158
149.831 -82.844 987.084 133 138 149
149.831 -82.344 987.157 126 132 147
149.831 -81.844 987.444 136 142 158
149.831 -81.344 987.847 132 136 151
149.831 -80.844 988.404 132 135 148
149.831 -80.344 988.606 144 145 157
149.831 -79.844 987.891 142 143 153
149.831 -79.344 986.599 126 126 136
150.331 -89.844 988.706 116 126 151
150.331 -89.344 988.682 115 125 147
150.331 -88.844 988.643 111 121 142
150.331 -88.344 988.841 125 133 154
150.331 -87.844 989.288 130 140 158
150.331 -87.344 989.237 137 145 162
150.331 -86.844 988.867 138 145 162
150.331 -86.344 988.871 140 147 162
150.331 -85.844 988.881 142 148 161
150.331 -85.344 989.067 144 148 159
150.331 -84.844 988.817 145 148 157
150.331 -84.344 989.321 142 142 150
150.331 -83.844 990.138 147 147 155
150.331 -83.344 990.291 139 142 151
150.331 -82.844 990.368 132 136 145
150.331 -82.344 990.342 150 155 167
150.331 -81.844 990.371 151 155 167
150.331 -81.344 990.453 144 148 160
150.331 -80.844 990.753 152 156 166
150.331 -80.344 990.622 168 171 180
150.331 -79.844 989.847 171 174 181
150.331 -79.344 988.444 153 156 163
150.331 -78.844 985.661 126 126 136
150.831 -92.844 989.187 112 124 150
150.831 -92.344 989.159 117 124 149
150.831 -91.844 989.113 121 128 149
150.831 -91.344 989.246 125 131 150
150.831 -90.844 989.623 126 131 149
150.831 -90.344 989.570 130 134 149
150.831 -89.844 989.385 130 134 148
150.831 -89.344 989.315 131 133 147
150.831 -88.844 989.397 134 136 149
150.831 -88.344 989.988 136 139 151
150.831 -87.844 990.740 136 139 151
150.831 -87.344 990.853 140 143 155
150.831 -86.844 990.684 145 149 159
150.831 -86.344 990.684 146 152 161
150.831 -85.844 990.687 146 150 160
150.831 -85.344 990.758 147 147 156
150.831 -84.844 990.818 157 157 165
150.831 -84.344 991.108 168 168 175
150.831 -83.844 991.397 177 177 186
150.831 -83.344 991.540 184 184 193
150.831 -82.844 991.618 184 187 196
150.831 -82.344 991.606 185 186 192
150.831 -81.844 991.529 186 186 191
150.831 -81.344 991.513 183 183 187
150.831 -80.844 991.573 184 184 187
150.831 -80.344 991.516 184 183 187
150.831 -79.844 991.222 184 184 188
150.831 -79.344 990.086 155 154 159
150.831 -78.844 986.077 124 124 135
151.331 -95.344 989.558 116 127 149
151.331 -94.844 989.557 118 127 146
151.331 -94.344 989.542 119 127 145
151.331 -93.844 989.571 120 127 145
151.331 -93.344 989.643 125 131 146
151.331 -92.844 989.915 125 128 143
151.331 -92.344 989.947 132 135 147
151.331 -91.844 989.895 136 138 150
151.331 -91.344 990.084 137 139 151
151.331 -90.844 990.525 138 140 152
151.331 -90.344 990.553 142 145 154
151.331 -89.844 990.437 150 153 162
151.331 -89.344 990.317 148 151 160
151.331 -88.844 990.471 152 155 165
151.331 -88.344 990.939 162 164 176
151.331 -87.844 991.281 167 169 179
151.331 -87.344 991.324 169 172 181
151.331 -86.844 991.299 174 177 184
151.331 -86.344 991.309 177 180 186
151.331 -85.844 991.369 181 184 189
151.331 -85.344 991.460 185 186 191
151.331 -84.844 991.511 185 186 191
151.331 -84.344 991.623 184 184 189
151.331 -83.844 991.713 184 184 189
151.331 -83.344 991.758 180 181 185
151.331 -82.844 991.775 181 183 186
151.331 -82.344 991.778 183 181 186
151.331 -81.844 991.749 181 180 185
151.331 -81.344 991.779 181 180 185
151.331 -80.844 991.816 179 177 182
151.331 -80.344 991.816 177 176 181
151.331 -79.844 991.776 184 183 187
151.331 -79.344 991.387 195 194 200
151.331 -78.844 987.160 135 135 143
151.831 -93.844 990.380 134 137 148
151.831 -93.344 990.454 139 139 149
151.831 -92.844 990.690 144 144 151
151.831 -92.344 990.821 150 149 156
151.831 -91.844 990.891 152 154 163
151.831 -91.344 991.034 160 163 171
151.831 -90.844 991.177 168 171 179
151.831 -90.344 991.273 175 179 185
151.831 -89.844 991.269 179 183 189
151.831 -89.344 991.234 179 183 189
151.831 -88.844 991.320 183 184 192
151.831 -88.344 991.497 184 184 193
151.831 -87.844 991.523 179 179 188
151.831 -87.344 991.491 177 179 184
151.831 -86.844 991.487 176 177 182
151.831 -86.344 991.518 176 177 182
151.831 -85.844 991.583 177 179 182
151.831 -85.344 991.640 179 179 184
151.831 -84.844 991.665 181 183 186
151.831 -84.344 991.711 184 185 189
151.831 -83.844 991.750 181 183 186
151.831 -83.344 991.775 184 184 188
151.831 -82.844 991.796 184 184 186
151.831 -82.344 991.806 181 181 185
151.831 -81.844 991.812 183 181 186
151.831 -81.344 991.830 181 180 185
151.831 -80.844 991.845 183 181 186
151.831 -80.344 991.848 184 183 187
151.831 -79.844 991.889 188 187 192
151.831 -79.344 991.817 211 210 215
151.831 -78.844 990.263 143 143 151
152.331 -97.844 990.980 132 136 145
152.331 -97.344 991.070 138 142 151
152.331 -96.844 991.060 141 144 153
152.331 -96.344 990.929 145 147 159
152.331 -95.844 990.761 147 147 159
152.331 -95.344 990.939 147 149 161
152.331 -94.844 990.998 146 149 158
152.331 -94.344 991.011 156 160 167
152.331 -93.844 991.127 169 171 178
152.331 -93.344 991.210 173 174 179
152.331 -92.844 991.254 174 173 178
152.331 -92.344 991.297 176 175 180
152.331 -91.844 991.360 179 180 185
152.331 -91.344 991.413 179 183 187
152.331 -90.844 991.445 183 185 190
152.331 -90.344 991.483 183 184 189
152.331 -89.844 991.556 179 181 186
152.331 -89.344 991.607 179 180 185
152.331 -88.844 991.619 175 175 180
152.331 -88.344 991.643 175 174 180
152.331 -87.844 991.635 177 176 182
152.331 -87.344 991.615 171 170 176
152.331 -86.844 991.610 176 175 180
152.331 -86.344 991.639 179 179 183
152.331 -85.844 991.666 179 179 182
152.331 -85.344 991.698 179 180 184
152.331 -84.844 991.725 179 179 183
152.331 -84.344 991.744 179 180 183
152.331 -83.844 991.757 183 184 185
152.331 -83.344 991.769 183 184 185
152.331 -82.844 991.781 184 184 186
152.331 -82.344 991.792 183 183 184
152.331 -81.844 991.812 183 181 186
152.331 -81.344 991.818 180 179 183
152.331 -80.844 991.828 181 180 185
152.331 -80.344 991.807 189 188 193
152.331 -79.844 991.881 187 186 191
152.331 -79.344 991.931 204 203 208
152.331 -78.844 991.375 154 153 159
152.831 -101.344 991.346 128 130 144
152.831 -100.844 991.408 134 136 150
152.831 -100.344 991.382 143 145 158
152.831 -99.844 991.419 152 154 166
152.831 -99.344 991.450 157 159 171
152.831 -98.844 991.431 163 166 177
152.831 -98.344 991.430 174 177 185
152.831 -97.844 991.449 172 175 182
152.831 -97.344 991.487 168 170 177
152.831 -96.844 991.479 168 170 178
152.831 -96.344 991.390 166 168 177
152.831 -95.844 991.382 159 162 171
152.831 -95.344 991.423 155 158 167
152.831 -94.844 991.435 154 158 167
152.831 -94.344 991.416 158 162 171
152.831 -93.844 991.442 163 167 173
152.831 -93.344 991.483 163 167 173
152.831 -92.844 991.503 171 173 179
152.831 -92.344 991.524 177 179 183
152.831 -91.844 991.532 179 179 183
152.831 -91.344 991.535 183 184 186
152.831 -90.844 991.551 186 187 191
152.831 -90.344 991.571 186 187 191
152.831 -89.844 991.622 183 184 187
152.831 -89.344 991.665 179 180 184
152.831 -88.844 991.670 175 175 179
152.831 -88.344 991.683 175 174 179
152.831 -87.844 991.685 173 172 177
152.831 -87.344 991.688 174 173 178
152.831 -86.844 991.690 179 177 182
152.831 -86.344 991.691 180 179 183
152.831 -85.844 991.692 181 180 184
152.831 -85.344 991.711 181 180 185
152.831 -84.844 991.737 183 183 186
152.831 -84.344 991.755 183 184 185
152.831 -83.844 991.764 184 184 186
152.831 -83.344 991.776 187 187 189
152.831 -82.844 991.787 186 187 187
152.831 -82.344 991.796 184 184 185
152.831 -81.844 991.809 181 181 183
152.831 -81.344 991.791 181 181 183
152.831 -80.844 991.793 179 179 180
152.831 -80.344 991.788 177 177 179
152.831 -79.844 991.816 184 184 185
152.831 -79.344 991.903 198 198 200
152.831 -78.844 991.217 179 179 183
153.331 -101.844 991.602 164 167 178
153.331 -101.344 991.617 167 170 182
153.331 -100.844 991.640 167 170 181
153.331 -100.344 991.638 163 168 178
153.331 -99.844 991.704 158 162 173
153.331 -99.344 991.715 155 159 168
153.331 -98.844 991.653 158 161 171
153.331 -98.344 991.649 161 164 171
153.331 -97.844 991.682 159 162 170
153.331 -97.344 991.687 159 162 170
153.331 -96.844 991.670 160 163 171
153.331 -96.344 991.591 157 160 167
153.331 -95.844 991.592 154 157 164
153.331 -95.344 991.621 154 157 164
153.331 -94.844 991.629 158 161 168
153.331 -94.344 991.639 160 163 170
153.331 -93.844 991.610 161 161 168
153.331 -93.344 991.586 163 164 170
153.331 -92.844 991.580 172 173 178
153.331 -92.344 991.577 175 176 181
153.331 -91.844 991.582 175 176 179
153.331 -91.344 991.590 183 184 185
153.331 -90.844 991.611 188 189 192
153.331 -90.344 991.648 188 189 193
153.331 -89.844 991.693 184 185 189
153.331 -89.344 991.707 176 177 182
153.331 -88.844 991.688 172 173 178
153.331 -88.344 991.689 173 174 178
153.331 -87.844 991.700 174 175 179
153.331 -87.344 991.723 175 176 180
153.331 -86.844 991.730 176 177 181
153.331 -86.344 991.729 176 177 181
153.331 -85.844 991.725 177 179 182
153.331 -85.344 991.731 180 179 184
153.331 -84.844 991.742 185 184 189
153.331 -84.344 991.753 181 180 185
153.331 -83.844 991.760 179 179 183
153.331 -83.344 991.776 185 185 187
153.331 -82.844 991.791 186 186 188
153.331 -82.344 991.788 186 186 188
153.331 -81.844 991.788 179 179 180
153.331 -81.344 991.781 176 176 178
153.331 -80.844 991.788 173 173 175
153.331 -80.344 991.797 171 171 173
153.331 -79.844 991.811 181 181 183
153.331 -79.344 991.853 190 190 192
153.331 -78.844 991.552 192 190 194
153.831 -101.844 991.737 139 143 156
153.831 -101.344 991.786 137 141 152
153.831 -100.844 991.800 139 143 154
153.831 -100.344 991.801 142 146 157
153.831 -99.844 991.801 144 147 156
153.831 -99.344 991.800 142 145 154
153.831 -98.844 991.761 156 159 166
153.831 -98.344 991.748 166 167 173
153.831 -97.844 991.744 164 166 171
153.831 -97.344 991.743 166 167 171
153.831 -96.844 991.728 163 164 170
153.831 -96.344 991.694 159 160 165
153.831 -95.844 991.689 158 159 164
153.831 -95.344 991.684 158 159 164
153.831 -94.844 991.690 163 162 168
153.831 -94.344 991.682 167 166 171
153.831 -93.844 991.662 163 162 167
153.831 -93.344 991.630 162 161 166
153.831 -92.844 991.609 169 168 173
153.831 -92.344 991.604 176 174 179
153.831 -91.844 991.619 176 177 179
153.831 -91.344 991.634 184 184 186
153.831 -90.844 991.657 189 190 194
153.831 -90.344 991.692 188 189 193
153.831 -89.844 991.724 184 184 188
153.831 -89.344 991.725 174 175 179
153.831 -88.844 991.697 173 174 178
153.831 -88.344 991.690 176 177 181
153.831 -87.844 991.706 179 179 183
153.831 -87.344 991.734 177 179 182
153.831 -86.844 991.738 176 177 181
153.831 -86.344 991.748 176 177 182
153.831 -85.844 991.744 172 173 178
153.831 -85.344 991.730 177 176 182
153.831 -84.844 991.731 185 184 189
153.831 -84.344 991.735 184 184 188
153.831 -83.844 991.743 184 184 188
153.831 -83.344 991.768 185 184 189
153.831 -82.844 991.792 187 187 189
153.831 -82.344 991.801 189 189 191
153.831 -81.844 991.797 180 180 182
153.831 -81.344 991.792 171 171 173
153.831 -80.844 991.794 170 170 172
153.831 -80.344 991.812 173 173 175
153.831 -79.844 991.825 181 181 183
153.831 -79.344 991.850 185 185 187
153.831 -78.844 991.123 201 199 204
154.331 -101.844 991.776 134 138 149
154.331 -101.344 991.787 135 137 149
154.331 -100.844 991.800 137 139 151
154.331 -100.344 991.796 141 143 155
154.331 -99.844 991.804 141 143 155
154.331 -99.344 991.810 142 144 156
154.331 -98.844 991.790 150 152 164
154.331 -98.344 991.760 159 162 170
154.331 -97.844 991.755 159 162 170
154.331 -97.344 991.757 161 164 171
154.331 -96.844 991.745 167 167 174
154.331 -96.344 991.731 162 163 168
154.331 -95.844 991.726 156 157 162
154.331 -95.344 991.730 158 157 163
154.331 -94.844 991.730 158 159 164
154.331 -94.344 991.717 168 168 173
154.331 -93.844 991.679 168 169 173
154.331 -93.344 991.644 163 164 168
154.331 -92.844 991.638 170 171 175
154.331 -92.344 991.644 172 173 177
154.331 -91.844 991.658 175 176 178
154.331 -91.344 991.661 185 186 188
154.331 -90.844 991.682 187 188 190
154.331 -90.344 991.700 186 187 189
154.331 -89.844 991.713 180 181 183
154.331 -89.344 991.725 169 170 172
154.331 -88.844 991.710 173 174 177
154.331 -88.344 991.691 179 180 184
154.331 -87.844 991.700 179 180 184
154.331 -87.344 991.719 179 180 184
154.331 -86.844 991.724 175 176 180
154.331 -86.344 991.738 175 176 180
154.331 -85.844 991.737 175 176 180
154.331 -85.344 991.717 176 177 181
154.331 -84.844 991.710 184 184 188
154.331 -84.344 991.708 184 185 189
154.331 -83.844 991.725 183 184 187
154.331 -83.344 991.757 184 184 188
154.331 -82.844 991.775 185 186 190
154.331 -82.344 991.779 187 189 189
154.331 -81.844 991.783 179 179 181
154.331 -81.344 991.786 170 171 175
154.331 -80.844 991.793 171 170 175
154.331 -80.344 991.822 174 173 178
154.331 -79.844 991.848 177 177 179
154.331 -79.344 991.886 180 180 180
154.331 -78.844 991.485 205 205 205
154.831 -101.844 991.764 133 137 148
154.831 -101.344 991.727 135 137 149
154.831 -100.844 991.753 136 138 150
154.831 -100.344 991.741 139 141 153
154.831 -99.844 991.755 141 143 155
154.831 -99.344 991.787 140 142 154
154.831 -98.844 991.744 143 145 157
154.831 -98.344 991.747 149 152 160
154.831 -97.844 991.755 154 157 164
154.831 -97.344 991.766 158 161 168
154.831 -96.844 991.777 164 164 172
154.831 -96.344 991.749 162 162 168
154.831 -95.844 991.758 158 159 164
154.831 -95.344 991.754 166 164 171
154.831 -94.844 991.749 167 168 172
154.831 -94.344 991.723 171 172 177
154.831 -93.844 991.694 176 177 181
154.831 -93.344 991.674 175 176 180
154.831 -92.844 991.660 177 179 182
154.831 -92.344 991.665 168 169 173
154.831 -91.844 991.678 172 173 175
154.831 -91.344 991.692 186 187 189
154.831 -90.844 991.706 183 184 185
154.831 -90.344 991.708 179 180 182
154.831 -89.844 991.710 174 175 177
154.831 -89.344 991.705 171 172 174
154.831 -88.844 991.700 174 175 178
154.831 -88.344 991.688 177 179 182
154.831 -87.844 991.696 176 177 181
154.831 -87.344 991.708 175 176 180
154.831 -86.844 991.722 175 176 180
154.831 -86.344 991.727 175 176 180
154.831 -85.844 991.714 176 177 181
154.831 -85.344 991.690 177 179 182
154.831 -84.844 991.689 183 184 187
154.831 -84.344 991.696 183 184 187
154.831 -83.844 991.720 179 180 184
154.831 -83.344 991.746 183 184 187
154.831 -82.844 991.758 184 184 188
154.831 -82.344 991.762 179 180 183
154.831 -81.844 991.769 173 174 176
154.831 -81.344 991.784 170 171 175
154.831 -80.844 991.792 170 169 174
154.831 -80.344 991.820 169 168 173
154.831 -79.844 991.844 170 170 172
