186.978 -77.269 978.647 184 174 159
187.478 -78.269 978.636 175 163 151
187.478 -77.769 978.650 185 176 160
187.478 -77.269 978.698 205 196 181
187.978 -78.769 978.630 176 163 153
187.978 -78.269 978.677 190 179 165
187.978 -77.769 978.699 206 194 180
187.978 -77.269 978.758 212 203 188
188.478 -79.269 978.589 181 169 157
188.478 -78.769 978.644 196 184 171
188.478 -78.269 978.703 204 192 177
188.478 -77.769 978.746 225 213 199
188.478 -77.269 978.798 226 217 204
188.978 -78.769 978.663 208 195 179
188.978 -78.269 978.727 206 194 177
188.978 -77.769 978.785 218 207 193
188.978 -77.269 978.825 228 220 205
189.478 -78.769 978.701 218 206 190
189.478 -78.269 978.762 218 206 190
189.478 -77.769 978.818 208 199 182
189.478 -77.269 978.861 211 203 188
189.978 -78.269 978.789 226 215 196
189.978 -77.769 978.834 210 200 184
189.978 -77.269 978.888 193 185 170
190.478 -77.769 978.845 202 191 173
190.478 -77.269 978.901 192 183 165
190.978 -77.269 978.918 194 183 165
180.478 -67.769 978.797 209 196 180
180.978 -68.769 978.770 206 193 175
180.978 -68.269 978.803 208 195 177
180.978 -67.769 978.837 209 196 179
181.478 -69.269 978.739 206 193 175
181.478 -68.769 978.783 209 196 179
181.478 -68.269 978.813 211 198 181
181.478 -67.769 978.850 211 198 182
181.978 -69.769 978.731 209 196 180
181.978 -69.269 978.747 211 198 181
181.978 -68.769 978.775 217 204 188
181.978 -68.269 978.809 211 199 183
181.978 -67.769 978.851 207 196 182
182.478 -70.769 978.683 206 193 176
182.478 -70.269 978.706 207 194 177
182.478 -69.769 978.722 213 200 184
182.478 -69.269 978.765 213 201 185
182.478 -68.769 978.809 209 197 182
182.478 -68.269 978.830 210 200 186
182.478 -67.769 978.880 216 206 193
182.978 -71.269 978.679 204 192 175
182.978 -70.769 978.684 207 195 181
182.978 -70.269 978.712 214 202 188
182.978 -69.769 978.745 222 210 195
182.978 -69.269 978.814 222 212 196
182.978 -68.769 978.855 221 211 199
182.978 -68.269 978.877 218 210 197
182.978 -67.769 978.942 222 216 205
183.478 -72.269 978.721 203 190 174
183.478 -71.769 978.708 208 195 179
183.478 -71.269 978.718 210 197 181
183.478 -70.769 978.717 207 195 181
183.478 -70.269 978.754 215 203 189
183.478 -69.769 978.807 224 212 197
183.478 -69.269 978.886 226 218 205
183.478 -68.769 978.904 217 209 197
183.478 -68.269 978.957 222 215 205
183.478 -67.769 979.020 230 225 217
183.978 -72.769 978.774 204 191 174
183.978 -72.269 978.745 207 194 177
183.978 -71.769 978.741 214 201 185
183.978 -71.269 978.770 204 192 175
183.978 -70.769 978.794 207 195 181
183.978 -70.269 978.826 216 204 191
183.978 -69.769 978.891 218 207 194
183.978 -69.269 978.963 221 214 205
183.978 -68.769 978.976 226 223 211
183.978 -68.269 979.038 235 232 223
183.978 -67.769 979.103 236 236 228
184.478 -73.269 978.841 203 190 174
184.478 -72.769 978.846 207 194 177
184.478 -72.269 978.824 207 194 177
184.478 -71.769 978.824 205 193 176
184.478 -71.269 978.827 209 197 183
184.478 -70.769 978.899 210 199 186
184.478 -70.269 978.946 212 202 192
184.478 -69.769 978.984 224 217 206
184.478 -69.269 979.027 230 228 220
184.478 -68.769 979.042 234 233 226
184.478 -68.269 979.109 235 234 228
184.478 -67.769 979.161 235 235 229
184.978 -74.269 978.797 201 189 175
184.978 -73.769 978.865 202 188 175
184.978 -73.269 978.901 198 185 170
184.978 -72.769 978.909 197 185 171
184.978 -72.269 978.929 200 189 174
184.978 -71.769 978.927 207 197 183
184.978 -71.269 978.917 206 196 185
184.978 -70.769 978.993 219 212 201
184.978 -70.269 979.053 230 223 212
184.978 -69.769 979.076 234 231 222
184.978 -69.269 979.106 234 233 227
184.978 -68.769 979.117 235 235 229
184.978 -68.269 979.171 235 236 231
184.978 -67.769 979.200 234 235 229
185.478 -74.769 978.835 199 187 173
185.478 -74.269 978.889 204 192 177
185.478 -73.769 978.932 210 196 183
185.478 -73.269 978.964 199 186 171
185.478 -72.769 978.982 181 171 156
185.478 -72.269 978.998 184 174 160
185.478 -71.769 979.006 208 200 189
185.478 -71.269 978.999 224 219 207
185.478 -70.769 979.088 233 228 219
185.478 -70.269 979.148 235 233 224
185.478 -69.769 979.164 236 233 225
185.478 -69.269 979.181 235 234 228
185.478 -68.769 979.184 233 234 227
185.478 -68.269 979.213 233 234 228
185.478 -67.769 979.226 234 235 229
185.978 -75.769 978.745 192 183 171
185.978 -75.269 978.836 206 195 182
185.978 -74.769 978.906 213 202 188
185.978 -74.269 978.951 220 208 194
185.978 -73.769 978.988 221 210 195
185.978 -73.269 979.018 210 199 185
185.978 -72.769 979.058 185 177 163
185.978 -72.269 979.065 210 204 192
185.978 -71.769 979.118 231 224 213
185.978 -71.269 979.124 236 233 223
185.978 -70.769 979.180 236 233 225
185.978 -70.269 979.220 234 233 227
185.978 -69.769 979.217 235 234 228
185.978 -69.269 979.228 235 233 228
185.978 -68.769 979.234 233 233 227
185.978 -68.269 979.243 233 234 228
185.978 -67.769 979.240 233 234 228
186.478 -76.769 978.692 184 172 159
186.478 -76.269 978.750 199 188 176
186.478 -75.769 978.805 218 206 194
186.478 -75.269 978.903 228 218 206
186.478 -74.769 978.964 217 209 196
186.478 -74.269 978.997 219 211 200
186.478 -73.769 979.029 221 215 204
186.478 -73.269 979.120 218 212 201
186.478 -72.769 979.178 221 217 207
186.478 -72.269 979.189 233 231 222
186.478 -71.769 979.235 235 233 223
186.478 -71.269 979.247 235 233 225
186.478 -70.769 979.251 235 234 227
186.478 -70.269 979.258 233 233 226
186.478 -69.769 979.252 233 233 226
186.478 -69.269 979.258 235 233 228
186.478 -68.769 979.259 233 233 227
186.478 -68.269 979.248 233 233 227
186.478 -67.769 979.239 233 233 227
186.978 -76.769 978.723 197 188 173
186.978 -76.269 978.802 219 209 196
186.978 -75.769 978.856 230 219 207
186.978 -75.269 978.954 225 216 205
186.978 -74.769 979.000 221 213 202
186.978 -74.269 979.044 221 214 205
186.978 -73.769 979.083 233 225 217
186.978 -73.269 979.206 235 232 222
186.978 -72.769 979.275 234 232 223
186.978 -72.269 979.293 233 233 226
186.978 -71.769 979.309 234 233 227
186.978 -71.269 979.306 233 232 225
186.978 -70.769 979.312 230 231 224
186.978 -70.269 979.300 231 232 225
186.978 -69.769 979.293 233 233 227
186.978 -69.269 979.281 234 233 228
186.978 -68.769 979.267 235 234 229
186.978 -68.269 979.243 233 233 226
186.978 -67.769 979.239 233 233 225
187.478 -76.769 978.757 220 211 195
187.478 -76.269 978.842 221 212 196
187.478 -75.769 978.897 225 217 205
187.478 -75.269 978.985 224 216 205
187.478 -74.769 979.027 226 219 208
187.478 -74.269 979.096 236 231 221
187.478 -73.769 979.159 239 234 227
187.478 -73.269 979.246 239 235 229
187.478 -72.769 979.318 235 235 229
187.478 -72.269 979.352 232 233 226
187.478 -71.769 979.369 228 230 223
187.478 -71.269 979.352 228 230 223
187.478 -70.769 979.350 230 231 224
187.478 -70.269 979.331 233 233 227
187.478 -69.769 979.318 233 234 228
187.478 -69.269 979.294 234 233 228
187.478 -68.769 979.273 234 233 227
187.478 -68.269 979.246 233 231 223
187.478 -67.769 979.249 219 212 205
187.978 -76.769 978.819 225 216 202
188.478 -76.769 978.872 223 215 204
188.478 -76.269 978.927 231 221 211
188.478 -75.769 978.986 239 234 228
188.478 -75.269 979.037 241 237 232
188.478 -74.769 979.101 240 237 232
188.478 -74.269 979.153 238 237 232
188.478 -73.769 979.235 238 237 233
188.478 -73.269 979.290 237 237 233
188.478 -72.769 979.359 236 236 232
188.478 -72.269 979.409 236 235 232
188.478 -71.769 979.429 234 233 228
188.478 -71.269 979.411 233 231 225
188.478 -70.769 979.388 235 233 227
188.478 -70.269 979.345 234 233 226
188.478 -69.769 979.317 232 228 223
188.478 -69.269 979.295 210 205 196
188.478 -68.769 979.291 187 179 171
188.478 -68.269 979.282 188 179 170
188.478 -67.769 979.309 195 183 173
188.978 -76.769 978.907 240 232 222
188.978 -76.269 978.963 244 234 227
188.978 -75.769 979.009 241 236 232
188.978 -75.269 979.067 243 238 235
188.978 -74.769 979.123 241 237 234
188.978 -74.269 979.176 239 238 234
188.978 -73.769 979.246 239 238 234
188.978 -73.269 979.289 237 238 233
188.978 -72.769 979.344 237 236 232
188.978 -72.269 979.400 237 236 232
188.978 -71.769 979.412 235 234 229
188.978 -71.269 979.389 233 230 223
188.978 -70.769 979.373 234 230 224
188.978 -70.269 979.336 219 214 207
188.978 -69.769 979.315 193 188 181
188.978 -69.269 979.302 185 179 168
188.978 -68.769 979.307 190 180 171
188.978 -68.269 979.319 198 185 175
188.978 -67.769 979.363 207 193 184
189.478 -76.769 978.942 232 225 212
189.478 -76.269 978.991 241 234 223
189.478 -75.769 979.025 243 237 231
189.478 -75.269 979.088 239 237 231
189.478 -74.769 979.154 238 237 233
189.478 -74.269 979.185 238 239 234
189.478 -73.769 979.240 239 238 234
189.478 -73.269 979.268 237 236 231
189.478 -72.769 979.309 238 236 232
189.478 -72.269 979.357 235 234 229
189.478 -71.769 979.376 237 234 228
189.478 -71.269 979.350 231 226 220
189.478 -70.769 979.342 202 196 190
189.478 -70.269 979.328 191 184 175
189.478 -69.769 979.320 189 181 172
189.478 -69.269 979.317 189 179 165
189.978 -76.769 978.965 216 208 195
189.978 -76.269 979.008 241 234 223
189.978 -75.769 979.042 241 236 228
189.978 -75.269 979.114 239 237 229
189.978 -74.769 979.177 238 237 232
189.978 -74.269 979.198 238 239 234
189.978 -73.769 979.237 238 237 233
189.978 -73.269 979.249 237 235 229
189.978 -72.769 979.261 238 235 229
189.978 -72.269 979.297 239 236 229
189.978 -71.769 979.314 233 228 222
189.978 -71.269 979.305 214 208 199
189.978 -70.769 979.284 191 184 175
189.978 -70.269 979.300 187 179 171
189.978 -69.769 979.322 194 184 174
190.478 -76.769 978.982 198 188 175
190.478 -76.269 979.016 237 228 218
190.478 -75.769 979.049 241 235 226
190.478 -75.269 979.148 240 236 229
190.478 -74.769 979.186 237 236 231
190.478 -74.269 979.208 236 235 229
190.478 -73.769 979.229 237 236 232
190.478 -73.269 979.232 238 235 229
190.478 -72.769 979.232 237 232 224
190.478 -72.269 979.243 228 219 211
190.478 -71.769 979.247 219 211 202
190.478 -71.269 979.259 213 204 194
190.478 -70.769 979.247 203 193 183
190.978 -76.769 978.995 185 173 159
190.978 -76.269 979.022 230 218 206
190.978 -75.769 979.072 241 233 223
190.978 -75.269 979.166 239 233 223
190.978 -74.769 979.194 239 235 227
190.978 -74.269 979.207 236 233 225
190.978 -73.769 979.210 236 233 225
190.978 -73.269 979.208 228 223 217
190.978 -72.769 979.207 220 213 205
190.978 -72.269 979.198 222 212 204
190.978 -71.769 979.198 221 211 201
190.978 -71.269 979.221 209 199 189
191.478 -76.769 978.997 188 175 159
191.478 -76.269 979.029 196 183 170
191.478 -75.769 979.103 214 204 192
191.478 -75.269 979.167 234 225 215
191.478 -74.769 979.195 238 232 221
191.478 -74.269 979.198 235 228 218
191.478 -73.769 979.192 223 216 207
191.478 -73.269 979.189 220 211 202
191.478 -72.769 979.187 218 208 199
191.478 -72.269 979.168 223 213 204
191.978 -76.269 979.050 193 180 163
191.978 -75.769 979.128 184 171 157
191.978 -75.269 979.175 206 195 181
191.978 -74.769 979.211 218 209 195
191.978 -74.269 979.214 217 209 197
191.978 -73.769 979.190 221 212 201
191.978 -73.269 979.180 221 210 197
192.478 -75.769 979.163 198 186 171
192.478 -75.269 979.196 192 180 164
192.478 -74.769 979.233 210 198 185
192.478 -74.269 979.244 221 209 195
192.978 -75.269 979.238 217 205 190
187.978 -76.269 978.881 219 211 199
187.978 -75.769 978.944 220 213 205
187.978 -75.269 979.005 236 230 220
187.978 -74.769 979.066 240 235 226
187.978 -74.269 979.127 239 235 227
187.978 -73.769 979.207 238 235 231
187.978 -73.269 979.273 239 236 233
187.978 -72.769 979.354 236 236 233
187.978 -72.269 979.395 233 233 228
187.978 -71.769 979.415 227 228 223
187.978 -71.269 979.393 228 230 223
187.978 -70.769 979.378 233 233 228
187.978 -70.269 979.349 233 233 227
187.978 -69.769 979.317 232 232 226
187.978 -69.269 979.292 234 233 225
187.978 -68.769 979.277 224 220 213
187.978 -68.269 979.258 203 195 188
187.978 -67.769 979.270 185 176 167
174.978 -59.269 978.823 206 193 176
174.978 -58.769 978.837 206 194 177
175.478 -59.769 978.833 208 195 177
175.478 -59.269 978.863 206 193 176
175.478 -58.769 978.877 206 194 177
175.978 -60.769 978.773 204 193 175
175.978 -60.269 978.820 207 196 177
175.978 -59.769 978.863 208 195 179
175.978 -59.269 978.888 210 197 181
175.978 -58.769 978.910 216 203 188
176.478 -61.769 978.754 202 190 174
176.478 -61.269 978.768 205 193 176
176.478 -60.769 978.797 208 195 179
176.478 -60.269 978.845 209 197 180
176.478 -59.769 978.890 215 202 185
176.478 -59.269 978.922 219 206 190
176.478 -58.769 978.962 223 211 196
176.978 -62.769 978.726 197 185 170
176.978 -62.269 978.746 200 188 172
176.978 -61.769 978.771 205 193 176
176.978 -61.269 978.795 207 195 179
176.978 -60.769 978.830 214 201 185
176.978 -60.269 978.871 220 207 191
176.978 -59.769 978.916 218 207 190
176.978 -59.269 978.959 216 207 191
176.978 -58.769 979.019 218 209 195
177.478 -63.269 978.707 202 189 173
177.478 -62.769 978.732 202 189 173
177.478 -62.269 978.752 203 190 174
177.478 -61.769 978.784 209 196 180
177.478 -61.269 978.826 215 203 187
177.478 -60.769 978.865 222 210 194
177.478 -60.269 978.915 217 206 190
177.478 -59.769 978.975 211 205 190
177.478 -59.269 979.022 216 209 195
177.478 -58.769 979.099 221 217 206
177.978 -64.269 978.642 198 185 170
177.978 -63.769 978.674 199 186 171
177.978 -63.269 978.721 203 190 173
177.978 -62.769 978.754 208 195 177
177.978 -62.269 978.781 212 200 184
177.978 -61.769 978.824 221 209 193
177.978 -61.269 978.890 222 210 194
177.978 -60.769 978.952 219 210 195
177.978 -60.269 979.007 214 205 192
177.978 -59.769 979.060 210 206 194
177.978 -59.269 979.117 220 217 206
177.978 -58.769 979.195 231 227 220
178.478 -65.269 978.620 201 188 172
178.478 -64.769 978.651 199 186 171
178.478 -64.269 978.686 197 184 168
178.478 -63.769 978.714 202 189 173
178.478 -63.269 978.750 206 193 176
178.478 -62.769 978.795 212 200 184
178.478 -62.269 978.837 218 206 192
178.478 -61.769 978.894 222 212 200
178.478 -61.269 978.979 218 210 199
178.478 -60.769 979.051 214 207 195
178.478 -60.269 979.094 216 210 200
178.478 -59.769 979.143 224 223 216
178.478 -59.269 979.210 233 233 225
178.478 -58.769 979.266 234 235 229
178.978 -65.769 978.643 204 191 175
178.978 -65.269 978.662 202 189 173
178.978 -64.769 978.704 203 190 174
178.978 -64.269 978.737 207 194 177
178.978 -63.769 978.765 210 197 181
178.978 -63.269 978.799 212 199 183
178.978 -62.769 978.851 212 201 186
178.978 -62.269 978.922 215 205 193
178.978 -61.769 978.999 217 209 197
178.978 -61.269 979.073 217 213 204
178.978 -60.769 979.118 223 221 211
178.978 -60.269 979.146 232 230 222
178.978 -59.769 979.208 233 233 228
178.978 -59.269 979.279 234 234 232
178.978 -58.769 979.314 233 233 231
179.478 -66.269 978.700 207 194 177
179.478 -65.769 978.710 206 193 176
179.478 -65.269 978.741 206 193 176
179.478 -64.769 978.776 210 197 181
179.478 -64.269 978.807 212 199 183
179.478 -63.769 978.854 211 199 184
179.478 -63.269 978.880 212 201 186
179.478 -62.769 978.943 214 206 192
179.478 -62.269 979.042 217 210 197
179.478 -61.769 979.116 221 216 206
179.478 -61.269 979.164 227 224 217
179.478 -60.769 979.188 233 233 225
179.478 -60.269 979.219 233 233 228
179.478 -59.769 979.271 233 233 232
179.478 -59.269 979.318 233 233 232
179.478 -58.769 979.337 232 232 231
179.978 -67.269 978.763 208 195 179
179.978 -66.769 978.762 207 193 176
179.978 -66.269 978.758 208 195 179
179.978 -65.769 978.776 208 195 177
179.978 -65.269 978.818 209 196 179
179.978 -64.769 978.860 208 197 180
179.978 -64.269 978.897 211 200 186
179.978 -63.769 978.936 211 201 189
179.978 -63.269 978.973 215 207 196
179.978 -62.769 979.056 218 214 206
179.978 -62.269 979.139 227 223 217
179.978 -61.769 979.198 234 232 225
179.978 -61.269 979.236 235 234 231
179.978 -60.769 979.262 235 235 233
179.978 -60.269 979.299 233 233 232
179.978 -59.769 979.329 231 233 229
179.978 -59.269 979.345 230 232 228
179.978 -58.769 979.355 231 232 229
180.478 -67.269 978.799 208 193 176
180.478 -66.769 978.805 209 193 177
180.478 -66.269 978.812 209 196 179
180.478 -65.769 978.830 208 195 179
180.478 -65.269 978.877 208 196 179
180.478 -64.769 978.928 207 198 183
180.478 -64.269 978.966 208 200 189
180.478 -63.769 979.007 213 205 196
180.478 -63.269 979.089 221 217 209
180.478 -62.769 979.166 230 228 222
180.478 -62.269 979.211 235 234 228
180.478 -61.769 979.246 235 235 229
180.478 -61.269 979.279 235 235 233
180.478 -60.769 979.315 234 235 234
180.478 -60.269 979.353 231 232 233
180.478 -59.769 979.370 228 231 228
180.478 -59.269 979.372 228 231 228
180.478 -58.769 979.367 230 232 229
180.978 -67.269 978.848 215 199 184
180.978 -66.769 978.867 210 194 179
180.978 -66.269 978.880 205 193 176
180.978 -65.769 978.901 210 198 183
180.978 -65.269 978.944 207 198 185
180.978 -64.769 978.992 211 203 193
180.978 -64.269 979.030 218 213 206
180.978 -63.769 979.088 227 224 219
180.978 -63.269 979.173 234 233 228
180.978 -62.769 979.232 235 235 233
180.978 -62.269 979.264 235 235 233
180.978 -61.769 979.294 233 235 234
180.978 -61.269 979.327 233 234 233
180.978 -60.769 979.362 233 235 236
180.978 -60.269 979.396 230 233 234
180.978 -59.769 979.411 226 231 228
180.978 -59.269 979.393 228 231 228
180.978 -58.769 979.365 230 231 227
181.478 -67.269 978.877 213 200 184
181.478 -66.769 978.915 213 200 184
181.478 -66.269 978.947 216 207 192
181.478 -65.769 978.978 215 207 194
181.478 -65.269 979.007 216 209 199
181.478 -64.769 979.044 223 219 211
181.478 -64.269 979.077 231 230 224
181.478 -63.769 979.141 234 235 229
181.478 -63.269 979.201 235 236 234
181.478 -62.769 979.254 234 236 235
181.478 -62.269 979.292 233 235 234
181.478 -61.769 979.325 233 235 234
181.478 -61.269 979.367 231 234 233
181.478 -60.769 979.393 232 235 236
181.478 -60.269 979.407 231 234 235
181.478 -59.769 979.410 232 233 232
181.478 -59.269 979.386 228 230 226
181.478 -58.769 979.358 230 230 224
181.978 -67.269 978.901 213 201 188
181.978 -66.769 978.957 217 206 194
181.978 -66.269 979.013 215 210 199
181.978 -65.769 979.047 218 214 206
181.978 -65.269 979.073 230 226 220
181.978 -64.769 979.094 233 233 228
181.978 -64.269 979.129 235 235 233
181.978 -63.769 979.178 234 235 232
181.978 -63.269 979.216 233 235 234
181.978 -62.769 979.270 233 234 236
181.978 -62.269 979.311 233 234 236
181.978 -61.769 979.342 233 235 234
181.978 -61.269 979.378 233 236 235
181.978 -60.769 979.400 231 234 232
181.978 -60.269 979.396 232 234 232
181.978 -59.769 979.382 233 233 229
181.978 -59.269 979.367 226 226 222
181.978 -58.769 979.357 208 205 200
182.478 -67.269 978.950 217 209 197
182.478 -66.769 979.018 225 216 205
182.478 -66.269 979.067 227 225 216
182.478 -65.769 979.109 233 232 225
182.478 -65.269 979.146 234 233 228
182.478 -64.769 979.170 234 234 233
182.478 -64.269 979.199 234 234 234
182.478 -63.769 979.234 233 233 229
182.478 -63.269 979.262 233 233 233
182.478 -62.769 979.296 233 234 236
182.478 -62.269 979.321 233 234 234
182.478 -61.769 979.346 233 235 234
182.478 -61.269 979.371 233 234 232
182.478 -60.769 979.384 233 235 232
182.478 -60.269 979.365 232 233 229
182.478 -59.769 979.361 220 219 213
182.478 -59.269 979.371 189 185 181
182.478 -58.769 979.382 169 163 157
182.978 -67.269 979.014 226 222 212
182.978 -66.769 979.067 233 230 223
182.978 -66.269 979.112 235 235 228
182.978 -65.769 979.153 235 236 231
182.978 -65.269 979.184 234 235 229
182.978 -64.769 979.225 233 233 229
182.978 -64.269 979.249 228 231 226
182.978 -63.769 979.281 222 224 223
182.978 -63.269 979.306 226 230 227
182.978 -62.769 979.322 231 235 234
182.978 -62.269 979.337 233 233 235
182.978 -61.769 979.351 233 233 235
182.978 -61.269 979.360 235 233 232
182.978 -60.769 979.359 232 227 223
182.978 -60.269 979.357 204 200 194
182.978 -59.769 979.387 181 173 161
183.478 -67.269 979.077 235 233 225
183.478 -66.769 979.121 235 234 228
183.478 -66.269 979.182 235 236 231
183.478 -65.769 979.207 234 235 229
183.478 -65.269 979.224 231 232 226
183.478 -64.769 979.264 230 232 227
183.478 -64.269 979.282 228 231 226
183.478 -63.769 979.297 227 230 227
183.478 -63.269 979.315 232 234 233
183.478 -62.769 979.327 231 234 233
183.478 -62.269 979.339 233 235 234
183.478 -61.769 979.351 235 233 232
183.478 -61.269 979.352 217 212 208
183.478 -60.769 979.353 186 179 174
183.478 -60.269 979.385 174 167 158
183.978 -67.269 979.143 235 234 229
183.978 -66.769 979.181 234 235 231
183.978 -66.269 979.233 233 233 232
183.978 -65.769 979.264 232 232 228
183.978 -65.269 979.279 228 230 225
183.978 -64.769 979.296 227 230 225
183.978 -64.269 979.297 227 230 225
183.978 -63.769 979.296 225 230 226
183.978 -63.269 979.305 230 232 227
183.978 -62.769 979.323 233 233 229
183.978 -62.269 979.332 226 223 219
183.978 -61.769 979.352 197 191 186
183.978 -61.269 979.377 175 167 158
183.978 -60.769 979.406 177 168 157
184.478 -67.269 979.192 233 234 231
184.478 -66.769 979.219 233 234 232
184.478 -66.269 979.245 233 233 233
184.478 -65.769 979.282 231 231 229
184.478 -65.269 979.304 231 231 227
184.478 -64.769 979.312 233 233 228
184.478 -64.269 979.307 234 235 231
184.478 -63.769 979.305 232 233 227
184.478 -63.269 979.309 225 225 220
184.478 -62.769 979.324 204 200 194
184.478 -62.269 979.344 176 170 161
184.478 -61.769 979.387 171 163 153
184.978 -67.269 979.212 233 233 231
184.978 -66.769 979.230 232 233 232
184.978 -66.269 979.256 233 233 229
184.978 -65.769 979.289 234 234 232
184.978 -65.269 979.312 235 234 231
184.978 -64.769 979.318 235 234 228
184.978 -64.269 979.315 234 232 225
184.978 -63.769 979.316 219 216 209
184.978 -63.269 979.322 184 179 171
184.978 -62.769 979.349 169 159 149
184.978 -62.269 979.399 172 162 152
185.478 -67.269 979.239 233 233 231
185.478 -66.769 979.244 233 233 231
185.478 -66.269 979.267 235 235 233
185.478 -65.769 979.300 233 233 228
185.478 -65.269 979.316 236 234 229
185.478 -64.769 979.320 228 224 218
185.478 -64.269 979.321 197 190 182
185.478 -63.769 979.331 172 162 154
185.478 -63.269 979.364 168 157 147
185.978 -67.269 979.252 233 233 231
185.978 -66.769 979.256 234 234 232
185.978 -66.269 979.276 234 233 229
185.978 -65.769 979.301 232 231 224
185.978 -65.269 979.318 210 204 197
185.978 -64.769 979.331 172 166 156
185.978 -64.269 979.346 167 154 143
185.978 -63.769 979.372 176 163 149
186.478 -67.269 979.248 233 233 227
186.478 -66.769 979.255 236 233 229
186.478 -66.269 979.279 224 220 215
186.478 -65.769 979.302 187 183 174
186.478 -65.269 979.327 169 161 151
186.478 -64.769 979.362 174 164 152
186.478 -64.269 979.392 180 168 152
186.978 -67.269 979.247 231 226 221
186.978 -66.769 979.257 206 201 195
186.978 -66.269 979.286 181 173 162
186.978 -65.769 979.325 179 171 159
186.978 -65.269 979.377 191 184 171
187.478 -67.269 979.254 191 183 174
187.478 -66.769 979.275 184 175 165
187.478 -66.269 979.321 193 184 170
187.478 -65.769 979.386 203 194 180
187.978 -67.269 979.279 186 175 164
187.978 -66.769 979.317 193 184 171
187.978 -66.269 979.384 202 189 174
188.478 -67.269 979.323 204 192 181
172.478 -54.769 978.798 210 198 182
172.478 -54.269 978.812 211 199 183
172.478 -53.769 978.823 213 200 185
172.978 -55.269 978.828 209 197 181
172.978 -54.769 978.839 211 199 183
172.978 -54.269 978.842 215 203 186
172.978 -53.769 978.868 219 207 190
172.978 -53.269 978.916 223 211 194
172.978 -52.769 978.976 226 214 197
173.478 -56.269 978.811 208 193 180
173.478 -55.769 978.862 209 195 182
173.478 -55.269 978.884 212 199 185
173.478 -54.769 978.878 213 201 187
173.478 -54.269 978.885 218 209 194
173.478 -53.769 978.925 221 212 196
173.478 -53.269 978.975 221 213 200
173.478 -52.769 979.017 228 219 205
173.478 -52.269 979.045 221 212 196
173.978 -57.269 978.784 204 192 177
173.978 -56.769 978.833 207 194 179
173.978 -56.269 978.905 208 195 179
173.978 -55.769 978.935 210 197 184
173.978 -55.269 978.935 215 203 189
173.978 -54.769 978.914 220 211 195
173.978 -54.269 978.920 226 217 204
173.978 -53.769 978.958 223 215 202
173.978 -53.269 979.012 220 212 200
173.978 -52.769 979.045 223 213 201
173.978 -52.269 979.058 217 208 193
173.978 -51.769 979.067 201 192 175
174.478 -58.269 978.794 205 193 177
174.478 -57.769 978.820 204 194 176
174.478 -57.269 978.858 205 195 177
174.478 -56.769 978.920 206 194 177
174.478 -56.269 978.976 212 199 183
174.478 -55.769 978.984 219 209 194
174.478 -55.269 978.974 225 216 202
174.478 -54.769 978.953 226 218 205
174.478 -54.269 978.953 222 215 204
174.478 -53.769 978.980 222 216 205
174.478 -53.269 979.039 233 227 216
174.478 -52.769 979.080 232 223 211
174.478 -52.269 979.086 201 192 179
174.478 -51.769 979.089 190 181 165
174.478 -51.269 979.082 193 181 164
174.978 -58.269 978.853 206 194 177
174.978 -57.769 978.878 204 195 177
174.978 -57.269 978.928 206 197 180
174.978 -56.769 978.993 213 204 189
174.978 -56.269 979.026 224 215 200
174.978 -55.769 979.022 226 217 205
174.978 -55.269 979.014 225 217 205
174.978 -54.769 979.003 221 215 205
174.978 -54.269 978.993 233 225 215
174.978 -53.769 979.022 236 233 221
174.978 -53.269 979.088 238 233 223
174.978 -52.769 979.120 236 230 219
174.978 -52.269 979.121 221 213 201
174.978 -51.769 979.109 192 184 168
174.978 -51.269 979.105 189 177 160
175.478 -58.269 978.894 209 197 181
175.478 -57.769 978.936 214 205 188
175.478 -57.269 978.997 223 214 196
175.478 -56.769 979.051 230 221 207
175.478 -56.269 979.070 222 214 202
175.478 -55.769 979.060 224 216 205
175.478 -55.269 979.056 227 220 209
175.478 -54.769 979.052 233 228 220
175.478 -54.269 979.053 238 233 226
175.478 -53.769 979.094 239 234 227
175.478 -53.269 979.158 238 233 225
175.478 -52.769 979.158 238 232 221
175.478 -52.269 979.148 233 225 213
175.478 -51.769 979.132 203 193 181
175.478 -51.269 979.128 188 176 161
175.478 -50.769 979.137 191 179 161
175.978 -58.269 978.943 220 211 195
175.978 -57.769 979.004 230 220 205
175.978 -57.269 979.059 231 223 207
175.978 -56.769 979.090 227 219 207
175.978 -56.269 979.103 221 212 204
175.978 -55.769 979.094 233 225 215
175.978 -55.269 979.094 238 233 224
175.978 -54.769 979.097 238 233 228
175.978 -54.269 979.123 236 233 227
175.978 -53.769 979.182 236 233 228
175.978 -53.269 979.222 236 233 226
175.978 -52.769 979.200 236 233 223
175.978 -52.269 979.177 235 228 217
175.978 -51.769 979.153 214 204 192
175.978 -51.269 979.142 194 183 167
175.978 -50.769 979.145 200 187 171
176.478 -58.269 979.016 228 219 206
176.478 -57.769 979.074 228 221 207
176.478 -57.269 979.116 218 212 199
176.478 -56.769 979.131 225 220 210
176.478 -56.269 979.132 232 226 219
176.478 -55.769 979.121 234 231 223
176.478 -55.269 979.124 236 233 225
176.478 -54.769 979.139 236 233 228
176.478 -54.269 979.196 234 233 227
176.478 -53.769 979.260 233 233 227
176.478 -53.269 979.277 233 232 226
176.478 -52.769 979.258 236 233 224
176.478 -52.269 979.217 235 231 221
176.478 -51.769 979.181 228 219 207
176.478 -51.269 979.166 205 195 182
176.478 -50.769 979.165 205 193 179
176.478 -50.269 979.207 213 201 185
176.978 -58.269 979.090 219 212 201
176.978 -57.769 979.139 221 217 206
176.978 -57.269 979.167 223 220 208
176.978 -56.769 979.172 232 230 222
176.978 -56.269 979.159 230 228 223
176.978 -55.769 979.147 232 231 224
176.978 -55.269 979.156 233 232 225
176.978 -54.769 979.220 233 233 226
176.978 -54.269 979.286 233 233 226
176.978 -53.769 979.321 233 232 225
176.978 -53.269 979.321 232 231 224
176.978 -52.769 979.306 234 232 223
176.978 -52.269 979.270 236 233 223
176.978 -51.769 979.224 236 230 219
176.978 -51.269 979.209 230 219 207
176.978 -50.769 979.211 209 197 184
176.978 -50.269 979.284 212 200 184
177.478 -58.269 979.177 226 223 213
177.478 -57.769 979.210 232 230 223
177.478 -57.269 979.217 233 232 225
177.478 -56.769 979.210 233 233 226
177.478 -56.269 979.199 228 227 223
177.478 -55.769 979.222 230 228 223
177.478 -55.269 979.258 232 231 225
177.478 -54.769 979.328 233 233 227
177.478 -54.269 979.364 233 232 225
177.478 -53.769 979.368 232 231 224
177.478 -53.269 979.361 233 230 222
177.478 -52.769 979.355 233 230 221
177.478 -52.269 979.340 235 230 218
177.478 -51.769 979.313 233 224 212
177.478 -51.269 979.293 221 210 196
177.478 -50.769 979.296 213 201 187
177.978 -58.269 979.247 234 233 227
177.978 -57.769 979.268 235 235 233
177.978 -57.269 979.277 233 233 232
177.978 -56.769 979.277 231 231 228
177.978 -56.269 979.286 228 228 225
177.978 -55.769 979.321 230 230 226
177.978 -55.269 979.362 233 233 227
177.978 -54.769 979.402 233 233 227
177.978 -54.269 979.420 233 232 225
177.978 -53.769 979.434 233 230 222
177.978 -53.269 979.448 232 227 217
177.978 -52.769 979.453 232 224 213
177.978 -52.269 979.433 228 219 207
177.978 -51.769 979.436 218 208 195
178.478 -58.269 979.291 233 233 231
178.478 -57.769 979.308 233 233 233
178.478 -57.269 979.323 231 232 232
178.478 -56.769 979.337 228 231 228
178.478 -56.269 979.361 230 232 229
178.478 -55.769 979.386 232 232 228
178.478 -55.269 979.420 234 233 228
178.478 -54.769 979.454 235 232 226
178.478 -54.269 979.478 236 231 223
178.478 -53.769 979.507 234 228 220
178.478 -53.269 979.529 227 219 207
178.478 -52.769 979.545 218 209 199
178.978 -58.269 979.334 233 233 232
179.478 -58.269 979.357 230 230 228
179.478 -57.769 979.372 228 228 227
179.478 -57.269 979.386 227 228 227
179.478 -56.769 979.404 231 231 229
179.478 -56.269 979.429 231 231 227
179.478 -55.769 979.471 232 231 225
179.478 -55.269 979.526 233 231 223
179.478 -54.769 979.578 230 220 212
179.978 -58.269 979.367 228 228 227
179.978 -57.769 979.375 230 230 228
179.978 -57.269 979.393 230 230 228
179.978 -56.769 979.415 231 231 228
179.978 -56.269 979.453 230 230 225
179.978 -55.769 979.516 220 218 213
180.478 -58.269 979.365 228 228 227
180.478 -57.769 979.367 230 230 226
180.478 -57.269 979.392 228 228 226
180.478 -56.769 979.437 224 222 219
180.478 -56.269 979.484 202 198 193
180.978 -58.269 979.357 230 230 226
180.978 -57.769 979.357 228 227 223
180.978 -57.269 979.399 214 210 206
180.978 -56.769 979.467 195 188 182
181.478 -58.269 979.351 222 218 215
181.478 -57.769 979.370 192 187 182
181.978 -58.269 979.357 176 170 162
178.978 -57.769 979.350 228 228 227
178.978 -57.269 979.362 225 227 225
178.978 -56.769 979.377 227 230 227
178.978 -56.269 979.398 231 231 229
178.978 -55.769 979.429 233 233 229
178.978 -55.269 979.472 235 232 226
178.978 -54.769 979.512 237 231 223
178.978 -54.269 979.537 235 226 218
178.978 -53.769 979.567 221 212 204
