171.831 -82.344 979.749 209 197 181
171.831 -81.844 979.812 211 199 183
171.831 -81.344 979.897 213 201 186
171.831 -80.844 980.045 208 197 182
171.831 -80.344 980.133 204 194 181
171.831 -79.844 980.167 200 191 177
171.831 -79.344 980.185 195 186 173
171.831 -78.844 980.211 192 184 172
172.331 -86.844 979.643 213 201 187
172.331 -86.344 979.657 212 203 189
172.331 -85.844 979.761 212 202 191
172.331 -85.344 979.879 212 202 192
172.331 -84.844 979.929 212 202 192
172.331 -84.344 980.049 210 200 190
172.331 -83.844 980.176 210 200 190
172.331 -83.344 980.215 206 196 186
172.331 -82.844 980.270 206 196 186
172.331 -82.344 980.359 208 198 188
172.331 -81.844 980.422 204 196 184
172.331 -81.344 980.496 199 191 180
172.331 -80.844 980.690 196 187 178
172.331 -80.344 980.843 191 183 173
172.331 -79.844 980.893 185 179 171
172.331 -79.344 980.895 177 171 163
172.331 -78.844 980.906 176 169 161
172.831 -90.844 979.043 222 210 194
172.831 -90.344 979.173 223 211 197
172.831 -89.844 979.309 220 210 195
172.831 -89.344 979.452 217 207 194
172.831 -88.844 979.530 215 206 193
172.831 -88.344 979.604 216 208 194
172.831 -87.844 979.697 216 207 193
172.831 -87.344 979.865 213 204 192
172.831 -86.844 980.017 208 200 190
172.831 -86.344 980.049 203 195 185
172.831 -85.844 980.215 199 191 183
172.831 -85.344 980.438 194 187 180
172.831 -84.844 980.555 190 184 176
172.831 -84.344 980.738 188 181 174
172.831 -83.844 980.880 184 177 171
172.831 -83.344 980.893 185 179 171
172.831 -82.844 980.895 186 179 172
172.831 -82.344 980.943 183 176 170
172.831 -81.844 981.024 180 174 166
172.831 -81.344 981.146 175 169 162
172.831 -80.844 981.281 175 169 164
172.831 -80.344 981.380 175 170 165
172.831 -79.844 981.419 181 176 173
172.831 -79.344 981.419 185 181 177
172.831 -78.844 981.436 192 188 182
173.331 -92.844 978.885 205 193 179
173.331 -92.344 978.926 192 180 166
173.331 -91.844 978.990 195 184 167
173.331 -91.344 979.058 207 195 181
173.331 -90.844 979.190 217 207 196
173.331 -90.344 979.364 223 213 205
173.331 -89.844 979.604 223 215 208
173.331 -89.344 979.807 221 214 207
173.331 -88.844 979.989 210 203 196
173.331 -88.344 980.214 204 197 191
173.331 -87.844 980.380 202 195 189
173.331 -87.344 980.505 190 184 178
173.331 -86.844 980.591 185 180 174
173.331 -86.344 980.685 179 174 168
173.331 -85.844 980.912 172 168 163
173.331 -85.344 981.115 168 163 159
173.331 -84.844 981.218 169 164 160
173.331 -84.344 981.351 168 164 159
173.331 -83.844 981.404 170 168 162
173.331 -83.344 981.387 176 173 168
173.331 -82.844 981.287 184 180 175
173.331 -82.344 981.352 189 185 182
173.331 -81.844 981.447 199 195 192
173.331 -81.344 981.522 209 205 202
173.331 -80.844 981.573 217 213 212
173.331 -80.344 981.637 228 227 225
173.331 -79.844 981.678 235 234 232
173.331 -79.344 981.696 239 238 236
173.331 -78.844 981.763 237 236 234
173.831 -92.844 978.921 214 203 191
173.831 -92.344 979.001 215 205 193
173.831 -91.844 979.124 213 202 189
173.831 -91.344 979.229 220 210 199
173.831 -90.844 979.436 228 219 210
173.831 -90.344 979.748 232 224 218
173.831 -89.844 980.112 219 214 210
173.831 -89.344 980.375 202 199 194
173.831 -88.844 980.708 190 186 182
173.831 -88.344 980.900 177 172 170
173.831 -87.844 980.982 179 173 171
173.831 -87.344 981.051 176 171 168
173.831 -86.844 981.155 176 171 168
173.831 -86.344 981.323 180 175 172
173.831 -85.844 981.499 180 175 172
173.831 -85.344 981.561 187 184 180
173.831 -84.844 981.582 202 198 195
173.831 -84.344 981.682 214 210 207
173.831 -83.844 981.753 221 218 215
173.831 -83.344 981.760 227 226 222
173.831 -82.844 981.646 228 227 223
173.831 -82.344 981.648 232 231 228
173.831 -81.844 981.682 233 233 230
173.831 -81.344 981.722 235 234 232
173.831 -80.844 981.757 235 234 232
173.831 -80.344 981.805 239 238 236
173.831 -79.844 981.855 241 240 238
173.831 -79.344 981.888 243 243 240
173.831 -78.844 981.917 240 240 240
174.331 -92.844 978.995 232 221 210
174.331 -92.344 979.099 225 215 205
174.331 -91.844 979.283 223 215 205
174.331 -91.344 979.523 227 220 212
174.331 -90.844 979.869 230 224 218
174.331 -90.344 980.353 219 214 210
174.331 -89.844 980.781 204 202 198
174.331 -89.344 980.961 194 193 189
174.331 -88.844 981.136 195 194 191
174.331 -88.344 981.173 200 196 195
174.331 -87.844 981.231 201 197 196
174.331 -87.344 981.365 210 206 205
174.331 -86.844 981.563 216 212 211
174.331 -86.344 981.736 217 213 212
174.331 -85.844 981.837 184 180 179
174.331 -85.344 981.850 183 181 179
174.331 -84.844 981.850 223 222 220
174.331 -84.344 981.879 234 233 231
174.331 -83.844 981.911 236 235 233
174.331 -83.344 981.936 236 236 235
174.331 -82.844 981.920 238 238 236
174.331 -82.344 981.906 238 238 238
174.331 -81.844 981.881 239 239 239
174.331 -81.344 981.886 240 240 240
174.331 -80.844 981.903 239 239 239
174.331 -80.344 981.936 238 238 238
174.331 -79.844 981.976 241 241 241
174.331 -79.344 982.001 243 243 242
174.331 -78.844 981.997 240 243 241
174.831 -92.844 979.114 231 222 212
174.831 -92.344 979.272 223 216 207
174.831 -91.844 979.558 221 217 209
174.831 -91.344 979.928 219 215 210
174.831 -90.844 980.459 216 212 209
174.831 -90.344 980.949 216 213 213
174.831 -89.844 981.311 216 215 215
174.831 -89.344 981.412 219 219 218
174.831 -88.844 981.406 222 221 221
174.831 -88.344 981.352 219 218 218
174.831 -87.844 981.494 222 221 222
174.831 -87.344 981.701 226 225 225
174.831 -86.844 981.827 230 228 228
174.831 -86.344 981.927 228 227 228
174.831 -85.844 982.003 189 188 189
174.831 -85.344 982.036 184 183 182
174.831 -84.844 982.042 227 227 227
174.831 -84.344 982.022 239 239 239
174.831 -83.844 981.996 239 239 239
174.831 -83.344 982.002 241 244 242
174.831 -82.844 982.018 240 243 241
174.831 -82.344 982.021 237 237 237
174.831 -81.844 982.021 239 239 239
174.831 -81.344 982.043 234 234 234
174.831 -80.844 982.068 222 222 222
174.831 -80.344 982.056 221 221 221
174.831 -79.844 982.068 239 239 239
174.831 -79.344 982.078 240 240 240
174.831 -78.844 982.064 239 241 240
175.331 -92.844 979.242 227 222 213
175.331 -92.344 979.549 219 215 206
175.331 -91.844 979.897 220 217 211
175.331 -91.344 980.394 222 221 217
175.331 -90.844 980.952 231 228 228
175.331 -90.344 981.354 234 233 233
175.331 -89.844 981.567 233 233 233
175.331 -89.344 981.684 233 233 233
175.331 -88.844 981.742 233 233 232
175.331 -88.344 981.749 226 226 226
175.331 -87.844 981.817 230 230 229
175.331 -87.344 981.898 235 235 235
175.331 -86.844 981.948 236 236 236
175.331 -86.344 982.021 234 234 234
175.331 -85.844 982.096 192 192 192
175.331 -85.344 982.127 179 177 178
175.331 -84.844 982.129 222 221 221
175.331 -84.344 982.110 237 237 237
175.331 -83.844 982.076 239 239 239
175.331 -83.344 982.063 239 239 239
175.331 -82.844 982.061 237 239 238
175.331 -82.344 982.060 227 227 225
175.331 -81.844 982.065 207 207 205
175.331 -81.344 982.105 185 185 183
175.331 -80.844 982.153 173 173 171
175.331 -80.344 982.174 184 184 182
175.331 -79.844 982.195 221 221 219
175.331 -79.344 982.188 238 238 236
175.331 -78.844 982.137 239 241 240
175.831 -92.844 979.460 223 218 211
175.831 -92.344 979.811 220 215 209
175.831 -91.844 980.297 218 216 211
175.831 -91.344 980.824 226 225 221
175.831 -90.844 981.212 233 232 231
175.831 -90.344 981.527 236 234 235
175.831 -89.844 981.701 237 235 236
175.831 -89.344 981.814 237 237 237
175.831 -88.844 981.872 236 236 235
175.831 -88.344 981.917 234 234 232
175.831 -87.844 981.959 235 235 233
175.831 -87.344 981.971 237 237 235
175.831 -86.844 982.000 224 224 222
175.831 -86.344 982.075 220 220 218
175.831 -85.844 982.148 187 187 185
175.831 -85.344 982.173 175 174 172
175.831 -84.844 982.179 180 179 177
175.831 -84.344 982.155 203 202 200
175.831 -83.844 982.126 214 214 212
175.831 -83.344 982.117 209 209 207
175.831 -82.844 982.102 200 200 198
175.831 -82.344 982.091 185 184 181
175.831 -81.844 982.081 181 180 176
175.831 -81.344 982.130 169 168 164
175.831 -80.844 982.190 162 161 157
175.831 -80.344 982.234 166 164 160
175.831 -79.844 982.257 176 175 171
175.831 -79.344 982.239 216 215 212
175.831 -78.844 982.190 237 237 237
176.331 -92.344 979.998 218 215 208
176.331 -91.844 980.564 216 214 209
176.331 -91.344 981.077 226 225 221
176.331 -90.844 981.442 232 231 229
176.331 -90.344 981.632 238 236 237
176.331 -89.844 981.793 240 239 240
176.331 -89.344 981.865 239 237 238
176.331 -88.844 981.916 232 230 229
176.331 -88.344 981.956 217 216 214
176.331 -87.844 981.986 209 208 206
176.331 -87.344 981.996 212 211 209
176.331 -86.844 982.032 191 190 188
176.331 -86.344 982.113 177 176 174
176.331 -85.844 982.162 176 175 173
176.331 -85.344 982.182 179 174 173
176.331 -84.844 982.196 174 173 171
176.331 -84.344 982.183 179 179 176
176.331 -83.844 982.168 187 186 184
176.331 -83.344 982.154 184 184 181
176.331 -82.844 982.130 183 181 179
176.331 -82.344 982.110 180 179 175
176.331 -81.844 982.092 176 175 171
176.331 -81.344 982.141 166 164 159
176.331 -80.844 982.207 161 160 155
176.331 -80.344 982.250 159 158 153
176.331 -79.844 982.267 170 169 164
176.331 -79.344 982.244 202 201 197
176.331 -78.844 982.207 235 233 234
176.831 -92.344 980.049 220 215 209
176.831 -91.844 980.620 217 212 208
176.831 -91.344 981.147 225 221 218
176.831 -90.844 981.542 233 232 230
176.831 -90.344 981.729 239 239 239
176.831 -89.844 981.842 239 239 239
176.831 -89.344 981.903 234 234 234
176.831 -88.844 981.953 198 197 197
176.831 -88.344 981.987 184 184 181
176.831 -87.844 982.003 177 176 174
176.831 -87.344 982.021 179 177 175
176.831 -86.844 982.049 179 179 176
176.831 -86.344 982.107 172 171 170
176.831 -85.844 982.144 172 171 170
176.831 -85.344 982.163 193 192 190
176.831 -84.844 982.185 184 183 180
176.831 -84.344 982.186 179 179 176
176.831 -83.844 982.178 185 184 182
176.831 -83.344 982.165 184 184 181
176.831 -82.844 982.147 183 181 179
176.831 -82.344 982.125 179 177 175
176.831 -81.844 982.115 169 168 164
176.831 -81.344 982.158 166 161 158
176.831 -80.844 982.211 162 159 154
176.831 -80.344 982.241 168 163 160
176.831 -79.844 982.259 184 184 179
176.831 -79.344 982.240 231 230 227
176.831 -78.844 982.224 237 237 236
177.331 -92.344 980.024 218 214 205
177.331 -91.844 980.590 217 212 208
177.331 -91.344 981.127 223 219 216
177.331 -90.844 981.551 232 231 228
177.331 -90.344 981.747 236 236 236
177.331 -89.844 981.853 237 237 237
177.331 -89.344 981.911 197 197 197
177.331 -88.844 981.968 179 177 175
177.331 -88.344 981.996 175 174 172
177.331 -87.844 982.016 171 170 168
177.331 -87.344 982.049 174 173 171
177.331 -86.844 982.068 176 175 173
177.331 -86.344 982.098 175 174 172
177.331 -85.844 982.123 203 202 200
177.331 -85.344 982.133 237 237 235
177.331 -84.844 982.155 222 222 220
177.331 -84.344 982.169 184 184 182
177.331 -83.844 982.174 219 219 217
177.331 -83.344 982.172 221 221 219
177.331 -82.844 982.156 186 186 184
177.331 -82.344 982.139 179 179 176
177.331 -81.844 982.140 169 168 164
177.331 -81.344 982.191 168 163 160
177.331 -80.844 982.226 166 162 157
177.331 -80.344 982.232 172 168 165
177.331 -79.844 982.243 207 206 202
177.331 -79.344 982.233 240 239 237
177.331 -78.844 982.224 239 241 240
177.831 -92.344 979.997 219 215 206
177.831 -91.844 980.547 217 212 206
177.831 -91.344 981.077 221 218 213
177.831 -90.844 981.481 228 228 225
177.831 -90.344 981.724 221 221 221
177.831 -89.844 981.859 215 215 215
177.831 -89.344 981.922 175 175 173
177.831 -88.844 981.988 173 172 171
177.831 -88.344 982.007 174 173 171
177.831 -87.844 982.037 172 171 170
177.831 -87.344 982.072 175 174 172
177.831 -86.844 982.081 184 183 180
177.831 -86.344 982.086 203 202 200
177.831 -85.844 982.079 236 235 233
177.831 -85.344 982.086 239 239 237
177.831 -84.844 982.108 235 235 233
177.831 -84.344 982.125 204 204 202
177.831 -83.844 982.150 232 232 229
177.831 -83.344 982.164 235 235 233
177.831 -82.844 982.160 196 196 194
177.831 -82.344 982.162 183 181 179
177.831 -81.844 982.179 171 170 166
177.831 -81.344 982.238 171 168 164
177.831 -80.844 982.253 168 166 160
177.831 -80.344 982.238 173 169 166
177.831 -79.844 982.235 199 198 194
177.831 -79.344 982.224 233 232 229
177.831 -78.844 982.201 238 240 239
178.331 -92.344 980.017 221 214 206
178.331 -91.844 980.540 217 212 206
178.331 -91.344 981.065 220 217 212
178.331 -90.844 981.453 224 224 220
178.331 -90.344 981.697 211 211 209
178.331 -89.844 981.842 198 198 196
178.331 -89.344 981.921 174 174 172
178.331 -88.844 981.990 170 170 168
178.331 -88.344 982.014 174 174 172
178.331 -87.844 982.042 180 180 178
178.331 -87.344 982.068 190 190 188
178.331 -86.844 982.072 207 207 205
178.331 -86.344 982.065 232 232 229
178.331 -85.844 982.043 240 240 238
178.331 -85.344 982.030 240 240 238
178.331 -84.844 982.044 238 238 236
178.331 -84.344 982.078 236 236 234
178.331 -83.844 982.107 239 239 237
178.331 -83.344 982.125 238 238 236
178.331 -82.844 982.130 230 230 227
178.331 -82.344 982.150 216 215 213
178.331 -81.844 982.192 179 177 173
178.331 -81.344 982.248 174 170 167
178.331 -80.844 982.272 172 169 164
178.331 -80.344 982.247 170 168 163
178.331 -79.844 982.232 173 172 168
178.331 -79.344 982.204 194 193 191
178.331 -78.844 982.153 233 233 233
178.831 -92.344 980.083 221 214 205
178.831 -91.844 980.530 217 212 206
178.831 -91.344 981.050 218 215 210
178.831 -90.844 981.420 225 225 221
178.831 -90.344 981.657 232 232 229
178.831 -89.844 981.807 227 227 225
178.831 -89.344 981.902 206 206 205
178.831 -88.844 981.965 186 186 185
178.831 -88.344 981.987 205 205 205
178.831 -87.844 982.006 227 227 227
178.831 -87.344 982.016 233 233 232
178.831 -86.844 982.010 235 235 235
178.831 -86.344 981.997 240 240 240
178.831 -85.844 981.980 240 240 240
178.831 -85.344 981.958 239 240 240
178.831 -84.844 981.965 239 240 240
178.831 -84.344 982.012 239 240 240
178.831 -83.844 982.052 240 241 240
178.831 -83.344 982.085 240 241 241
178.831 -82.844 982.090 238 239 238
178.831 -82.344 982.099 228 227 225
178.831 -81.844 982.107 183 181 177
178.831 -81.344 982.159 175 171 168
178.831 -80.844 982.186 169 167 161
178.831 -80.344 982.208 167 162 159
178.831 -79.844 982.184 170 169 165
178.831 -79.344 982.132 174 173 171
178.831 -78.844 982.081 201 198 197
179.331 -92.344 980.028 221 214 205
179.331 -91.844 980.439 217 212 206
179.331 -91.344 980.963 219 216 209
179.331 -90.844 981.324 227 227 222
179.331 -90.344 981.568 234 234 232
179.331 -89.844 981.697 233 233 231
179.331 -89.344 981.807 233 233 231
179.331 -88.844 981.868 228 228 227
179.331 -88.344 981.902 231 231 230
179.331 -87.844 981.913 234 234 234
179.331 -87.344 981.907 235 235 235
179.331 -86.844 981.903 235 235 235
179.331 -86.344 981.876 238 238 238
179.331 -85.844 981.852 239 239 239
179.331 -85.344 981.855 237 239 238
179.331 -84.844 981.876 237 239 238
179.331 -84.344 981.917 237 239 238
179.331 -83.844 981.973 239 241 240
179.331 -83.344 982.011 239 241 240
179.331 -82.844 981.985 239 241 240
179.331 -82.344 981.995 233 233 230
179.331 -81.844 981.987 192 191 187
179.331 -81.344 981.978 179 174 171
179.331 -80.844 981.997 171 168 163
179.331 -80.344 982.086 171 168 164
179.331 -79.844 982.037 168 168 163
179.331 -79.344 981.922 170 169 167
179.331 -78.844 981.889 181 176 173
179.831 -91.844 980.269 217 213 206
179.831 -91.344 980.729 219 216 209
179.831 -90.844 981.098 227 225 220
179.831 -90.344 981.422 233 233 228
179.831 -89.844 981.580 235 235 233
179.831 -89.344 981.653 233 233 233
179.831 -88.844 981.704 233 233 233
179.831 -88.344 981.733 233 233 233
179.831 -87.844 981.779 235 235 235
179.831 -87.344 981.803 235 235 233
179.831 -86.844 981.807 234 233 231
179.831 -86.344 981.772 235 234 232
179.831 -85.844 981.732 233 233 230
179.831 -85.344 981.721 232 232 231
179.831 -84.844 981.753 231 231 230
179.831 -84.344 981.801 232 232 229
179.831 -83.844 981.831 235 234 232
179.831 -83.344 981.842 237 236 234
179.831 -82.844 981.845 235 234 231
179.831 -82.344 981.820 213 211 208
179.831 -81.844 981.815 189 186 182
179.831 -81.344 981.792 181 177 173
179.831 -80.844 981.857 180 175 171
179.831 -80.344 981.818 186 181 177
179.831 -79.844 981.767 181 175 171
179.831 -79.344 981.546 179 172 167
179.831 -78.844 981.488 179 173 167
180.331 -91.844 980.104 217 213 204
180.331 -91.344 980.441 220 216 207
180.331 -90.844 980.821 225 222 215
180.331 -90.344 981.164 230 228 223
180.331 -89.844 981.384 232 231 227
180.331 -89.344 981.456 231 231 228
180.331 -88.844 981.519 231 231 228
180.331 -88.344 981.543 230 230 227
180.331 -87.844 981.577 233 232 229
180.331 -87.344 981.613 231 230 227
180.331 -86.844 981.605 227 226 222
180.331 -86.344 981.566 226 222 219
180.331 -85.844 981.540 224 220 217
180.331 -85.344 981.505 219 218 214
180.331 -84.844 981.566 215 214 210
180.331 -84.344 981.615 214 211 206
180.331 -83.844 981.623 210 207 202
180.331 -83.344 981.587 205 202 197
180.331 -82.844 981.542 198 195 188
180.331 -82.344 981.461 181 176 171
180.331 -81.844 981.472 176 172 164
180.331 -81.344 981.395 181 174 166
180.331 -80.844 981.388 186 179 171
180.331 -80.344 981.223 194 187 179
180.331 -79.844 981.083 197 190 180
180.331 -79.344 981.033 203 196 186
180.331 -78.844 981.033 203 196 186
180.831 -91.844 979.780 220 212 202
180.831 -91.344 980.108 223 217 207
180.831 -90.844 980.399 223 218 209
180.831 -90.344 980.752 222 219 211
180.831 -89.844 981.040 222 220 214
180.831 -89.344 981.134 217 215 211
180.831 -88.844 981.251 213 211 207
180.831 -88.344 981.315 208 206 201
180.831 -87.844 981.313 205 203 198
180.831 -87.344 981.251 204 200 194
180.831 -86.844 981.153 199 195 190
180.831 -86.344 981.115 195 191 186
180.831 -85.844 981.147 194 189 182
180.831 -85.344 981.113 195 188 181
180.831 -84.844 981.111 194 188 180
180.831 -84.344 981.148 192 185 176
180.831 -83.844 981.210 193 185 176
180.831 -83.344 981.183 191 184 173
180.831 -82.844 981.099 190 181 171
180.831 -82.344 981.039 189 180 170
180.831 -81.844 980.982 192 184 172
180.831 -81.344 980.803 200 190 179
180.831 -80.844 980.547 205 195 184
180.831 -80.344 980.504 215 204 192
180.831 -79.844 980.390 219 208 196
180.831 -79.344 980.329 219 208 197
180.831 -78.844 980.234 218 208 196
181.331 -91.844 979.412 220 210 199
181.331 -91.344 979.730 223 215 205
181.331 -90.844 979.900 226 218 207
181.331 -90.344 980.113 227 220 210
181.331 -89.844 980.455 225 219 209
181.331 -89.344 980.560 220 216 207
181.331 -88.844 980.641 212 207 201
181.331 -88.344 980.763 208 203 197
181.331 -87.844 980.802 207 201 193
181.331 -87.344 980.709 207 200 191
181.331 -86.844 980.554 204 197 189
181.331 -86.344 980.534 200 193 183
181.331 -85.844 980.594 204 195 185
181.331 -85.344 980.537 204 192 182
181.331 -84.844 980.417 201 189 177
181.331 -84.344 980.536 199 187 175
181.331 -83.844 980.709 195 184 171
181.331 -83.344 980.735 194 180 167
181.331 -82.844 980.709 196 183 170
181.331 -82.344 980.616 200 187 171
181.331 -81.844 980.523 205 192 176
181.331 -81.344 980.206 214 201 185
181.331 -80.844 979.964 218 205 189
181.331 -80.344 979.955 225 212 196
181.331 -79.844 979.982 226 213 197
181.331 -79.344 979.988 225 212 196
181.331 -78.844 979.942 220 206 193
181.831 -91.844 979.170 220 208 196
181.831 -91.344 979.359 221 210 198
181.831 -90.844 979.527 223 213 201
181.831 -90.344 979.651 226 218 206
181.831 -89.844 979.788 226 218 207
181.831 -89.344 980.002 224 218 207
181.831 -88.844 980.011 220 214 204
181.831 -88.344 980.066 215 208 197
181.831 -87.844 980.168 212 204 193
181.831 -87.344 980.097 208 200 189
181.831 -86.844 979.984 207 199 187
181.831 -86.344 979.971 202 192 181
181.831 -85.844 979.955 200 190 178
181.831 -85.344 979.931 200 187 172
181.831 -84.844 979.922 199 186 171
181.831 -84.344 979.928 199 186 171
181.831 -83.844 980.006 198 185 168
181.831 -83.344 980.079 199 184 167
181.831 -82.844 980.100 198 183 166
181.831 -82.344 980.066 199 184 167
181.831 -81.844 979.986 208 192 176
181.831 -81.344 979.799 220 204 188
181.831 -80.844 979.609 225 212 196
181.831 -80.344 979.670 228 215 199
181.831 -79.844 979.729 227 214 198
181.831 -79.344 979.734 225 212 196
181.831 -78.844 979.614 221 205 190
182.331 -91.844 978.989 221 209 195
182.331 -91.344 979.121 221 209 195
182.331 -90.844 979.233 222 211 197
182.331 -90.344 979.279 223 213 201
182.331 -89.844 979.358 224 216 204
182.331 -89.344 979.492 222 215 201
182.331 -88.844 979.446 221 213 200
182.331 -88.344 979.415 219 211 198
182.331 -87.844 979.525 214 206 193
182.331 -87.344 979.494 205 195 183
182.331 -86.844 979.462 201 192 177
182.331 -86.344 979.512 202 192 177
182.331 -85.844 979.514 198 188 173
182.331 -85.344 979.541 199 186 170
182.331 -84.844 979.587 199 185 170
182.331 -84.344 979.606 202 187 171
182.331 -83.844 979.563 204 189 171
182.331 -83.344 979.523 207 192 173
182.331 -82.844 979.547 209 193 175
182.331 -82.344 979.547 209 193 177
182.831 -91.844 978.820 217 204 188
182.831 -91.344 978.864 219 205 191
182.831 -90.844 978.957 220 207 192
182.831 -90.344 978.974 218 205 190
182.831 -89.844 979.044 224 213 198
182.831 -89.344 979.115 224 213 197
182.831 -88.844 979.105 219 208 194
182.831 -88.344 979.079 218 207 194
182.831 -87.844 979.125 215 205 190
182.831 -87.344 979.197 205 194 178
182.831 -86.844 979.214 200 188 173
182.831 -86.344 979.230 202 189 173
183.331 -91.344 978.746 210 197 181
183.331 -90.844 978.787 211 198 182
183.331 -90.344 978.780 211 198 182
183.331 -89.844 978.850 217 204 188
171.331 -77.844 979.583 196 184 171
171.331 -77.344 979.548 195 184 170
171.331 -76.844 979.447 199 187 173
171.331 -76.344 979.272 195 184 170
171.331 -75.844 979.173 192 180 166
171.831 -78.344 980.188 190 181 171
171.831 -77.844 980.112 189 180 171
171.831 -77.344 979.955 188 179 168
171.831 -76.844 979.737 189 180 171
171.831 -76.344 979.511 186 177 166
171.831 -75.844 979.297 184 173 163
172.331 -78.344 980.898 172 166 158
172.331 -77.844 980.778 168 162 154
172.331 -77.344 980.431 163 156 149
172.331 -76.844 980.070 159 152 144
172.331 -76.344 979.778 150 143 135
172.331 -75.844 979.537 147 138 131
172.831 -78.344 981.425 192 188 182
172.831 -77.844 981.296 179 175 170
172.831 -77.344 980.913 160 156 150
172.831 -76.844 980.472 146 142 136
172.831 -76.344 980.110 135 131 126
172.831 -75.844 979.839 136 128 125
172.831 -75.344 979.556 136 128 122
173.331 -78.344 981.732 234 233 231
173.331 -77.844 981.624 211 210 208
173.331 -77.344 981.342 169 168 166
173.331 -76.844 980.973 145 141 140
173.331 -76.344 980.542 131 127 126
173.331 -75.844 980.142 127 122 121
173.331 -75.344 979.773 133 125 122
173.831 -78.344 981.925 237 237 237
173.831 -77.844 981.851 220 218 219
173.831 -77.344 981.622 172 170 171
173.831 -76.844 981.329 137 135 136
173.831 -76.344 980.823 126 124 125
173.831 -75.844 980.461 125 121 120
173.831 -75.344 980.018 136 131 128
174.331 -78.344 982.005 240 240 240
174.331 -77.844 981.919 226 226 226
174.331 -77.344 981.727 175 175 175
174.331 -76.844 981.477 138 137 138
174.331 -76.344 981.051 125 123 124
174.331 -75.844 980.730 123 119 118
174.331 -75.344 980.299 133 128 125
174.831 -78.344 982.049 239 241 240
174.831 -77.844 981.913 227 230 228
174.831 -77.344 981.786 180 180 180
174.831 -76.844 981.579 136 136 136
174.831 -76.344 981.209 120 120 120
174.831 -75.844 980.953 122 119 118
174.831 -75.344 980.527 134 129 126
175.331 -78.344 982.082 238 239 239
175.331 -77.844 981.931 228 228 228
175.331 -77.344 981.824 186 186 186
175.331 -76.844 981.629 135 134 135
175.331 -76.344 981.259 122 120 121
175.331 -75.844 981.061 122 119 119
175.331 -75.344 980.620 134 128 128
175.831 -78.344 982.110 236 236 236
175.831 -77.844 981.999 231 228 229
175.831 -77.344 981.868 196 194 195
175.831 -76.844 981.652 138 136 137
175.831 -76.344 981.292 122 120 121
175.831 -75.844 981.078 121 118 118
175.831 -75.344 980.659 130 124 124
175.831 -74.844 980.281 148 139 136
176.331 -78.344 982.136 237 235 236
176.331 -77.844 982.053 234 233 233
176.331 -77.344 981.914 207 205 206
176.331 -76.844 981.672 147 143 144
176.331 -76.344 981.385 125 121 122
176.331 -75.844 981.082 121 118 117
176.331 -75.344 980.698 126 120 120
176.331 -74.844 980.334 144 136 134
176.831 -78.344 982.194 238 238 237
176.831 -77.844 982.102 234 234 233
176.831 -77.344 981.952 219 219 218
176.831 -76.844 981.654 155 153 154
176.831 -76.344 981.449 125 123 124
176.831 -75.844 981.093 124 120 119
176.831 -75.344 980.766 124 120 119
176.831 -74.844 980.366 140 133 130
177.331 -78.344 982.199 239 240 240
177.331 -77.844 982.133 235 235 235
177.331 -77.344 981.967 225 225 225
177.331 -76.844 981.600 166 164 164
177.331 -76.344 981.436 130 128 129
177.331 -75.844 981.074 126 122 121
177.331 -75.344 980.689 125 119 119
177.331 -74.844 980.279 137 130 127
177.831 -78.344 982.154 239 240 240
177.831 -77.844 982.100 234 234 234
177.831 -77.344 981.967 227 227 227
177.831 -76.844 981.622 176 175 175
177.831 -76.344 981.354 138 137 135
177.831 -75.844 980.967 130 126 125
177.831 -75.344 980.592 126 121 119
177.831 -74.844 980.042 135 126 124
178.331 -78.344 982.102 238 238 237
178.331 -77.844 982.078 239 239 238
178.331 -77.344 982.001 233 233 230
178.331 -76.844 981.737 190 189 187
178.331 -76.344 981.209 153 152 148
178.331 -75.844 980.753 138 133 130
178.331 -75.344 980.356 133 128 124
178.331 -74.844 979.797 134 125 122
178.331 -74.344 979.518 149 138 132
178.831 -78.344 982.055 236 234 231
178.831 -77.844 982.051 241 237 234
178.831 -77.344 981.988 237 233 229
178.831 -76.844 981.704 204 200 194
178.831 -76.344 981.042 173 169 163
178.831 -75.844 980.447 156 151 146
178.831 -75.344 980.068 148 144 136
178.831 -74.844 979.604 150 142 135
178.831 -74.344 979.433 155 145 136
179.331 -78.344 981.905 211 206 204
179.331 -77.844 981.919 212 207 204
179.331 -77.344 981.725 206 201 195
179.331 -76.844 981.317 193 186 179
179.331 -76.344 980.634 181 174 166
179.331 -75.844 980.148 176 172 163
179.331 -75.344 979.667 180 173 165
179.331 -74.844 979.409 184 176 166
179.331 -74.344 979.222 189 179 168
179.831 -78.344 981.492 183 177 171
179.831 -77.844 981.474 186 179 172
179.831 -77.344 981.263 188 181 172
179.831 -76.844 980.633 193 185 175
179.831 -76.344 980.255 191 183 173
179.831 -75.844 979.801 193 185 173
179.831 -75.344 979.475 192 183 171
179.831 -74.844 979.234 190 179 167
180.331 -78.344 980.916 202 195 185
180.331 -77.844 980.770 203 194 185
180.331 -77.344 980.470 200 191 180
180.331 -76.844 980.085 199 190 179
180.331 -76.344 979.753 192 184 172
180.331 -75.844 979.485 191 181 170
180.331 -75.344 979.250 189 179 167
180.331 -74.844 979.048 185 175 162
180.831 -78.344 980.303 213 202 191
180.831 -77.844 980.171 209 198 185
180.831 -77.344 979.903 204 193 180
180.831 -76.844 979.483 196 185 172
180.831 -76.344 979.312 189 179 164
180.831 -75.844 979.197 185 175 163
180.831 -75.344 978.973 187 179 164
180.831 -74.844 978.913 191 180 166
181.331 -78.344 979.873 217 204 188
181.331 -77.844 979.741 212 199 183
181.331 -77.344 979.414 206 192 179
181.331 -76.844 979.159 194 180 167
181.331 -76.344 979.028 189 175 162
181.331 -75.844 978.899 188 176 162
181.331 -75.344 978.716 193 181 167
181.331 -74.844 978.715 201 189 175
