96.831 -45.844 981.905 96 103 121
96.831 -45.344 981.569 96 103 121
96.831 -44.844 981.348 97 104 122
96.831 -44.344 981.160 95 102 120
96.831 -43.844 981.044 92 99 118
96.831 -43.344 980.978 92 98 117
96.831 -42.844 980.968 92 99 118
96.831 -42.344 980.978 93 101 120
96.831 -41.844 981.032 94 105 125
96.831 -41.344 981.039 97 109 131
96.831 -40.844 980.997 98 115 138
96.831 -40.344 980.898 100 116 138
96.831 -39.844 981.340 105 119 137
96.831 -39.344 982.554 97 112 134
96.831 -38.844 984.456 103 127 153
96.831 -33.344 984.856 126 137 157
96.831 -32.844 984.275 129 130 139
96.831 -32.344 982.810 132 129 128
96.831 -31.844 981.259 137 132 129
97.331 -53.344 984.842 81 90 110
97.331 -52.844 984.370 82 91 111
97.331 -52.344 983.920 92 100 119
97.331 -51.844 983.549 105 112 131
97.331 -51.344 983.363 105 112 130
97.331 -50.844 983.018 107 115 132
97.331 -50.344 982.807 107 115 130
97.331 -49.844 982.669 106 113 129
97.331 -49.344 982.572 106 113 129
97.331 -48.844 982.505 107 115 132
97.331 -48.344 982.345 104 113 130
97.331 -47.844 982.176 87 96 113
97.331 -47.344 982.074 86 95 112
97.331 -46.844 981.972 92 99 117
97.331 -46.344 981.834 95 102 120
97.331 -45.844 981.563 95 102 120
97.331 -45.344 981.381 95 102 120
97.331 -44.844 981.132 95 102 120
97.331 -44.344 980.893 95 102 120
97.331 -43.844 980.713 92 99 118
97.331 -43.344 980.676 92 98 117
97.331 -42.844 980.739 92 99 118
97.331 -42.344 980.791 94 101 120
97.331 -41.844 980.898 94 105 125
97.331 -41.344 980.956 98 110 132
97.331 -40.844 980.894 100 118 139
97.331 -40.344 980.789 105 122 142
97.331 -39.844 981.259 102 116 134
97.331 -39.344 982.765 96 111 131
97.331 -38.844 985.009 103 126 151
97.331 -33.344 984.944 128 139 159
97.331 -32.844 984.270 128 129 138
97.331 -32.344 982.483 131 126 124
97.331 -31.844 980.966 139 131 128
97.831 -53.344 984.864 77 88 108
97.831 -52.844 984.358 81 88 108
97.831 -52.344 983.952 91 98 117
97.831 -51.844 983.647 99 108 125
97.831 -51.344 983.274 103 110 128
97.831 -50.844 982.950 106 113 129
97.831 -50.344 982.780 107 115 130
97.831 -49.844 982.628 108 115 130
97.831 -49.344 982.533 107 115 130
97.831 -48.844 982.451 106 113 131
97.831 -48.344 982.267 93 100 118
97.831 -47.844 982.083 81 91 107
97.831 -47.344 981.988 85 94 111
97.831 -46.844 981.847 91 97 116
97.831 -46.344 981.649 93 100 118
97.831 -45.844 981.398 95 102 120
97.831 -45.344 981.201 94 101 119
97.831 -44.844 980.891 95 102 120
97.831 -44.344 980.651 95 102 120
97.831 -43.844 980.523 96 103 122
97.831 -43.344 980.508 93 100 119
97.831 -42.844 980.559 94 101 119
97.831 -42.344 980.576 98 105 124
97.831 -41.844 980.649 98 109 129
97.831 -41.344 980.834 101 113 135
97.831 -40.844 980.844 102 119 142
97.831 -40.344 980.883 103 120 140
97.831 -39.844 981.300 99 113 132
97.831 -39.344 982.767 95 110 129
97.831 -38.844 985.448 104 127 152
97.831 -33.344 985.117 129 141 161
97.831 -32.844 983.910 128 128 137
97.831 -32.344 982.037 130 125 123
97.831 -31.844 980.991 141 131 129
98.331 -53.344 985.027 78 86 106
98.331 -52.844 984.370 78 86 106
98.331 -52.344 984.027 83 92 110
98.331 -51.844 983.779 94 101 119
98.331 -51.344 983.261 101 108 126
98.331 -50.844 982.960 106 113 129
98.331 -50.344 982.792 108 115 130
98.331 -49.844 982.595 110 117 132
98.331 -49.344 982.482 111 118 133
98.331 -48.844 982.398 103 110 128
98.331 -48.344 982.210 84 92 109
98.331 -47.844 982.023 76 83 102
98.331 -47.344 981.886 83 91 108
98.331 -46.844 981.700 88 95 113
98.331 -46.344 981.510 92 98 116
98.331 -45.844 981.265 93 100 118
98.331 -45.344 980.951 94 101 119
98.331 -44.844 980.639 95 102 120
98.331 -44.344 980.499 95 102 120
98.331 -43.844 980.356 96 103 121
98.331 -43.344 980.365 95 102 120
98.331 -42.844 980.457 97 104 122
98.331 -42.344 980.492 99 107 125
98.331 -41.844 980.532 100 111 130
98.331 -41.344 980.607 104 117 137
98.331 -40.844 980.654 103 121 142
98.331 -40.344 980.804 104 121 141
98.331 -39.844 981.313 102 116 132
98.331 -39.344 982.315 99 111 129
98.331 -38.844 984.950 100 120 143
98.331 -33.344 985.225 128 141 163
98.331 -32.844 983.987 129 131 141
98.331 -32.344 982.329 133 127 128
98.331 -31.844 981.387 142 133 130
98.831 -53.344 985.057 78 85 104
98.831 -52.844 984.401 85 92 111
98.831 -52.344 984.034 86 92 111
98.831 -51.844 983.759 95 101 120
98.831 -51.344 983.248 106 112 128
98.831 -50.844 983.013 111 117 132
98.831 -50.344 982.822 112 118 133
98.831 -49.844 982.592 111 118 133
98.831 -49.344 982.481 110 117 132
98.831 -48.844 982.330 98 104 123
98.831 -48.344 982.143 81 87 105
98.831 -47.844 981.970 77 84 103
98.831 -47.344 981.772 83 91 108
98.831 -46.844 981.577 87 94 112
98.831 -46.344 981.401 91 97 116
98.831 -45.844 981.066 92 99 117
98.831 -45.344 980.693 94 101 119
98.831 -44.844 980.495 95 102 120
98.831 -44.344 980.365 95 102 120
98.831 -43.844 980.271 96 103 121
98.831 -43.344 980.274 97 104 122
98.831 -42.844 980.346 99 106 124
98.831 -42.344 980.431 101 110 127
98.831 -41.844 980.489 103 115 132
98.831 -41.344 980.524 108 121 140
98.831 -40.844 980.577 106 123 144
98.831 -40.344 980.729 103 119 139
98.831 -39.844 981.069 108 119 137
98.831 -39.344 981.569 105 113 132
98.831 -38.844 983.080 104 122 145
98.831 -33.344 985.233 127 143 167
98.831 -32.844 984.430 128 133 144
98.831 -32.344 982.809 132 128 128
98.831 -31.844 981.440 143 135 132
99.331 -53.344 985.158 87 92 112
99.331 -52.844 984.491 88 93 113
99.331 -52.344 984.004 86 90 108
99.331 -51.844 983.702 96 99 118
99.331 -51.344 983.253 107 110 127
99.331 -50.844 983.034 110 113 129
99.331 -50.344 982.855 110 113 130
99.331 -49.844 982.602 111 118 133
99.331 -49.344 982.510 110 117 132
99.331 -48.844 982.264 93 98 117
99.331 -48.344 982.071 80 86 104
99.331 -47.844 981.836 77 84 103
99.331 -47.344 981.662 81 88 106
99.331 -46.844 981.467 86 93 111
99.331 -46.344 981.155 90 96 114
99.331 -45.844 980.746 92 98 116
99.331 -45.344 980.570 93 100 118
99.331 -44.844 980.339 96 103 121
99.331 -44.344 980.257 96 103 121
99.331 -43.844 980.231 97 104 122
99.331 -43.344 980.237 98 105 123
99.331 -42.844 980.281 100 107 123
99.331 -42.344 980.357 101 109 126
99.331 -41.844 980.436 102 113 131
99.331 -41.344 980.489 108 121 140
99.331 -40.844 980.524 108 123 145
99.331 -40.344 980.609 105 120 141
99.331 -39.844 980.859 107 116 134
99.331 -39.344 981.288 105 112 131
99.331 -38.844 982.645 97 111 133
99.331 -33.344 985.147 127 146 171
99.331 -32.844 984.632 130 136 149
99.331 -32.344 983.253 129 127 130
99.331 -31.844 981.586 140 134 134
99.831 -53.344 985.273 88 94 113
99.831 -52.844 984.505 81 85 105
99.831 -52.344 983.987 82 87 106
99.831 -51.844 983.602 95 100 119
99.831 -51.344 983.274 106 111 130
99.831 -50.844 983.051 108 113 132
99.831 -50.344 982.862 107 113 130
99.831 -49.844 982.601 108 116 131
99.831 -49.344 982.511 105 112 128
99.831 -48.844 982.168 92 98 116
99.831 -48.344 981.943 86 93 111
99.831 -47.844 981.711 81 87 105
99.831 -47.344 981.494 82 90 107
99.831 -46.844 981.202 86 93 111
99.831 -46.344 980.773 88 95 113
99.831 -45.844 980.588 91 97 116
99.831 -45.344 980.376 92 99 117
99.831 -44.844 980.160 96 103 119
99.831 -44.344 980.079 97 104 120
99.831 -43.844 980.121 99 106 124
99.831 -43.344 980.148 99 106 124
99.831 -42.844 980.265 100 105 124
99.831 -42.344 980.327 101 108 126
99.831 -41.844 980.358 102 110 129
99.831 -41.344 980.447 106 118 136
99.831 -40.844 980.486 107 122 140
99.831 -40.344 980.555 102 119 137
99.831 -39.844 980.695 106 121 140
99.831 -39.344 980.973 100 112 130
99.831 -38.844 982.525 96 112 128
99.831 -38.344 985.413 109 135 158
99.831 -33.344 985.270 128 149 176
99.831 -32.844 984.747 129 139 156
99.831 -32.344 983.368 130 134 142
99.831 -31.844 981.656 137 133 135
100.331 -53.344 985.217 77 84 104
100.331 -52.844 984.390 76 83 103
100.331 -52.344 983.967 78 85 104
100.331 -51.844 983.576 92 99 117
100.331 -51.344 983.244 106 113 131
100.331 -50.844 983.038 103 110 128
100.331 -50.344 982.850 102 109 125
100.331 -49.844 982.584 100 107 123
100.331 -49.344 982.448 99 106 122
100.331 -48.844 982.076 93 100 116
100.331 -48.344 981.786 92 98 116
100.331 -47.844 981.509 87 94 112
100.331 -47.344 981.205 84 92 109
100.331 -46.844 980.911 86 93 111
100.331 -46.344 980.643 90 96 114
100.331 -45.844 980.460 91 97 116
100.331 -45.344 980.107 92 99 117
100.331 -44.844 980.054 97 104 120
100.331 -44.344 979.977 99 106 122
100.331 -43.844 979.980 98 105 123
100.331 -43.344 980.015 99 106 124
100.331 -42.844 980.180 100 106 124
100.331 -42.344 980.296 101 108 126
100.331 -41.844 980.331 100 108 127
100.331 -41.344 980.423 101 112 130
100.331 -40.844 980.479 101 118 135
100.331 -40.344 980.522 104 121 139
100.331 -39.844 980.562 104 119 138
100.331 -39.344 980.694 99 112 129
100.331 -38.844 981.792 101 117 132
100.331 -38.344 984.511 106 128 151
100.331 -33.344 985.468 129 150 177
100.331 -32.844 984.949 128 139 158
100.331 -32.344 983.349 130 134 144
100.331 -31.844 981.642 137 133 135
100.831 -53.344 985.018 73 83 104
100.831 -52.844 984.326 73 83 103
100.831 -52.344 983.994 73 81 102
100.831 -51.844 983.597 85 93 112
100.831 -51.344 983.161 104 111 130
100.831 -50.844 982.993 106 115 132
100.831 -50.344 982.803 103 110 127
100.831 -49.844 982.552 98 105 122
100.831 -49.344 982.266 93 100 117
100.831 -48.844 981.963 87 94 112
100.831 -48.344 981.628 88 95 113
100.831 -47.844 981.362 92 99 117
100.831 -47.344 981.061 92 99 117
100.831 -46.844 980.751 91 97 116
100.831 -46.344 980.520 91 97 116
100.831 -45.844 980.162 91 97 116
100.831 -45.344 980.013 92 99 117
100.831 -44.844 979.973 99 106 122
100.831 -44.344 979.892 101 108 124
100.831 -43.844 979.898 99 106 125
100.831 -43.344 979.979 99 106 124
100.831 -42.844 980.120 99 105 123
100.831 -42.344 980.295 99 106 124
100.831 -41.844 980.381 100 108 127
100.831 -41.344 980.458 99 110 128
100.831 -40.844 980.484 100 115 134
100.831 -40.344 980.491 103 120 142
100.831 -39.844 980.526 104 120 141
100.831 -39.344 980.611 100 113 130
100.831 -38.844 981.067 105 117 133
100.831 -38.344 982.601 96 113 134
100.831 -37.844 985.148 115 143 171
100.831 -32.844 985.065 129 141 160
100.831 -32.344 983.282 126 130 139
100.831 -31.844 981.438 137 133 135
101.331 -53.344 984.806 70 81 103
101.331 -52.844 984.220 70 81 103
101.331 -52.344 983.914 70 81 103
101.331 -51.844 983.554 77 85 106
101.331 -51.344 983.150 93 101 120
101.331 -50.844 982.939 105 113 131
101.331 -50.344 982.726 107 115 132
101.331 -49.844 982.457 97 104 122
101.331 -49.344 982.156 87 94 112
101.331 -48.844 981.718 85 92 110
101.331 -48.344 981.384 88 95 113
101.331 -47.844 981.195 94 101 119
101.331 -47.344 980.784 94 101 119
101.331 -46.844 980.501 93 100 118
101.331 -46.344 980.242 91 97 116
101.331 -45.844 980.048 90 96 114
101.331 -45.344 979.928 92 99 117
101.331 -44.844 979.832 99 106 122
101.331 -44.344 979.797 101 108 124
101.331 -43.844 979.832 99 106 125
101.331 -43.344 979.938 99 106 124
101.331 -42.844 980.026 98 104 122
101.331 -42.344 980.300 96 103 121
101.331 -41.844 980.459 97 105 124
101.331 -41.344 980.519 97 108 126
101.331 -40.844 980.531 98 112 132
101.331 -40.344 980.514 100 119 140
101.331 -39.844 980.574 95 111 134
101.331 -39.344 980.666 102 113 133
101.331 -38.844 980.887 102 111 130
101.331 -38.344 982.052 96 111 132
101.331 -37.844 984.949 115 138 164
101.331 -32.844 985.262 127 140 159
101.331 -32.344 983.747 125 129 138
101.331 -31.844 981.536 139 132 136
101.831 -53.844 985.332 69 81 106
101.831 -53.344 984.858 69 81 105
101.831 -52.844 984.258 71 81 106
101.831 -52.344 983.904 71 82 105
101.831 -51.844 983.414 77 85 106
101.831 -51.344 983.126 92 99 118
101.831 -50.844 982.856 100 107 126
101.831 -50.344 982.580 97 105 124
101.831 -49.844 982.235 94 102 121
101.831 -49.344 981.964 86 94 113
101.831 -48.844 981.588 85 93 111
101.831 -48.344 981.245 90 98 116
101.831 -47.844 980.940 92 100 117
101.831 -47.344 980.538 92 100 117
101.831 -46.844 980.220 92 98 116
101.831 -46.344 980.037 90 96 114
101.831 -45.844 979.915 88 95 113
101.831 -45.344 979.807 90 96 114
101.831 -44.844 979.730 93 100 116
101.831 -44.344 979.717 94 101 117
101.831 -43.844 979.792 95 102 121
101.831 -43.344 979.943 95 102 120
101.831 -42.844 980.048 95 101 119
101.831 -42.344 980.307 93 100 118
101.831 -41.844 980.457 93 101 120
101.831 -41.344 980.550 93 104 122
101.831 -40.844 980.574 93 108 127
101.831 -40.344 980.585 95 113 134
101.831 -39.844 980.791 93 109 132
101.831 -39.344 980.883 94 108 130
101.831 -38.844 980.998 97 108 126
101.831 -38.344 982.185 92 106 127
101.831 -37.844 985.031 118 140 165
101.831 -37.344 985.424 121 163 196
101.831 -32.844 985.307 129 143 162
101.831 -32.344 984.742 125 128 137
101.831 -31.844 982.394 141 134 137
102.331 -53.844 985.449 66 80 105
102.331 -53.344 984.897 70 81 107
102.331 -52.844 984.253 71 81 107
102.331 -52.344 983.866 73 81 105
102.331 -51.844 983.389 76 84 106
102.331 -51.344 983.065 85 92 113
102.331 -50.844 982.742 92 97 116
102.331 -50.344 982.463 91 98 119
102.331 -49.844 982.116 85 93 113
102.331 -49.344 981.733 82 91 109
102.331 -48.844 981.382 86 94 113
102.331 -48.344 981.024 90 98 116
102.331 -47.844 980.754 90 98 116
102.331 -47.344 980.299 90 98 116
102.331 -46.844 980.045 92 98 116
102.331 -46.344 979.914 91 97 116
102.331 -45.844 979.740 88 95 113
102.331 -45.344 979.711 90 96 114
102.331 -44.844 979.694 92 99 116
102.331 -44.344 979.763 94 101 117
102.331 -43.844 979.881 95 102 120
102.331 -43.344 979.983 95 102 120
102.331 -42.844 980.108 94 100 119
102.331 -42.344 980.328 94 101 119
102.331 -41.844 980.459 92 100 119
102.331 -41.344 980.616 92 102 120
102.331 -40.844 980.629 92 108 126
102.331 -40.344 980.673 92 111 127
102.331 -39.844 980.864 91 108 130
102.331 -39.344 980.968 99 115 135
102.331 -38.844 981.171 93 106 125
102.331 -38.344 982.519 91 107 127
102.331 -37.844 985.123 109 132 158
102.331 -37.344 985.348 119 158 191
102.331 -32.844 985.328 129 144 162
102.331 -32.344 984.914 128 131 140
102.331 -31.844 982.563 140 133 136
102.831 -53.344 984.948 74 82 109
102.831 -52.844 984.226 76 82 108
102.831 -52.344 983.737 77 83 107
102.831 -51.844 983.352 80 85 107
102.831 -51.344 982.831 81 87 107
102.831 -50.844 982.479 85 92 112
102.831 -50.344 982.217 82 90 109
102.831 -49.844 981.874 82 91 110
102.831 -49.344 981.444 83 91 109
102.831 -48.844 981.096 88 96 116
102.831 -48.344 980.770 93 100 118
102.831 -47.844 980.354 92 100 118
102.831 -47.344 980.053 94 102 120
102.831 -46.844 979.924 96 103 120
102.831 -46.344 979.763 98 105 122
102.831 -45.844 979.629 95 102 119
102.831 -45.344 979.637 99 106 123
102.831 -44.844 979.708 99 106 122
102.831 -44.344 979.874 98 105 121
102.831 -43.844 979.929 97 104 121
102.831 -43.344 980.000 97 104 121
102.831 -42.844 980.119 97 104 122
102.831 -42.344 980.334 97 104 122
102.831 -41.844 980.540 95 104 122
102.831 -41.344 980.617 94 104 121
102.831 -40.844 980.632 95 109 126
102.831 -40.344 980.685 97 116 133
102.831 -39.844 980.896 93 111 133
102.831 -39.344 981.022 98 115 136
102.831 -38.844 981.396 95 110 130
102.831 -38.344 983.000 92 111 134
102.831 -37.844 985.161 104 130 157
102.831 -37.344 985.377 118 156 187
102.831 -32.844 985.187 130 144 165
102.831 -32.344 984.847 131 134 146
102.831 -31.844 982.514 137 132 135
103.331 -53.344 984.979 80 85 112
103.331 -52.844 984.161 81 86 110
103.331 -52.344 983.619 81 86 108
103.331 -51.844 983.299 78 85 104
103.331 -51.344 982.583 76 82 104
103.331 -50.844 982.204 77 83 105
103.331 -50.344 981.934 77 84 104
103.331 -49.844 981.555 80 86 105
103.331 -49.344 981.125 84 92 110
103.331 -48.844 980.915 88 95 114
103.331 -48.344 980.390 93 100 118
103.331 -47.844 980.173 97 104 122
103.331 -47.344 979.979 103 110 128
103.331 -46.844 979.821 107 115 130
103.331 -46.344 979.726 110 118 133
103.331 -45.844 979.610 108 116 131
103.331 -45.344 979.656 111 119 134
103.331 -44.844 979.832 109 117 132
103.331 -44.344 979.927 103 110 126
103.331 -43.844 979.941 103 109 125
103.331 -43.344 980.014 103 109 125
103.331 -42.844 980.158 102 109 125
103.331 -42.344 980.337 101 108 125
103.331 -41.844 980.538 100 107 125
103.331 -41.344 980.587 98 107 124
103.331 -40.844 980.618 99 111 128
103.331 -40.344 980.682 98 115 134
103.331 -39.844 980.896 100 117 139
103.331 -39.344 981.090 100 117 139
103.331 -38.844 982.074 96 112 133
103.331 -38.344 984.521 102 124 147
103.331 -37.844 985.262 107 136 163
103.331 -37.344 985.430 116 154 183
103.331 -32.844 985.133 130 147 170
103.331 -32.344 984.662 129 136 150
103.331 -31.844 982.287 136 132 135
103.831 -53.344 984.916 80 85 111
103.831 -52.844 983.879 81 86 109
103.831 -52.344 983.350 81 86 108
103.831 -51.844 982.970 78 85 104
103.831 -51.344 982.297 77 83 105
103.831 -50.844 981.938 77 83 106
103.831 -50.344 981.706 75 82 103
103.831 -49.844 981.196 76 83 103
103.831 -49.344 980.980 84 92 110
103.831 -48.844 980.600 90 96 114
103.831 -48.344 980.265 93 100 118
103.831 -47.844 980.021 97 104 122
103.831 -47.344 979.948 103 110 128
103.831 -46.844 979.817 108 116 131
103.831 -46.344 979.726 110 118 133
103.831 -45.844 979.604 110 118 133
103.831 -45.344 979.714 111 119 134
103.831 -44.844 979.820 112 119 135
103.831 -44.344 979.902 108 116 131
103.831 -43.844 979.955 107 113 129
103.831 -43.344 980.082 106 112 128
103.831 -42.844 980.174 105 111 127
103.831 -42.344 980.327 102 109 127
103.831 -41.844 980.519 101 108 126
103.831 -41.344 980.549 100 107 125
103.831 -40.844 980.598 102 112 129
103.831 -40.344 980.705 101 115 134
103.831 -39.844 980.944 102 119 141
103.831 -39.344 981.190 102 118 139
103.831 -38.844 982.386 103 120 140
103.831 -38.344 984.867 102 127 149
103.831 -37.844 985.223 102 134 160
103.831 -32.844 985.146 127 150 175
103.831 -32.344 984.464 128 139 154
103.831 -31.844 982.109 133 131 135
104.331 -53.344 984.739 81 86 110
104.331 -52.844 983.619 77 83 106
104.331 -52.344 983.085 74 81 103
104.331 -51.844 982.624 74 81 103
104.331 -51.344 982.104 73 80 102
104.331 -50.844 981.874 73 80 103
104.331 -50.344 981.588 73 80 102
104.331 -49.844 981.148 74 81 103
104.331 -49.344 980.761 77 84 103
104.331 -48.844 980.370 86 93 112
104.331 -48.344 980.168 94 99 118
104.331 -47.844 980.000 98 104 120
104.331 -47.344 979.926 104 109 125
104.331 -46.844 979.806 109 117 132
104.331 -46.344 979.718 112 119 135
104.331 -45.844 979.682 112 119 135
104.331 -45.344 979.728 112 119 135
104.331 -44.844 979.771 112 119 135
104.331 -44.344 979.845 111 119 134
104.331 -43.844 979.977 109 116 129
104.331 -43.344 980.086 108 115 129
104.331 -42.844 980.203 106 112 128
104.331 -42.344 980.301 103 110 126
104.331 -41.844 980.462 102 109 127
104.331 -41.344 980.522 102 109 126
104.331 -40.844 980.591 103 111 129
104.331 -40.344 980.753 104 115 134
104.331 -39.844 980.984 101 117 138
104.331 -39.344 981.298 101 117 137
104.331 -38.844 982.348 99 117 135
104.331 -38.344 984.476 100 125 145
104.331 -37.844 985.047 103 133 159
104.331 -37.344 985.371 112 147 177
104.331 -32.844 985.214 125 153 180
104.331 -32.344 984.541 125 142 158
104.331 -31.844 982.346 129 130 133
104.831 -53.344 984.239 75 83 106
104.831 -52.844 983.341 75 83 105
104.831 -52.344 982.956 76 84 104
104.831 -51.844 982.569 74 82 103
104.831 -51.344 982.049 73 81 103
104.831 -50.844 981.762 75 82 106
104.831 -50.344 981.376 76 82 104
104.831 -49.844 980.998 75 81 103
104.831 -49.344 980.560 76 82 103
104.831 -48.844 980.206 85 92 110
104.831 -48.344 980.087 95 99 117
104.831 -47.844 979.958 104 108 124
104.831 -47.344 979.849 112 116 132
104.831 -46.844 979.755 115 120 136
104.831 -46.344 979.695 115 120 136
104.831 -45.844 979.753 115 120 136
104.831 -45.344 979.758 115 120 136
104.831 -44.844 979.772 115 120 136
104.831 -44.344 979.813 113 119 135
104.831 -43.844 979.956 111 117 130
104.831 -43.344 980.066 107 113 127
104.831 -42.844 980.188 105 111 125
104.831 -42.344 980.303 105 111 127
104.831 -41.844 980.396 104 111 127
104.831 -41.344 980.494 104 111 127
104.831 -40.844 980.607 104 112 130
104.831 -40.344 980.807 104 116 135
104.831 -39.844 981.045 102 118 138
104.831 -39.344 981.446 103 119 139
104.831 -38.844 982.566 94 110 129
104.831 -38.344 984.363 103 126 147
104.831 -37.844 984.911 101 131 156
104.831 -37.344 985.309 112 145 175
104.831 -32.844 985.159 127 154 181
104.831 -32.344 984.575 128 142 159
104.831 -31.844 982.985 129 131 137
105.331 -53.344 984.022 75 83 105
105.331 -52.844 983.078 76 84 105
105.331 -52.344 982.706 77 85 105
105.331 -51.844 982.442 78 86 107
105.331 -51.344 982.041 73 81 104
105.331 -50.844 981.645 73 81 105
105.331 -50.344 981.214 76 82 107
105.331 -49.844 980.798 77 83 105
105.331 -49.344 980.446 77 83 105
105.331 -48.844 980.148 81 86 106
105.331 -48.344 980.022 93 96 113
105.331 -47.844 979.923 109 112 129
105.331 -47.344 979.770 120 123 138
105.331 -46.844 979.682 119 124 140
105.331 -46.344 979.684 115 120 136
105.331 -45.844 979.741 117 122 138
105.331 -45.344 979.756 116 121 137
105.331 -44.844 979.773 116 121 137
105.331 -44.344 979.811 115 120 136
105.331 -43.844 979.892 112 116 130
105.331 -43.344 979.993 108 111 126
105.331 -42.844 980.134 104 110 124
105.331 -42.344 980.292 105 111 127
105.331 -41.844 980.343 105 111 127
105.331 -41.344 980.452 104 111 127
105.331 -40.844 980.648 104 112 129
105.331 -40.344 980.944 102 116 134
105.331 -39.844 981.140 100 116 136
105.331 -39.344 981.482 96 111 132
105.331 -38.844 982.564 95 109 128
105.331 -38.344 984.039 98 119 140
105.331 -37.844 984.661 101 128 154
105.331 -37.344 985.409 112 143 172
105.331 -32.844 985.196 130 154 178
105.331 -32.344 984.726 128 139 157
105.331 -31.844 983.706 128 131 140
105.831 -53.344 983.955 72 81 102
105.831 -52.844 983.030 72 81 100
105.831 -52.344 982.704 76 84 103
105.831 -51.844 982.383 76 84 105
105.831 -51.344 982.026 76 84 107
105.831 -50.844 981.425 73 81 106
105.831 -50.344 980.953 75 83 106
105.831 -49.844 980.718 74 81 105
105.831 -49.344 980.299 74 81 103
105.831 -48.844 980.059 76 82 102
105.831 -48.344 979.857 86 91 108
105.831 -47.844 979.807 104 106 122
105.831 -47.344 979.683 116 119 133
105.831 -46.844 979.624 112 119 134
105.831 -46.344 979.650 113 119 135
105.831 -45.844 979.670 113 119 135
105.831 -45.344 979.739 115 120 136
105.831 -44.844 979.765 115 120 136
105.831 -44.344 979.801 113 119 135
105.831 -43.844 979.828 111 116 129
105.831 -43.344 979.928 108 111 126
105.831 -42.844 980.100 104 109 123
105.831 -42.344 980.279 104 110 124
105.831 -41.844 980.299 103 109 125
105.831 -41.344 980.326 103 109 125
105.831 -40.844 980.573 102 111 127
105.831 -40.344 980.932 102 116 133
105.831 -39.844 981.120 99 115 135
105.831 -39.344 981.572 102 118 136
105.831 -38.844 982.616 101 116 134
105.831 -38.344 983.722 103 121 144
105.831 -37.844 984.595 104 129 156
105.831 -32.844 985.329 133 152 176
105.831 -32.344 984.910 129 138 155
105.831 -31.844 984.534 128 132 143
106.331 -53.344 984.148 73 81 104
106.331 -52.844 983.131 71 78 99
106.331 -52.344 982.781 76 82 104
106.331 -51.844 982.266 77 83 105
106.331 -51.344 981.861 74 82 105
106.331 -50.844 981.366 72 82 107
106.331 -50.344 980.929 70 81 105
106.331 -49.844 980.588 69 80 104
106.331 -49.344 980.168 69 80 104
106.331 -48.844 979.901 70 78 100
106.331 -48.344 979.780 75 83 103
106.331 -47.844 979.714 94 103 120
106.331 -47.344 979.640 104 113 128
106.331 -46.844 979.584 107 115 130
106.331 -46.344 979.578 108 116 131
106.331 -45.844 979.552 109 117 132
106.331 -45.344 979.666 110 118 133
106.331 -44.844 979.730 110 118 133
106.331 -44.344 979.772 110 118 133
106.331 -43.844 979.824 109 116 131
106.331 -43.344 979.914 103 109 125
106.331 -42.844 980.073 102 108 124
106.331 -42.344 980.254 101 108 124
106.331 -41.844 980.270 101 108 124
106.331 -41.344 980.294 102 109 125
106.331 -40.844 980.495 101 109 125
106.331 -40.344 980.957 102 110 127
106.331 -39.844 981.209 98 113 135
106.331 -39.344 981.638 99 116 138
106.331 -38.844 982.290 104 120 143
106.331 -38.344 983.121 104 123 147
106.331 -37.844 984.436 105 129 155
106.331 -37.344 985.482 109 137 161
106.331 -32.344 985.214 132 140 163
106.331 -31.844 984.748 128 133 151
106.831 -53.344 984.786 78 83 104
106.831 -52.844 983.561 78 84 104
106.831 -52.344 983.022 81 87 106
106.831 -51.844 982.338 78 84 105
106.831 -51.344 981.796 74 82 105
106.831 -50.844 981.264 71 81 105
106.831 -50.344 980.923 68 80 102
106.831 -49.844 980.426 69 80 103
106.831 -49.344 980.094 70 80 103
106.831 -48.844 979.935 71 80 102
106.831 -48.344 979.774 72 81 100
106.831 -47.844 979.689 91 98 116
106.831 -47.344 979.621 103 111 126
106.831 -46.844 979.577 106 113 129
106.831 -46.344 979.566 108 116 131
106.831 -45.844 979.548 108 116 131
106.831 -45.344 979.560 109 117 132
106.831 -44.844 979.670 110 118 133
106.831 -44.344 979.741 109 117 132
106.831 -43.844 979.805 107 113 129
106.831 -43.344 979.883 102 108 124
106.831 -42.844 980.030 101 107 123
106.831 -42.344 980.231 100 107 123
106.831 -41.844 980.272 101 108 124
106.831 -41.344 980.340 101 108 124
106.831 -40.844 980.629 101 109 124
106.831 -40.344 981.040 101 109 127
106.831 -39.844 981.398 99 113 134
106.831 -39.344 981.743 100 116 137
106.831 -38.844 982.267 103 119 140
106.831 -38.344 983.257 104 122 146
106.831 -37.844 984.625 105 128 155
106.831 -37.344 985.236 109 136 162
106.831 -31.844 985.086 128 136 155
107.331 -52.844 983.892 81 83 103
107.331 -52.344 983.088 81 84 103
107.331 -51.844 982.510 77 82 103
107.331 -51.344 981.949 73 81 103
107.331 -50.844 981.220 71 81 104
107.331 -50.344 980.886 70 80 103
107.331 -49.844 980.448 71 80 103
107.331 -49.344 980.182 72 81 103
107.331 -48.844 980.041 72 81 103
107.331 -48.344 979.853 74 81 100
107.331 -47.844 979.694 91 97 116
107.331 -47.344 979.605 102 109 127
107.331 -46.844 979.562 106 113 129
107.331 -46.344 979.541 109 117 132
107.331 -45.844 979.539 109 117 132
107.331 -45.344 979.545 109 117 132
107.331 -44.844 979.565 110 118 133
107.331 -44.344 979.665 108 116 131
107.331 -43.844 979.764 105 111 127
107.331 -43.344 979.877 101 107 123
107.331 -42.844 980.003 100 107 123
107.331 -42.344 980.193 100 107 123
107.331 -41.844 980.292 100 107 123
107.331 -41.344 980.419 101 108 124
107.331 -40.844 980.729 100 108 124
107.331 -40.344 981.063 99 108 126
107.331 -39.844 981.521 98 110 132
107.331 -39.344 981.958 100 113 132
107.331 -38.844 982.349 106 119 138
107.331 -38.344 983.563 102 119 141
107.331 -37.844 984.593 102 124 151
107.331 -37.344 985.089 107 134 161
107.331 -31.844 985.364 128 138 156
107.831 -52.844 984.038 82 85 104
107.831 -52.344 983.039 83 86 105
107.831 -51.844 982.806 75 81 100
107.831 -51.344 982.254 74 81 103
107.831 -50.844 981.405 72 81 104
107.831 -50.344 980.934 71 80 102
107.831 -49.844 980.507 71 80 103
107.831 -49.344 980.220 72 81 103
107.831 -48.844 980.129 72 80 103
107.831 -48.344 979.877 73 80 103
107.831 -47.844 979.701 92 98 117
107.831 -47.344 979.606 102 109 127
107.831 -46.844 979.546 105 112 128
107.831 -46.344 979.531 107 115 130
107.831 -45.844 979.531 109 117 132
107.831 -45.344 979.531 108 116 131
107.831 -44.844 979.558 110 118 133
107.831 -44.344 979.630 107 115 130
107.831 -43.844 979.741 103 109 125
107.831 -43.344 979.866 100 106 122
107.831 -42.844 979.997 99 105 121
107.831 -42.344 980.153 99 106 122
107.831 -41.844 980.329 100 107 123
107.831 -41.344 980.478 101 108 124
107.831 -40.844 980.811 99 107 123
107.831 -40.344 981.065 99 107 125
107.831 -39.844 981.469 98 111 130
107.831 -39.344 981.976 100 111 130
107.831 -38.844 982.647 101 112 130
107.831 -38.344 984.197 100 115 136
107.831 -37.844 984.689 104 125 150
107.831 -37.344 985.099 109 138 164
107.831 -31.844 985.471 131 136 156
108.331 -52.844 984.536 72 80 98
108.331 -52.344 983.157 77 82 103
108.331 -51.844 982.683 73 80 98
108.331 -51.344 982.214 73 80 102
108.331 -50.844 981.603 73 81 103
108.331 -50.344 981.017 73 81 103
108.331 -49.844 980.514 73 81 103
108.331 -49.344 980.219 73 81 104
108.331 -48.844 980.126 73 80 103
108.331 -48.344 979.816 74 81 103
108.331 -47.844 979.708 90 96 116
108.331 -47.344 979.649 103 110 128
108.331 -46.844 979.541 104 111 127
108.331 -46.344 979.515 104 111 127
108.331 -45.844 979.520 108 116 131
108.331 -45.344 979.522 109 117 132
108.331 -44.844 979.553 105 112 128
108.331 -44.344 979.625 102 109 125
108.331 -43.844 979.735 99 105 121
108.331 -43.344 979.850 99 105 121
108.331 -42.844 980.000 99 105 121
108.331 -42.344 980.118 98 105 121
108.331 -41.844 980.324 100 107 123
108.331 -41.344 980.492 100 107 123
108.331 -40.844 980.865 98 107 123
108.331 -40.344 981.089 99 106 125
108.331 -39.844 981.468 97 108 127
108.331 -39.344 982.076 99 107 125
108.331 -38.844 983.020 98 108 124
108.331 -38.344 984.279 98 112 131
108.331 -37.844 984.789 105 125 149
108.331 -37.344 985.065 107 137 163
108.331 -36.844 985.444 120 154 182
108.331 -31.844 985.481 135 135 154
108.831 -52.344 983.536 71 80 100
108.831 -51.844 982.439 71 78 98
108.831 -51.344 982.074 72 78 100
108.831 -50.844 981.609 73 81 103
108.831 -50.344 980.994 73 81 103
108.831 -49.844 980.490 73 81 103
108.831 -49.344 980.231 75 81 105
108.831 -48.844 980.116 75 81 105
108.831 -48.344 979.813 76 82 104
108.831 -47.844 979.729 84 90 109
108.831 -47.344 979.691 100 105 125
108.831 -46.844 979.557 103 110 126
108.831 -46.344 979.504 103 110 126
108.831 -45.844 979.513 105 112 128
108.831 -45.344 979.523 106 113 129
108.831 -44.844 979.564 103 110 126
108.831 -44.344 979.619 99 106 122
108.831 -43.844 979.713 99 105 121
108.831 -43.344 979.849 99 105 121
108.831 -42.844 980.008 99 106 122
108.831 -42.344 980.115 99 106 122
108.831 -41.844 980.292 100 107 123
108.831 -41.344 980.496 100 107 123
108.831 -40.844 980.853 97 106 122
108.831 -40.344 981.047 98 106 124
108.831 -39.844 981.326 97 108 126
108.831 -39.344 982.070 97 105 123
108.831 -38.844 983.381 100 108 124
108.831 -38.344 984.427 98 111 130
108.831 -37.844 984.845 104 123 147
108.831 -37.344 985.085 106 135 161
108.831 -36.844 985.473 117 150 178
108.831 -31.844 985.412 133 136 150
109.331 -52.344 983.494 73 81 103
109.331 -51.844 982.176 72 80 98
109.331 -51.344 981.812 72 81 102
109.331 -50.844 981.484 72 81 103
109.331 -50.344 980.700 74 82 103
109.331 -49.844 980.385 74 82 103
109.331 -49.344 980.206 77 83 105
109.331 -48.844 980.100 77 83 105
109.331 -48.344 979.810 77 83 105
109.331 -47.844 979.728 81 86 105
109.331 -47.344 979.697 95 100 119
109.331 -46.844 979.554 99 105 121
109.331 -46.344 979.503 103 109 125
109.331 -45.844 979.499 102 108 124
109.331 -45.344 979.529 102 108 124
109.331 -44.844 979.564 101 107 121
109.331 -44.344 979.620 100 106 120
109.331 -43.844 979.679 102 105 120
109.331 -43.344 979.840 102 105 120
109.331 -42.844 979.977 102 105 120
109.331 -42.344 980.068 102 105 120
109.331 -41.844 980.194 103 106 121
109.331 -41.344 980.450 100 105 120
109.331 -40.844 980.717 99 105 122
109.331 -40.344 980.981 97 106 123
109.331 -39.844 981.344 98 107 124
109.331 -39.344 981.677 98 107 124
109.331 -38.844 982.715 97 106 124
109.331 -38.344 984.363 98 109 129
109.331 -37.844 984.850 108 122 144
109.331 -37.344 985.115 106 133 160
109.331 -31.844 985.252 130 139 155
109.831 -52.344 983.307 73 81 103
109.831 -51.844 981.877 72 80 98
109.831 -51.344 981.412 72 81 102
109.831 -50.844 981.175 72 81 103
109.831 -50.344 980.546 73 81 102
109.831 -49.844 980.348 74 82 103
109.831 -49.344 980.233 77 83 105
109.831 -48.844 980.117 78 84 106
109.831 -48.344 979.813 78 84 104
109.831 -47.844 979.726 82 87 106
109.831 -47.344 979.694 98 103 122
109.831 -46.844 979.555 102 108 124
109.831 -46.344 979.511 103 109 125
109.831 -45.844 979.499 104 110 126
109.831 -45.344 979.540 104 110 126
109.831 -44.844 979.559 103 109 123
109.831 -44.344 979.618 103 109 123
109.831 -43.844 979.674 103 109 123
109.831 -43.344 979.816 103 109 123
109.831 -42.844 979.926 102 108 122
109.831 -42.344 980.026 102 108 122
109.831 -41.844 980.093 102 108 122
109.831 -41.344 980.339 101 107 121
109.831 -40.844 980.635 99 106 122
109.831 -40.344 980.784 98 107 124
109.831 -39.844 981.135 99 108 125
109.831 -39.344 981.576 101 109 128
109.831 -38.844 982.211 100 109 128
109.831 -38.344 983.594 97 108 127
109.831 -37.844 984.754 105 119 138
109.831 -37.344 985.181 102 128 152
109.831 -31.844 985.467 130 142 159
110.331 -52.844 985.306 72 81 105
110.331 -52.344 982.916 71 80 100
110.331 -51.844 981.449 73 81 99
110.331 -51.344 980.936 72 81 102
110.331 -50.844 980.844 71 80 103
110.331 -50.344 980.587 73 81 103
110.331 -49.844 980.381 73 81 103
110.331 -49.344 980.230 74 82 104
110.331 -48.844 980.095 76 82 106
110.331 -48.344 979.824 76 82 104
110.331 -47.844 979.724 78 85 104
110.331 -47.344 979.689 94 101 119
110.331 -46.844 979.569 99 104 123
110.331 -46.344 979.538 100 105 122
110.331 -45.844 979.521 100 106 122
110.331 -45.344 979.542 100 106 122
110.331 -44.844 979.552 100 106 122
110.331 -44.344 979.610 99 105 120
110.331 -43.844 979.664 99 105 121
110.331 -43.344 979.764 100 106 122
110.331 -42.844 979.871 101 107 123
110.331 -42.344 979.984 101 107 123
110.331 -41.844 980.061 101 107 123
110.331 -41.344 980.182 100 106 122
110.331 -40.844 980.480 99 105 122
110.331 -40.344 980.724 98 107 124
110.331 -39.844 981.072 100 108 127
110.331 -39.344 981.335 103 111 130
110.331 -38.844 981.601 97 108 126
110.331 -38.344 982.737 98 109 127
110.331 -37.844 984.431 100 112 131
110.331 -37.344 985.257 103 127 149
110.831 -52.844 985.222 70 80 104
110.831 -52.344 982.670 69 77 99
110.831 -51.844 981.184 73 81 99
110.831 -51.344 980.863 72 81 102
110.831 -50.844 980.850 71 80 103
110.831 -50.344 980.785 72 81 103
110.831 -49.844 980.482 73 81 103
110.831 -49.344 980.259 73 81 104
110.831 -48.844 980.103 74 82 105
110.831 -48.344 979.856 74 81 103
110.831 -47.844 979.729 75 82 102
110.831 -47.344 979.687 91 97 116
110.831 -46.844 979.610 98 104 123
110.831 -46.344 979.566 99 105 124
110.831 -45.844 979.551 99 105 122
110.831 -45.344 979.553 99 105 121
110.831 -44.844 979.571 99 105 121
110.831 -44.344 979.609 98 105 121
110.831 -43.844 979.650 98 104 120
110.831 -43.344 979.705 100 106 122
110.831 -42.844 979.814 101 107 123
110.831 -42.344 979.975 101 107 123
110.831 -41.844 980.084 101 107 123
110.831 -41.344 980.194 101 107 123
110.831 -40.844 980.318 100 106 122
110.831 -40.344 980.636 100 108 125
110.831 -39.844 980.890 100 108 127
110.831 -39.344 981.047 100 111 131
110.831 -38.844 981.334 99 110 130
110.831 -38.344 982.374 97 108 126
110.831 -37.844 983.983 100 110 129
110.831 -37.344 985.260 105 125 146
111.331 -52.344 983.213 70 78 100
111.331 -51.844 981.320 73 81 99
111.331 -51.344 980.901 72 81 102
111.331 -50.844 980.900 72 81 103
111.331 -50.344 980.869 70 81 102
111.331 -49.844 980.636 70 81 103
111.331 -49.344 980.365 73 81 104
111.331 -48.844 980.118 73 81 104
111.331 -48.344 979.881 73 81 103
111.331 -47.844 979.732 75 82 102
111.331 -47.344 979.676 87 94 113
111.331 -46.844 979.649 97 104 122
111.331 -46.344 979.616 99 106 124
111.331 -45.844 979.584 98 105 123
111.331 -45.344 979.587 97 104 122
111.331 -44.844 979.609 97 104 120
111.331 -44.344 979.630 97 104 120
111.331 -43.844 979.645 99 106 122
111.331 -43.344 979.689 99 106 122
111.331 -42.844 979.794 100 107 123
111.331 -42.344 979.981 100 107 123
111.331 -41.844 980.121 100 107 123
111.331 -41.344 980.212 100 107 123
111.331 -40.844 980.316 100 107 123
111.331 -40.344 980.587 101 108 125
111.331 -39.844 980.793 99 108 127
111.331 -39.344 980.977 100 113 132
111.331 -38.844 981.214 98 110 130
111.331 -38.344 981.999 99 108 127
111.331 -37.844 983.636 100 110 127
111.331 -37.344 984.994 100 118 137
111.831 -52.344 983.957 71 80 100
111.831 -51.844 981.655 73 81 99
111.831 -51.344 981.091 72 81 102
111.831 -50.844 980.998 72 81 103
111.831 -50.344 980.892 70 81 102
111.831 -49.844 980.750 70 81 103
111.831 -49.344 980.465 71 82 104
111.831 -48.844 980.128 73 81 105
111.831 -48.344 979.885 73 81 104
111.831 -47.844 979.713 73 81 103
111.831 -47.344 979.656 84 92 111
111.831 -46.844 979.654 97 104 123
111.831 -46.344 979.649 98 105 123
111.831 -45.844 979.635 99 106 124
111.831 -45.344 979.634 98 105 123
111.831 -44.844 979.635 98 105 122
111.831 -44.344 979.640 98 105 121
111.831 -43.844 979.643 98 105 123
111.831 -43.344 979.679 98 105 123
111.831 -42.844 979.771 99 106 124
111.831 -42.344 979.927 100 107 125
111.831 -41.844 980.124 100 107 125
111.831 -41.344 980.232 100 107 125
111.831 -40.844 980.333 101 108 123
111.831 -40.344 980.588 102 109 125
111.831 -39.844 980.794 99 109 128
111.831 -39.344 980.957 100 112 134
111.831 -38.844 981.085 99 111 132
111.831 -38.344 981.440 102 110 129
111.831 -37.844 982.777 102 110 128
111.831 -37.344 984.481 96 111 130
111.831 -36.844 985.436 112 135 160
112.331 -52.344 984.021 74 82 105
112.331 -51.844 982.200 72 80 99
112.331 -51.344 981.729 71 81 102
112.331 -50.844 981.199 72 81 103
112.331 -50.344 980.891 71 81 104
112.331 -49.844 980.746 71 82 104
112.331 -49.344 980.422 71 82 104
112.331 -48.844 980.098 73 82 105
112.331 -48.344 979.881 74 82 104
112.331 -47.844 979.680 73 81 103
112.331 -47.344 979.648 82 91 109
112.331 -46.844 979.657 96 103 122
112.331 -46.344 979.673 98 105 123
112.331 -45.844 979.680 98 106 123
112.331 -45.344 979.659 98 106 123
112.331 -44.844 979.657 97 104 121
112.331 -44.344 979.640 97 104 120
112.331 -43.844 979.641 96 103 121
112.331 -43.344 979.688 97 103 121
112.331 -42.844 979.775 98 105 123
112.331 -42.344 979.915 100 106 125
112.331 -41.844 980.083 100 107 125
112.331 -41.344 980.240 100 107 125
112.331 -40.844 980.374 101 108 125
112.331 -40.344 980.650 101 109 125
112.331 -39.844 980.813 99 108 127
112.331 -39.344 980.933 100 111 133
112.331 -38.844 981.009 99 112 132
112.331 -38.344 981.017 102 111 130
112.331 -37.844 981.851 103 111 129
112.331 -37.344 984.143 102 116 131
112.331 -36.844 985.124 111 132 157
112.831 -52.344 984.345 73 81 107
112.831 -51.844 982.838 71 80 100
112.831 -51.344 982.502 70 81 102
112.831 -50.844 981.403 71 81 103
112.831 -50.344 980.876 70 81 103
112.831 -49.844 980.742 71 82 104
112.831 -49.344 980.429 73 82 104
112.831 -48.844 980.072 73 82 103
112.831 -48.344 979.907 73 81 103
112.831 -47.844 979.702 74 81 103
112.831 -47.344 979.648 81 87 107
112.831 -46.844 979.672 93 101 119
112.831 -46.344 979.698 98 106 124
112.831 -45.844 979.710 97 105 123
112.831 -45.344 979.679 97 105 121
112.831 -44.844 979.673 97 105 121
112.831 -44.344 979.638 97 104 120
112.831 -43.844 979.623 98 103 121
112.831 -43.344 979.657 99 104 121
112.831 -42.844 979.749 99 104 122
112.831 -42.344 979.929 100 106 125
112.831 -41.844 980.068 100 107 125
112.831 -41.344 980.237 100 107 125
112.831 -40.844 980.407 100 108 126
112.831 -40.344 980.664 100 109 127
112.831 -39.844 980.810 100 108 127
112.831 -39.344 980.908 102 110 131
112.831 -38.844 980.997 103 112 133
112.831 -38.344 981.001 103 113 132
112.831 -37.844 981.698 101 111 130
112.831 -37.344 983.593 105 121 140
112.831 -36.844 984.643 109 130 154
113.331 -52.344 985.444 71 78 105
113.331 -51.844 983.393 70 81 102
113.331 -51.344 982.612 69 81 100
113.331 -50.844 981.384 71 81 103
113.331 -50.344 980.892 73 81 104
113.331 -49.844 980.755 73 81 104
113.331 -49.344 980.459 74 82 105
113.331 -48.844 980.096 75 81 104
113.331 -48.344 979.963 75 81 103
113.331 -47.844 979.804 74 81 103
113.331 -47.344 979.660 77 83 105
113.331 -46.844 979.678 93 98 117
113.331 -46.344 979.687 99 104 123
113.331 -45.844 979.715 100 105 124
113.331 -45.344 979.692 101 107 123
113.331 -44.844 979.685 101 107 123
113.331 -44.344 979.638 100 106 122
113.331 -43.844 979.603 100 106 120
113.331 -43.344 979.633 99 105 119
113.331 -42.844 979.735 100 106 122
113.331 -42.344 979.971 101 107 123
113.331 -41.844 980.069 100 107 123
113.331 -41.344 980.203 100 107 125
113.331 -40.844 980.421 100 107 125
113.331 -40.344 980.570 100 108 126
113.331 -39.844 980.728 100 108 127
113.331 -39.344 980.839 100 111 131
113.331 -38.844 980.991 104 117 137
113.331 -38.344 981.027 104 118 136
113.331 -37.844 981.578 101 116 134
113.331 -37.344 983.127 103 124 145
113.331 -36.844 984.272 103 128 152
113.331 -36.344 985.237 104 134 162
113.831 -51.844 984.293 69 81 102
113.831 -51.344 982.804 67 81 99
113.831 -50.844 981.581 70 81 102
113.831 -50.344 981.026 73 80 103
113.831 -49.844 980.786 73 80 103
113.831 -49.344 980.523 75 81 105
113.831 -48.844 980.191 77 83 106
113.831 -48.344 980.037 78 83 105
113.831 -47.844 979.932 78 83 105
113.831 -47.344 979.682 80 84 105
113.831 -46.844 979.661 97 100 119
113.831 -46.344 979.668 103 106 125
113.831 -45.844 979.713 105 108 127
113.831 -45.344 979.711 105 108 125
113.831 -44.844 979.698 104 107 124
113.831 -44.344 979.646 103 106 123
113.831 -43.844 979.616 101 107 121
113.831 -43.344 979.648 103 109 123
113.831 -42.844 979.731 103 109 123
113.831 -42.344 980.002 101 107 123
113.831 -41.844 980.069 100 107 123
113.831 -41.344 980.158 100 107 123
113.831 -40.844 980.420 100 107 123
113.831 -40.344 980.544 100 108 126
113.831 -39.844 980.634 99 108 129
113.831 -39.344 980.790 98 111 130
113.831 -38.844 980.995 101 118 138
113.831 -38.344 981.065 103 120 140
113.831 -37.844 981.526 103 122 141
113.831 -37.344 982.754 107 129 152
113.831 -36.844 983.880 102 129 155
113.831 -36.344 985.071 105 136 165
114.331 -51.844 984.713 70 81 103
114.331 -51.344 982.990 68 81 100
114.331 -50.844 981.900 71 81 102
114.331 -50.344 981.240 74 81 103
114.331 -49.844 980.810 75 81 105
114.331 -49.344 980.584 74 81 105
114.331 -48.844 980.294 77 83 106
114.331 -48.344 980.085 78 84 106
114.331 -47.844 979.966 78 83 105
114.331 -47.344 979.705 80 84 104
114.331 -46.844 979.667 94 97 116
114.331 -46.344 979.666 102 105 124
114.331 -45.844 979.711 102 105 124
114.331 -45.344 979.733 103 106 123
114.331 -44.844 979.704 102 105 122
114.331 -44.344 979.669 103 106 123
114.331 -43.844 979.659 102 108 122
114.331 -43.344 979.691 102 108 122
114.331 -42.844 979.782 102 108 122
114.331 -42.344 980.000 100 107 122
114.331 -41.844 980.067 99 106 122
114.331 -41.344 980.160 98 105 122
114.331 -40.844 980.418 98 105 122
114.331 -40.344 980.508 98 107 124
114.331 -39.844 980.563 97 108 127
114.331 -39.344 980.728 96 108 130
114.331 -38.844 980.975 99 116 136
114.331 -38.344 981.080 102 120 140
114.331 -37.844 981.476 101 122 141
114.331 -37.344 982.525 98 119 142
114.331 -36.844 983.799 100 125 151
114.331 -36.344 985.251 104 134 162
114.831 -51.844 984.244 69 80 103
114.831 -51.344 982.614 68 81 100
114.831 -50.844 982.107 71 81 102
114.831 -50.344 981.555 72 82 104
114.831 -49.844 980.847 73 83 106
114.831 -49.344 980.644 74 82 105
114.831 -48.844 980.444 76 83 106
114.831 -48.344 980.151 78 85 106
114.831 -47.844 980.001 78 84 106
114.831 -47.344 979.767 78 85 106
114.831 -46.844 979.697 92 96 116
114.831 -46.344 979.688 102 106 125
114.831 -45.844 979.716 103 107 126
114.831 -45.344 979.749 102 107 124
114.831 -44.844 979.724 102 106 123
114.831 -44.344 979.715 103 108 124
114.831 -43.844 979.720 103 109 124
114.831 -43.344 979.767 103 109 124
114.831 -42.844 979.851 103 108 125
114.831 -42.344 979.983 99 106 123
114.831 -41.844 980.068 97 104 121
114.831 -41.344 980.178 94 101 119
114.831 -40.844 980.421 95 102 120
114.831 -40.344 980.513 94 103 120
114.831 -39.844 980.611 95 103 123
114.831 -39.344 980.703 93 104 126
114.831 -38.844 980.901 95 109 132
114.831 -38.344 981.081 96 113 136
114.831 -37.844 981.374 88 105 126
114.831 -37.344 982.118 92 108 130
114.831 -36.844 983.543 87 107 132
114.831 -36.344 985.292 95 120 148
115.331 -51.844 983.557 69 80 103
115.331 -51.344 982.156 69 82 102
115.331 -50.844 981.985 71 81 103
115.331 -50.344 981.766 71 81 103
115.331 -49.844 980.988 72 83 105
115.331 -49.344 980.730 71 82 104
115.331 -48.844 980.636 72 81 103
115.331 -48.344 980.249 72 81 102
115.331 -47.844 980.049 73 81 103
115.331 -47.344 979.841 73 81 103
115.331 -46.844 979.742 84 90 108
115.331 -46.344 979.712 93 98 117
115.331 -45.844 979.731 96 101 120
115.331 -45.344 979.761 97 104 120
115.331 -44.844 979.749 96 102 118
115.331 -44.344 979.771 96 102 118
115.331 -43.844 979.787 97 102 121
115.331 -43.344 979.853 96 101 120
115.331 -42.844 979.897 95 100 119
115.331 -42.344 979.974 92 99 117
115.331 -41.844 980.090 90 96 116
115.331 -41.344 980.247 87 94 113
115.331 -40.844 980.459 87 94 113
115.331 -40.344 980.567 86 95 112
115.331 -39.844 980.687 86 94 116
115.331 -39.344 980.770 85 96 118
115.331 -38.844 980.891 87 99 123
115.331 -38.344 981.078 90 104 127
115.331 -37.844 981.254 84 99 121
115.331 -37.344 981.688 88 101 120
115.331 -36.844 983.165 81 97 121
115.331 -36.344 985.146 84 103 133
115.831 -51.844 982.888 70 78 98
115.831 -51.344 981.781 69 81 100
115.831 -50.844 981.799 69 81 102
115.831 -50.344 981.718 70 81 103
115.831 -49.844 981.274 71 82 104
115.831 -49.344 980.849 70 81 103
115.831 -48.844 980.696 73 81 104
115.831 -48.344 980.375 74 82 105
115.831 -47.844 980.080 74 82 105
115.831 -47.344 979.873 74 82 103
115.831 -46.844 979.778 81 88 105
115.831 -46.344 979.730 92 100 117
115.831 -45.844 979.746 92 99 117
115.831 -45.344 979.786 90 97 114
115.831 -44.844 979.786 90 97 116
115.831 -44.344 979.826 90 97 114
115.831 -43.844 979.864 87 95 113
115.831 -43.344 979.919 87 95 112
115.831 -42.844 979.949 85 93 111
115.831 -42.344 980.014 85 93 112
115.831 -41.844 980.152 82 91 109
115.831 -41.344 980.335 81 88 109
115.831 -40.844 980.526 81 90 110
115.831 -40.344 980.625 81 90 110
115.831 -39.844 980.707 81 88 109
115.831 -39.344 980.827 78 90 111
115.831 -38.844 980.990 81 94 117
115.831 -38.344 981.130 81 96 122
115.831 -37.844 981.285 77 94 120
115.831 -37.344 981.656 78 92 116
115.831 -36.844 982.842 77 94 121
115.831 -36.344 984.638 81 100 130
116.331 -52.344 984.220 70 80 103
116.331 -51.844 981.734 71 80 98
116.331 -51.344 981.361 70 81 102
116.331 -50.844 981.488 70 82 103
116.331 -50.344 981.607 70 81 103
116.331 -49.844 981.285 70 81 103
116.331 -49.344 980.934 71 82 104
116.331 -48.844 980.672 73 81 104
116.331 -48.344 980.476 73 81 104
116.331 -47.844 980.094 73 81 104
116.331 -47.344 979.910 73 81 104
116.331 -46.844 979.815 78 86 105
116.331 -46.344 979.755 87 95 114
116.331 -45.844 979.756 85 93 113
116.331 -45.344 979.818 82 91 110
116.331 -44.844 979.855 82 91 110
116.331 -44.344 979.892 81 90 109
116.331 -43.844 979.956 81 90 106
116.331 -43.344 979.987 80 87 106
116.331 -42.844 980.005 80 87 107
116.331 -42.344 980.072 80 87 106
116.331 -41.844 980.213 77 85 106
116.331 -41.344 980.415 77 85 106
116.331 -40.844 980.569 77 85 106
116.331 -40.344 980.637 76 84 105
116.331 -39.844 980.728 77 85 106
116.331 -39.344 980.923 75 86 106
116.331 -38.844 981.087 76 90 112
116.331 -38.344 981.211 77 93 119
116.331 -37.844 981.357 76 94 121
116.331 -37.344 981.638 80 93 119
116.331 -36.844 982.426 76 97 124
116.331 -36.344 983.980 81 101 130
116.831 -52.344 983.273 69 81 103
116.831 -51.844 981.250 71 80 100
116.831 -51.344 981.111 70 81 102
116.831 -50.844 981.173 70 82 103
116.831 -50.344 981.392 70 81 103
116.831 -49.844 980.985 69 81 103
116.831 -49.344 980.830 71 82 104
116.831 -48.844 980.644 72 81 103
116.831 -48.344 980.483 72 81 103
116.831 -47.844 980.092 73 81 104
116.831 -47.344 979.956 73 81 104
116.831 -46.844 979.841 74 82 103
116.831 -46.344 979.763 78 86 107
116.831 -45.844 979.767 78 86 107
116.831 -45.344 979.836 78 86 107
116.831 -44.844 979.894 78 86 107
116.831 -44.344 979.946 76 84 105
116.831 -43.844 980.010 77 85 105
116.831 -43.344 980.029 77 85 105
116.831 -42.844 980.049 78 86 107
116.831 -42.344 980.139 77 85 106
116.831 -41.844 980.255 76 84 106
116.831 -41.344 980.445 76 84 106
116.831 -40.844 980.563 75 83 105
116.831 -40.344 980.625 76 84 105
116.831 -39.844 980.760 76 84 105
116.831 -39.344 981.072 75 84 105
116.831 -38.844 981.212 75 90 111
116.831 -38.344 981.318 78 94 119
116.831 -37.844 981.414 76 93 119
116.831 -37.344 981.618 74 92 117
116.831 -36.844 982.281 73 95 125
116.831 -36.344 983.556 83 104 133
116.831 -35.844 984.743 92 115 143
117.331 -52.344 985.446 68 80 104
117.331 -51.844 982.075 70 78 99
117.331 -51.344 980.996 69 81 100
117.331 -50.844 980.853 71 82 103
117.331 -50.344 980.896 70 81 103
117.331 -49.844 980.790 70 81 103
117.331 -49.344 980.689 70 81 103
