137.831 -119.344 994.505 105 174 219
137.831 -118.844 994.464 128 202 243
137.831 -118.344 994.384 132 210 248
137.831 -117.844 994.370 130 211 250
137.831 -117.344 994.350 133 213 250
137.831 -116.844 994.307 133 213 250
137.831 -116.344 994.239 131 213 250
137.831 -115.844 994.121 131 213 250
137.831 -115.344 994.002 131 213 250
137.831 -114.844 993.881 131 213 250
137.831 -114.344 993.833 128 213 249
137.831 -113.844 993.792 130 214 248
137.831 -113.344 993.769 131 213 248
137.831 -112.844 993.788 134 215 252
137.831 -112.344 993.825 117 201 242
137.831 -111.844 993.871 106 198 243
137.831 -111.344 993.887 102 198 246
137.831 -110.844 993.863 102 200 247
137.831 -110.344 993.780 102 200 247
137.831 -109.844 993.632 102 200 247
137.831 -109.344 993.497 102 200 247
137.831 -108.844 993.437 102 200 247
137.831 -108.344 993.387 102 200 247
137.831 -107.844 993.246 103 199 247
137.831 -107.344 993.181 100 200 245
137.831 -106.844 993.225 103 199 244
137.831 -106.344 993.281 103 198 245
137.831 -105.844 993.341 100 200 243
137.831 -105.344 993.413 111 198 239
137.831 -104.844 993.433 137 188 223
137.831 -104.344 993.343 186 209 233
137.831 -103.844 993.156 117 128 148
137.831 -103.344 992.663 97 104 125
138.331 -125.344 993.604 203 203 201
138.331 -124.844 993.887 228 227 225
138.331 -124.344 993.934 230 226 223
138.331 -123.844 994.130 228 228 227
138.331 -123.344 994.247 233 233 233
138.331 -122.844 994.335 231 231 228
138.331 -122.344 994.373 236 236 234
138.331 -121.844 994.406 239 241 240
138.331 -121.344 994.575 239 240 242
138.331 -120.844 994.664 239 241 245
138.331 -120.344 994.654 191 208 224
138.331 -119.844 994.570 113 156 192
138.331 -119.344 994.489 107 171 215
138.331 -118.844 994.456 126 199 237
138.331 -118.344 994.427 132 209 245
138.331 -117.844 994.407 130 212 250
138.331 -117.344 994.388 131 213 250
138.331 -116.844 994.347 131 213 250
138.331 -116.344 994.263 130 212 249
138.331 -115.844 994.129 131 213 250
138.331 -115.344 994.008 131 213 250
138.331 -114.844 993.864 131 213 250
138.331 -114.344 993.787 132 213 250
138.331 -113.844 993.738 131 214 248
138.331 -113.344 993.714 130 214 248
138.331 -112.844 993.736 132 216 251
138.331 -112.344 993.778 119 204 243
138.331 -111.844 993.830 106 198 242
138.331 -111.344 993.859 102 200 245
138.331 -110.844 993.840 103 199 247
138.331 -110.344 993.731 103 199 247
138.331 -109.844 993.592 102 200 247
138.331 -109.344 993.493 102 200 247
138.331 -108.844 993.421 102 200 247
138.331 -108.344 993.345 100 200 247
138.331 -107.844 993.230 102 199 247
138.331 -107.344 993.177 102 200 247
138.331 -106.844 993.205 100 201 247
138.331 -106.344 993.253 101 200 245
138.331 -105.844 993.332 103 197 242
138.331 -105.344 993.384 109 198 241
138.331 -104.844 993.393 126 191 229
138.331 -104.344 993.344 186 212 237
138.331 -103.844 993.090 129 135 153
138.331 -103.344 992.641 103 115 136
138.331 -102.844 992.077 91 101 123
138.831 -125.344 993.518 199 199 197
138.831 -124.844 993.819 224 224 222
138.831 -124.344 993.911 225 224 221
138.831 -123.844 994.019 228 228 228
138.831 -123.344 994.152 231 231 230
138.831 -122.844 994.284 233 233 230
138.831 -122.344 994.328 237 237 235
138.831 -121.844 994.373 239 241 240
138.831 -121.344 994.476 240 241 243
138.831 -120.844 994.627 240 243 246
138.831 -120.344 994.629 213 230 244
138.831 -119.844 994.541 112 152 186
138.831 -119.344 994.486 107 169 213
138.831 -118.844 994.465 123 196 234
138.831 -118.344 994.463 133 210 246
138.831 -117.844 994.427 132 212 250
138.831 -117.344 994.397 131 213 250
138.831 -116.844 994.366 131 213 250
138.831 -116.344 994.296 131 213 250
138.831 -115.844 994.180 131 213 250
138.831 -115.344 994.022 131 213 250
138.831 -114.844 993.862 131 213 250
138.831 -114.344 993.764 132 213 250
138.831 -113.844 993.697 131 213 249
138.831 -113.344 993.670 130 214 248
138.831 -112.844 993.682 131 215 251
138.831 -112.344 993.736 121 206 246
138.831 -111.844 993.795 105 198 240
138.831 -111.344 993.828 103 200 245
138.831 -110.844 993.820 103 199 247
138.831 -110.344 993.719 103 199 247
138.831 -109.844 993.577 103 201 248
138.831 -109.344 993.489 102 200 247
138.831 -108.844 993.401 102 200 247
138.831 -108.344 993.297 100 200 247
138.831 -107.844 993.214 102 199 247
138.831 -107.344 993.170 102 200 247
138.831 -106.844 993.174 101 200 247
138.831 -106.344 993.220 102 200 245
138.831 -105.844 993.325 104 198 242
138.831 -105.344 993.371 109 198 242
138.831 -104.844 993.376 124 191 230
138.831 -104.344 993.337 184 211 238
138.831 -103.844 993.104 140 149 167
138.831 -103.344 992.678 107 119 140
138.831 -102.844 992.027 94 106 127
139.331 -125.344 993.354 206 206 206
139.331 -124.844 993.682 225 225 225
139.331 -124.344 993.851 231 230 227
139.331 -123.844 993.954 230 230 229
139.331 -123.344 994.099 228 228 228
139.331 -122.844 994.277 234 234 232
139.331 -122.344 994.318 238 238 236
139.331 -121.844 994.376 240 243 241
139.331 -121.344 994.453 241 243 244
139.331 -120.844 994.568 243 244 248
139.331 -120.344 994.608 230 243 253
139.331 -119.844 994.558 121 157 189
139.331 -119.344 994.500 106 166 207
139.331 -118.844 994.463 119 191 232
139.331 -118.344 994.459 132 210 248
139.331 -117.844 994.423 132 211 249
139.331 -117.344 994.388 131 213 250
139.331 -116.844 994.349 131 213 250
139.331 -116.344 994.284 132 214 251
139.331 -115.844 994.184 131 213 250
139.331 -115.344 994.036 131 213 250
139.331 -114.844 993.871 131 213 250
139.331 -114.344 993.762 132 213 250
139.331 -113.844 993.674 132 214 251
139.331 -113.344 993.630 131 215 249
139.331 -112.844 993.635 131 214 251
139.331 -112.344 993.708 125 208 250
139.331 -111.844 993.781 105 196 239
139.331 -111.344 993.812 103 199 244
139.331 -110.844 993.806 103 199 247
139.331 -110.344 993.733 103 199 247
139.331 -109.844 993.594 102 200 247
139.331 -109.344 993.494 102 200 247
139.331 -108.844 993.401 102 200 247
139.331 -108.344 993.301 100 200 247
139.331 -107.844 993.220 102 200 247
139.331 -107.344 993.155 102 200 247
139.331 -106.844 993.143 102 200 247
139.331 -106.344 993.179 102 199 247
139.331 -105.844 993.303 103 197 244
139.331 -105.344 993.359 107 198 243
139.331 -104.844 993.365 122 193 233
139.331 -104.344 993.307 168 202 229
139.331 -103.844 993.169 156 167 185
139.331 -103.344 992.752 111 122 144
139.331 -102.844 992.058 97 108 129
139.831 -125.344 993.067 220 220 220
139.831 -124.844 993.449 232 232 231
139.831 -124.344 993.765 237 237 235
139.831 -123.844 993.964 233 233 232
139.831 -123.344 994.084 232 232 231
139.831 -122.844 994.265 235 235 233
139.831 -122.344 994.326 237 237 235
139.831 -121.844 994.389 241 244 242
139.831 -121.344 994.468 241 243 244
139.831 -120.844 994.546 244 245 249
139.831 -120.344 994.600 234 244 253
139.831 -119.844 994.568 131 161 191
139.831 -119.344 994.476 107 161 204
139.831 -118.844 994.447 118 189 230
139.831 -118.344 994.427 132 211 249
139.831 -117.844 994.404 134 212 248
139.831 -117.344 994.367 131 213 250
139.831 -116.844 994.326 131 213 250
139.831 -116.344 994.265 131 213 250
139.831 -115.844 994.181 131 213 250
139.831 -115.344 994.042 131 213 250
139.831 -114.844 993.881 132 214 251
139.831 -114.344 993.774 133 213 251
139.831 -113.844 993.667 131 213 250
139.831 -113.344 993.618 130 214 250
139.831 -112.844 993.627 131 213 250
139.831 -112.344 993.705 126 209 250
139.831 -111.844 993.785 108 197 241
139.831 -111.344 993.810 103 198 243
139.831 -110.844 993.794 103 199 247
139.831 -110.344 993.727 103 199 247
139.831 -109.844 993.600 102 200 247
139.831 -109.344 993.497 101 199 246
139.831 -108.844 993.395 102 200 247
139.831 -108.344 993.301 100 200 247
139.831 -107.844 993.220 102 200 247
139.831 -107.344 993.146 101 199 246
139.831 -106.844 993.126 101 199 248
139.831 -106.344 993.173 102 199 247
139.831 -105.844 993.288 103 198 244
139.831 -105.344 993.333 106 198 242
139.831 -104.844 993.339 119 195 238
139.831 -104.344 993.303 157 197 226
139.831 -103.844 993.255 162 176 195
139.831 -103.344 992.864 116 126 146
139.831 -102.844 992.198 99 109 129
140.331 -125.344 992.860 223 223 223
140.331 -124.844 993.298 231 231 230
140.331 -124.344 993.724 243 243 242
140.331 -123.844 993.932 244 244 243
140.331 -123.344 994.052 234 234 234
140.331 -122.844 994.195 231 231 228
140.331 -122.344 994.312 237 237 235
140.331 -121.844 994.396 241 244 242
140.331 -121.344 994.479 241 243 244
140.331 -120.844 994.572 241 244 247
140.331 -120.344 994.583 237 246 253
140.331 -119.844 994.557 144 168 195
140.331 -119.344 994.453 105 156 196
140.331 -118.844 994.439 113 184 229
140.331 -118.344 994.406 129 208 247
140.331 -117.844 994.383 133 212 245
140.331 -117.344 994.348 131 213 249
140.331 -116.844 994.309 131 213 250
140.331 -116.344 994.233 131 213 250
140.331 -115.844 994.152 131 213 250
140.331 -115.344 994.028 131 213 250
140.331 -114.844 993.889 132 214 251
140.331 -114.344 993.783 133 213 251
140.331 -113.844 993.671 132 214 252
140.331 -113.344 993.640 130 214 250
140.331 -112.844 993.651 131 212 250
140.331 -112.344 993.710 131 213 253
140.331 -111.844 993.777 109 199 240
140.331 -111.344 993.791 102 197 241
140.331 -110.844 993.774 103 199 247
140.331 -110.344 993.718 103 199 247
140.331 -109.844 993.598 102 200 247
140.331 -109.344 993.477 101 199 246
140.331 -108.844 993.345 102 200 247
140.331 -108.344 993.265 99 200 246
140.331 -107.844 993.211 101 200 247
140.331 -107.344 993.146 102 200 247
140.331 -106.844 993.128 102 199 249
140.331 -106.344 993.207 102 199 247
140.331 -105.844 993.301 102 198 246
140.331 -105.344 993.320 103 198 244
140.331 -104.844 993.333 116 197 240
140.331 -104.344 993.313 144 191 222
140.331 -103.844 993.272 168 184 202
140.331 -103.344 993.036 118 128 148
140.331 -102.844 992.319 99 108 128
140.831 -125.344 992.737 224 224 224
140.831 -124.844 993.334 228 230 228
140.831 -124.344 993.730 241 241 241
140.831 -123.844 993.874 243 243 242
140.831 -123.344 994.003 233 233 233
140.831 -122.844 994.114 226 226 224
140.831 -122.344 994.287 230 230 227
140.831 -121.844 994.376 238 240 239
140.831 -121.344 994.466 243 244 245
140.831 -120.844 994.518 241 244 247
140.831 -120.344 994.527 235 243 251
140.831 -119.844 994.532 157 179 205
140.831 -119.344 994.472 105 153 193
140.831 -118.844 994.438 111 183 227
140.831 -118.344 994.404 129 208 249
140.831 -117.844 994.375 135 212 246
140.831 -117.344 994.332 131 213 250
140.831 -116.844 994.271 131 213 250
140.831 -116.344 994.189 131 213 250
140.831 -115.844 994.119 131 213 250
140.831 -115.344 994.017 131 213 250
140.831 -114.844 993.889 131 213 250
140.831 -114.344 993.772 131 213 251
140.831 -113.844 993.679 130 213 251
140.831 -113.344 993.660 130 214 250
140.831 -112.844 993.662 132 213 250
140.831 -112.344 993.700 134 215 253
140.831 -111.844 993.754 112 199 241
140.831 -111.344 993.762 104 198 242
140.831 -110.844 993.745 103 199 247
140.831 -110.344 993.686 103 199 247
140.831 -109.844 993.551 102 200 247
140.831 -109.344 993.427 101 199 246
140.831 -108.844 993.332 102 200 247
140.831 -108.344 993.263 99 200 246
140.831 -107.844 993.220 100 201 247
140.831 -107.344 993.190 100 200 247
140.831 -106.844 993.184 102 199 249
140.831 -106.344 993.259 103 199 249
140.831 -105.844 993.316 102 198 246
140.831 -105.344 993.329 103 199 244
140.831 -104.844 993.348 112 196 241
140.831 -104.344 993.343 134 184 216
140.831 -103.844 993.320 179 197 217
140.831 -103.344 993.149 115 125 145
140.831 -102.844 992.545 100 109 129
141.331 -125.344 992.714 224 224 224
141.331 -124.844 993.418 226 226 226
141.331 -124.344 993.723 240 238 239
141.331 -123.844 993.819 244 241 242
141.331 -123.344 993.955 228 227 225
141.331 -122.844 994.074 221 221 219
141.331 -122.344 994.257 223 223 221
141.331 -121.844 994.338 236 236 236
141.331 -121.344 994.432 243 244 245
141.331 -120.844 994.459 244 244 246
141.331 -120.344 994.475 235 240 246
141.331 -119.844 994.499 174 193 212
141.331 -119.344 994.476 106 149 184
141.331 -118.844 994.415 111 180 224
141.331 -118.344 994.390 128 207 248
141.331 -117.844 994.362 132 211 242
141.331 -117.344 994.305 133 213 249
141.331 -116.844 994.219 133 213 250
141.331 -116.344 994.152 130 212 249
141.331 -115.844 994.097 131 213 250
141.331 -115.344 994.005 131 213 250
141.331 -114.844 993.880 131 214 251
141.331 -114.344 993.767 131 214 248
141.331 -113.844 993.684 131 213 249
141.331 -113.344 993.666 130 214 251
141.331 -112.844 993.661 130 213 250
141.331 -112.344 993.681 132 214 251
141.331 -111.844 993.716 116 202 244
141.331 -111.344 993.728 103 198 241
141.331 -110.844 993.716 102 200 245
141.331 -110.344 993.644 102 200 245
141.331 -109.844 993.498 102 200 247
141.331 -109.344 993.392 102 198 246
141.331 -108.844 993.335 103 199 247
141.331 -108.344 993.290 103 199 247
141.331 -107.844 993.265 102 200 247
141.331 -107.344 993.262 102 200 247
141.331 -106.844 993.271 102 200 247
141.331 -106.344 993.305 102 198 246
141.331 -105.844 993.322 102 198 246
141.331 -105.344 993.331 103 200 245
141.331 -104.844 993.340 109 198 242
141.331 -104.344 993.361 132 189 224
141.331 -103.844 993.380 190 209 229
141.331 -103.344 993.184 119 124 140
141.331 -102.844 992.763 101 111 132
141.831 -125.344 992.801 217 217 217
141.831 -124.844 993.454 216 215 216
141.831 -124.344 993.646 237 235 236
141.831 -123.844 993.782 240 238 239
141.831 -123.344 993.931 232 231 228
141.831 -122.844 994.041 226 226 224
141.831 -122.344 994.238 226 226 224
141.831 -121.844 994.327 236 236 236
141.831 -121.344 994.384 243 244 245
141.831 -120.844 994.446 243 244 245
141.831 -120.344 994.473 237 241 246
141.831 -119.844 994.481 187 204 220
141.831 -119.344 994.434 105 148 182
141.831 -118.844 994.379 108 176 221
141.831 -118.344 994.352 127 206 247
141.831 -117.844 994.333 134 213 246
141.831 -117.344 994.268 133 213 249
141.831 -116.844 994.180 133 213 250
141.831 -116.344 994.134 131 213 250
141.831 -115.844 994.060 132 214 251
141.831 -115.344 993.952 132 214 251
141.831 -114.844 993.852 131 213 250
141.831 -114.344 993.765 131 213 248
141.831 -113.844 993.683 131 213 250
141.831 -113.344 993.657 130 214 251
141.831 -112.844 993.654 130 214 251
141.831 -112.344 993.666 131 215 251
141.831 -111.844 993.690 115 202 242
141.831 -111.344 993.697 104 200 242
141.831 -110.844 993.674 102 200 245
141.831 -110.344 993.610 102 200 245
141.831 -109.844 993.489 102 200 247
141.831 -109.344 993.389 102 198 246
141.831 -108.844 993.339 104 200 248
141.831 -108.344 993.314 103 199 247
141.831 -107.844 993.305 102 200 247
141.831 -107.344 993.309 102 200 247
141.831 -106.844 993.333 102 200 247
141.831 -106.344 993.333 102 198 246
141.831 -105.844 993.309 103 199 247
141.831 -105.344 993.325 103 200 245
141.831 -104.844 993.338 108 198 242
141.831 -104.344 993.375 131 192 228
141.831 -103.844 993.401 191 212 232
141.831 -103.344 993.278 126 131 147
141.831 -102.844 992.726 106 117 138
142.331 -125.344 992.827 209 209 207
142.331 -124.844 993.402 208 207 208
142.331 -124.344 993.540 224 223 221
142.331 -123.844 993.772 231 228 229
142.331 -123.344 993.912 228 227 225
142.331 -122.844 994.018 231 231 228
142.331 -122.344 994.202 231 231 228
142.331 -121.844 994.312 237 237 237
142.331 -121.344 994.342 241 243 244
142.331 -120.844 994.432 239 240 242
142.331 -120.344 994.468 238 241 244
142.331 -119.844 994.466 202 218 232
142.331 -119.344 994.398 109 148 181
142.331 -118.844 994.338 108 172 217
142.331 -118.344 994.309 125 203 242
142.331 -117.844 994.283 133 211 245
142.331 -117.344 994.221 132 212 248
142.331 -116.844 994.158 132 212 249
142.331 -116.344 994.117 131 213 250
142.331 -115.844 994.019 131 213 250
142.331 -115.344 993.897 132 214 251
142.331 -114.844 993.828 131 214 251
142.331 -114.344 993.744 131 214 249
142.331 -113.844 993.670 130 213 250
142.331 -113.344 993.644 129 214 251
142.331 -112.844 993.639 129 213 250
142.331 -112.344 993.651 131 214 250
142.331 -111.844 993.674 117 203 243
142.331 -111.344 993.671 107 199 242
142.331 -110.844 993.632 104 201 246
142.331 -110.344 993.588 104 201 246
142.331 -109.844 993.487 104 200 248
142.331 -109.344 993.381 102 200 247
142.331 -108.844 993.333 102 200 247
142.331 -108.344 993.320 101 199 246
142.331 -107.844 993.319 102 200 247
142.331 -107.344 993.327 102 200 247
142.331 -106.844 993.332 102 200 247
142.331 -106.344 993.308 102 199 247
142.331 -105.844 993.281 103 199 247
142.331 -105.344 993.312 103 200 245
142.331 -104.844 993.334 106 199 243
142.331 -104.344 993.386 128 193 229
142.331 -103.844 993.405 190 215 237
142.331 -103.344 993.380 133 140 158
142.331 -102.844 992.873 108 118 137
142.331 -102.344 992.499 102 110 131
142.831 -125.344 992.825 209 209 207
142.831 -124.844 993.276 212 211 209
142.831 -124.344 993.477 223 222 220
142.831 -123.844 993.768 234 233 233
142.831 -123.344 993.857 232 231 228
142.831 -122.844 993.992 231 231 228
142.831 -122.344 994.163 226 226 224
142.831 -121.844 994.298 232 232 231
142.831 -121.344 994.338 238 239 241
142.831 -120.844 994.416 239 240 242
142.831 -120.344 994.462 240 244 246
142.831 -119.844 994.459 215 228 241
142.831 -119.344 994.404 115 150 180
142.831 -118.844 994.316 107 168 211
142.831 -118.344 994.283 126 201 241
142.831 -117.844 994.230 133 211 247
142.831 -117.344 994.184 133 213 249
142.831 -116.844 994.143 133 213 250
142.831 -116.344 994.079 131 213 250
142.831 -115.844 993.974 131 213 250
142.831 -115.344 993.872 131 213 250
142.831 -114.844 993.808 131 213 250
142.831 -114.344 993.715 131 214 248
142.831 -113.844 993.647 130 214 250
142.831 -113.344 993.626 129 214 252
142.831 -112.844 993.615 129 213 250
142.831 -112.344 993.623 130 212 249
142.831 -111.844 993.658 119 205 244
142.831 -111.344 993.655 108 200 243
142.831 -110.844 993.612 104 201 246
142.831 -110.344 993.576 103 200 245
142.831 -109.844 993.479 104 200 248
142.831 -109.344 993.372 102 200 247
142.831 -108.844 993.329 102 200 247
142.831 -108.344 993.326 101 199 246
142.831 -107.844 993.336 101 199 246
142.831 -107.344 993.340 102 200 247
142.831 -106.844 993.299 101 199 247
142.831 -106.344 993.258 102 198 246
142.831 -105.844 993.250 102 198 246
142.831 -105.344 993.279 102 199 244
142.831 -104.844 993.310 105 198 242
142.831 -104.344 993.372 126 196 236
142.831 -103.844 993.398 179 211 236
142.831 -103.344 993.353 158 168 185
142.831 -102.844 992.900 119 126 145
142.831 -102.344 992.382 110 119 137
143.331 -125.344 992.755 199 199 197
143.331 -124.844 993.126 206 206 205
143.331 -124.344 993.408 221 220 218
143.331 -123.844 993.716 228 226 227
143.331 -123.344 993.794 232 231 228
143.331 -122.844 993.946 241 241 239
143.331 -122.344 994.115 238 238 236
143.331 -121.844 994.263 235 235 235
143.331 -121.344 994.333 237 238 240
143.331 -120.844 994.385 239 241 243
143.331 -120.344 994.453 244 244 248
143.331 -119.844 994.453 225 235 248
143.331 -119.344 994.406 119 149 177
143.331 -118.844 994.311 106 164 205
143.331 -118.344 994.259 122 197 237
143.331 -117.844 994.198 132 210 246
143.331 -117.344 994.167 133 213 250
143.331 -116.844 994.117 133 213 250
143.331 -116.344 994.035 131 213 250
143.331 -115.844 993.940 131 213 250
143.331 -115.344 993.858 131 213 250
143.331 -114.844 993.794 131 214 251
143.331 -114.344 993.709 131 214 251
143.331 -113.844 993.632 130 214 251
143.331 -113.344 993.598 129 214 253
143.331 -112.844 993.588 130 214 250
143.331 -112.344 993.601 131 213 249
143.331 -111.844 993.645 122 208 248
143.331 -111.344 993.652 107 198 242
143.331 -110.844 993.610 104 199 245
143.331 -110.344 993.561 103 199 245
143.331 -109.844 993.459 103 199 247
143.331 -109.344 993.366 102 200 247
143.331 -108.844 993.330 101 200 247
143.331 -108.344 993.323 100 201 247
143.331 -107.844 993.330 102 200 247
143.331 -107.344 993.318 101 199 246
143.331 -106.844 993.258 101 199 246
143.331 -106.344 993.219 102 199 247
143.331 -105.844 993.222 103 199 247
143.331 -105.344 993.234 103 200 245
143.331 -104.844 993.269 105 199 243
143.331 -104.344 993.338 121 197 237
143.331 -103.844 993.377 168 205 234
143.331 -103.344 993.143 168 183 201
143.331 -102.844 992.551 134 142 160
143.331 -102.344 991.974 119 126 144
143.831 -125.344 992.446 204 205 200
143.831 -124.844 992.991 201 200 198
143.831 -124.344 993.260 213 212 208
143.831 -123.844 993.583 224 223 223
143.831 -123.344 993.757 231 230 227
143.831 -122.844 993.898 238 238 236
143.831 -122.344 994.028 237 237 235
143.831 -121.844 994.227 233 233 233
143.831 -121.344 994.326 236 237 239
143.831 -120.844 994.361 238 241 242
143.831 -120.344 994.438 241 243 244
143.831 -119.844 994.433 233 239 250
143.831 -119.344 994.377 126 154 181
143.831 -118.844 994.300 103 159 199
143.831 -118.344 994.233 119 192 233
143.831 -117.844 994.185 132 210 248
143.831 -117.344 994.142 132 212 249
143.831 -116.844 994.086 133 213 250
143.831 -116.344 993.994 131 213 250
143.831 -115.844 993.909 132 214 251
143.831 -115.344 993.845 132 214 251
143.831 -114.844 993.789 131 213 250
143.831 -114.344 993.711 131 213 250
143.831 -113.844 993.617 129 214 251
143.831 -113.344 993.573 129 214 253
143.831 -112.844 993.571 130 213 249
143.831 -112.344 993.588 130 213 247
143.831 -111.844 993.618 125 211 249
143.831 -111.344 993.628 106 197 240
143.831 -110.844 993.605 104 199 245
143.831 -110.344 993.558 103 200 245
143.831 -109.844 993.462 103 199 247
143.831 -109.344 993.376 102 200 247
143.831 -108.844 993.333 101 200 247
143.831 -108.344 993.309 100 201 247
143.831 -107.844 993.303 103 201 248
143.831 -107.344 993.290 102 200 247
143.831 -106.844 993.240 102 200 247
143.831 -106.344 993.191 103 199 247
143.831 -105.844 993.184 103 199 247
143.831 -105.344 993.176 103 200 245
143.831 -104.844 993.208 104 200 244
143.831 -104.344 993.300 118 196 237
143.831 -103.844 993.338 155 198 229
143.831 -103.344 992.913 174 192 212
143.831 -102.844 992.183 146 154 170
143.831 -102.344 991.588 126 133 150
144.331 -125.344 991.989 221 222 217
144.331 -124.844 992.754 200 200 197
144.331 -124.344 993.064 207 206 202
144.331 -123.844 993.454 226 224 225
144.331 -123.344 993.728 239 238 236
144.331 -122.844 993.885 234 234 232
144.331 -122.344 994.002 232 232 229
144.331 -121.844 994.239 232 232 231
144.331 -121.344 994.321 237 238 240
144.331 -120.844 994.366 239 241 243
144.331 -120.344 994.444 240 243 243
144.331 -119.844 994.419 234 243 249
144.331 -119.344 994.348 138 164 189
144.331 -118.844 994.294 100 153 191
144.331 -118.344 994.212 116 187 227
144.331 -117.844 994.173 131 209 247
144.331 -117.344 994.122 132 212 249
144.331 -116.844 994.059 132 212 249
144.331 -116.344 993.959 131 213 250
144.331 -115.844 993.890 131 213 250
144.331 -115.344 993.840 131 213 250
144.331 -114.844 993.784 130 213 250
144.331 -114.344 993.695 130 213 250
144.331 -113.844 993.590 129 213 250
144.331 -113.344 993.555 128 213 250
144.331 -112.844 993.569 129 213 249
144.331 -112.344 993.584 129 213 247
144.331 -111.844 993.595 128 213 251
144.331 -111.344 993.595 110 199 241
144.331 -110.844 993.588 104 199 245
144.331 -110.344 993.570 105 201 246
144.331 -109.844 993.485 103 199 247
144.331 -109.344 993.389 102 200 247
144.331 -108.844 993.335 101 200 247
144.331 -108.344 993.303 100 201 246
144.331 -107.844 993.290 100 199 246
144.331 -107.344 993.273 102 199 247
144.331 -106.844 993.226 101 199 246
144.331 -106.344 993.164 101 198 246
144.331 -105.844 993.125 102 198 246
144.331 -105.344 993.102 104 198 244
144.331 -104.844 993.114 103 198 243
144.331 -104.344 993.256 111 195 237
144.331 -103.844 993.276 141 193 224
144.331 -103.344 992.826 173 194 215
144.331 -102.844 992.087 151 158 173
144.331 -102.344 991.592 132 140 153
144.831 -125.344 991.550 214 210 207
144.831 -124.844 992.501 194 193 191
144.831 -124.344 992.939 202 202 202
144.831 -123.844 993.404 223 223 223
144.831 -123.344 993.711 234 234 234
144.831 -122.844 993.892 233 233 232
144.831 -122.344 994.068 232 232 231
144.831 -121.844 994.254 228 228 228
144.831 -121.344 994.309 235 235 235
144.831 -120.844 994.384 239 239 240
144.831 -120.344 994.463 240 241 243
144.831 -119.844 994.440 236 244 250
144.831 -119.344 994.354 157 179 200
144.831 -118.844 994.296 106 150 188
144.831 -118.344 994.210 118 183 223
144.831 -117.844 994.169 132 209 247
144.831 -117.344 994.109 132 212 249
144.831 -116.844 994.026 133 213 250
144.831 -116.344 993.948 133 213 250
144.831 -115.844 993.901 133 214 251
144.831 -115.344 993.834 131 213 250
144.831 -114.844 993.762 131 213 250
144.831 -114.344 993.660 131 213 250
144.831 -113.844 993.556 131 213 250
144.831 -113.344 993.530 130 213 250
144.831 -112.844 993.556 129 213 250
144.831 -112.344 993.579 128 212 249
144.831 -111.844 993.586 130 215 252
144.831 -111.344 993.578 110 198 236
144.831 -110.844 993.573 104 199 242
144.831 -110.344 993.570 104 200 245
144.831 -109.844 993.498 102 198 246
144.831 -109.344 993.408 103 200 248
144.831 -108.844 993.346 101 200 247
144.831 -108.344 993.313 100 201 245
144.831 -107.844 993.297 99 200 249
144.831 -107.344 993.254 99 200 249
144.831 -106.844 993.208 100 200 247
144.831 -106.344 993.137 102 199 247
144.831 -105.844 993.089 102 199 245
144.831 -105.344 993.062 104 199 245
144.831 -104.844 993.060 105 198 244
144.831 -104.344 993.161 109 197 238
144.831 -103.844 993.148 129 190 224
144.831 -103.344 992.756 173 194 219
144.831 -102.844 992.103 160 168 182
144.831 -102.344 991.780 136 149 159
145.331 -125.344 991.042 220 216 213
145.331 -124.844 992.339 200 199 197
145.331 -124.344 992.923 203 203 204
145.331 -123.844 993.415 222 222 222
145.331 -123.344 993.730 230 230 229
145.331 -122.844 993.920 228 228 228
145.331 -122.344 994.112 235 235 235
145.331 -121.844 994.252 231 231 230
145.331 -121.344 994.302 237 237 237
145.331 -120.844 994.423 241 241 242
145.331 -120.344 994.473 241 243 242
145.331 -119.844 994.479 236 243 247
145.331 -119.344 994.415 179 199 218
145.331 -118.844 994.298 104 147 182
145.331 -118.344 994.210 115 179 219
145.331 -117.844 994.171 132 207 246
145.331 -117.344 994.101 133 211 249
145.331 -116.844 994.003 133 213 250
145.331 -116.344 993.947 133 213 250
145.331 -115.844 993.902 134 214 251
145.331 -115.344 993.820 131 213 250
145.331 -114.844 993.738 131 213 250
145.331 -114.344 993.638 131 213 250
145.331 -113.844 993.549 131 213 250
145.331 -113.344 993.523 130 212 250
145.331 -112.844 993.541 128 212 249
145.331 -112.344 993.566 128 212 249
145.331 -111.844 993.575 130 213 253
145.331 -111.344 993.570 111 199 239
145.331 -110.844 993.565 104 199 244
145.331 -110.344 993.554 104 200 247
145.331 -109.844 993.492 103 199 247
145.331 -109.344 993.421 102 200 249
145.331 -108.844 993.363 101 200 247
145.331 -108.344 993.325 100 201 245
145.331 -107.844 993.309 100 200 247
145.331 -107.344 993.254 100 200 247
145.331 -106.844 993.198 100 200 246
145.331 -106.344 993.131 100 200 244
145.331 -105.844 993.102 99 199 244
145.331 -105.344 993.077 99 199 244
145.331 -104.844 993.075 105 200 245
145.331 -104.344 993.092 109 197 240
145.331 -103.844 993.065 128 191 226
145.331 -103.344 992.727 177 196 226
145.331 -102.844 992.211 164 171 191
145.331 -102.344 991.778 144 156 172
145.831 -125.344 990.511 218 214 211
145.831 -124.844 992.317 209 208 206
145.831 -124.344 993.019 212 212 212
145.831 -123.844 993.522 230 230 229
145.831 -123.344 993.801 237 237 237
145.831 -122.844 993.990 234 234 234
145.831 -122.344 994.114 234 234 234
145.831 -121.844 994.252 228 228 228
145.831 -121.344 994.295 234 234 234
145.831 -120.844 994.416 239 240 241
145.831 -120.344 994.472 241 244 243
145.831 -119.844 994.490 237 243 246
145.831 -119.344 994.444 195 212 229
145.831 -118.844 994.308 105 146 180
145.831 -118.344 994.217 111 174 215
145.831 -117.844 994.170 129 203 242
145.831 -117.344 994.082 133 211 247
145.831 -116.844 993.994 134 212 248
145.831 -116.344 993.929 133 213 248
145.831 -115.844 993.880 134 214 249
145.831 -115.344 993.811 133 213 248
145.831 -114.844 993.732 132 213 248
145.831 -114.344 993.644 131 213 249
145.831 -113.844 993.572 130 212 249
145.831 -113.344 993.541 130 212 250
145.831 -112.844 993.536 129 211 249
145.831 -112.344 993.556 128 212 249
145.831 -111.844 993.568 129 212 252
145.831 -111.344 993.563 113 198 239
145.831 -110.844 993.545 104 199 245
145.831 -110.344 993.528 103 199 246
145.831 -109.844 993.478 101 199 246
145.831 -109.344 993.417 102 200 247
145.831 -108.844 993.366 102 200 247
145.831 -108.344 993.330 101 199 244
145.831 -107.844 993.312 103 197 246
145.831 -107.344 993.266 104 197 246
145.831 -106.844 993.191 104 197 246
145.831 -106.344 993.144 103 196 245
145.831 -105.844 993.135 104 198 246
145.831 -105.344 993.119 103 199 247
145.831 -104.844 993.114 103 199 247
145.831 -104.344 993.091 106 200 244
145.831 -103.844 993.065 125 194 230
145.831 -103.344 992.780 179 205 235
145.831 -102.844 992.374 163 173 193
145.831 -102.344 991.552 146 158 175
146.331 -125.344 990.142 220 216 213
146.331 -124.844 992.176 215 214 212
146.331 -124.344 993.042 217 217 217
146.331 -123.844 993.680 236 236 236
146.331 -123.344 993.870 239 239 239
146.331 -122.844 994.035 239 239 239
146.331 -122.344 994.109 233 233 233
146.331 -121.844 994.253 232 232 231
146.331 -121.344 994.299 232 232 231
146.331 -120.844 994.374 238 241 241
146.331 -120.344 994.458 240 243 242
146.331 -119.844 994.467 240 243 244
146.331 -119.344 994.430 215 228 244
146.331 -118.844 994.329 110 146 178
146.331 -118.344 994.240 108 170 211
146.331 -117.844 994.168 127 201 241
146.331 -117.344 994.057 133 211 247
146.331 -116.844 993.973 135 213 249
146.331 -116.344 993.898 135 213 249
146.331 -115.844 993.854 135 214 250
146.331 -115.344 993.804 135 215 250
146.331 -114.844 993.721 134 214 249
146.331 -114.344 993.642 134 214 250
146.331 -113.844 993.593 131 213 250
146.331 -113.344 993.549 131 213 249
146.331 -112.844 993.527 130 212 249
146.331 -112.344 993.543 128 211 248
146.331 -111.844 993.558 130 214 251
146.331 -111.344 993.552 113 198 237
146.331 -110.844 993.509 105 197 244
146.331 -110.344 993.483 104 198 245
146.331 -109.844 993.453 103 199 246
146.331 -109.344 993.403 101 199 244
146.331 -108.844 993.353 102 198 243
146.331 -108.344 993.325 103 198 241
146.331 -107.844 993.306 102 199 245
146.331 -107.344 993.272 101 198 245
146.331 -106.844 993.189 100 197 244
146.331 -106.344 993.149 102 197 243
146.331 -105.844 993.154 102 198 243
146.331 -105.344 993.153 103 198 243
146.331 -104.844 993.153 103 198 245
146.331 -104.344 993.144 106 201 245
146.331 -103.844 993.091 125 196 233
146.331 -103.344 992.803 181 212 241
146.331 -102.844 992.342 167 180 199
146.331 -102.344 991.377 146 160 173
146.831 -125.344 989.767 227 223 220
146.831 -124.844 991.799 225 224 222
146.831 -124.344 992.876 221 221 221
146.831 -123.844 993.710 237 237 237
146.831 -123.344 993.931 240 240 240
146.831 -122.844 994.037 240 240 240
146.831 -122.344 994.095 236 236 236
146.831 -121.844 994.245 235 235 235
146.831 -121.344 994.285 233 233 233
146.831 -120.844 994.341 237 240 241
146.831 -120.344 994.417 240 243 243
146.831 -119.844 994.421 240 240 241
146.831 -119.344 994.390 228 238 250
146.831 -118.844 994.323 115 148 180
146.831 -118.344 994.243 108 168 209
146.831 -117.844 994.151 124 197 238
146.831 -117.344 994.028 133 210 246
146.831 -116.844 993.914 134 212 248
146.831 -116.344 993.858 134 212 248
146.831 -115.844 993.823 135 213 249
146.831 -115.344 993.772 135 215 250
146.831 -114.844 993.688 134 214 249
146.831 -114.344 993.626 133 213 247
146.831 -113.844 993.593 134 214 248
146.831 -113.344 993.544 134 214 247
146.831 -112.844 993.521 130 213 246
146.831 -112.344 993.529 128 211 246
146.831 -111.844 993.531 129 212 247
146.831 -111.344 993.513 119 202 239
146.831 -110.844 993.460 106 196 241
146.831 -110.344 993.434 106 198 243
146.831 -109.844 993.409 103 199 243
146.831 -109.344 993.381 103 198 242
146.831 -108.844 993.346 106 198 242
146.831 -108.344 993.332 108 198 240
146.831 -107.844 993.307 103 200 242
146.831 -107.344 993.258 103 199 242
146.831 -106.844 993.175 105 198 240
146.831 -106.344 993.146 109 197 237
146.831 -105.844 993.159 109 197 236
146.831 -105.344 993.165 111 197 235
146.831 -104.844 993.197 116 195 235
146.831 -104.344 993.284 121 197 235
146.831 -103.844 993.171 132 191 223
146.831 -103.344 992.757 168 193 222
146.831 -102.844 992.070 162 179 197
146.831 -102.344 991.219 135 153 171
147.331 -125.344 989.802 222 218 215
147.331 -124.844 991.506 226 225 223
147.331 -124.344 992.608 224 223 223
147.331 -123.844 993.510 234 234 234
147.331 -123.344 993.886 241 241 241
147.331 -122.844 994.013 241 241 241
147.331 -122.344 994.091 238 238 238
147.331 -121.844 994.218 235 235 235
147.331 -121.344 994.273 228 228 228
147.331 -120.844 994.337 235 238 240
147.331 -120.344 994.393 238 240 242
147.331 -119.844 994.403 244 243 242
147.331 -119.344 994.352 233 240 253
147.331 -118.844 994.293 124 155 185
147.331 -118.344 994.204 104 161 205
147.331 -117.844 994.084 121 194 234
147.331 -117.344 993.978 133 209 244
147.331 -116.844 993.855 135 212 246
147.331 -116.344 993.824 134 213 246
147.331 -115.844 993.779 135 214 247
147.331 -115.344 993.714 136 215 248
147.331 -114.844 993.645 134 214 247
147.331 -114.344 993.598 132 212 245
147.331 -113.844 993.567 134 215 245
147.331 -113.344 993.528 134 215 245
147.331 -112.844 993.515 132 213 245
147.331 -112.344 993.516 129 212 244
147.331 -111.844 993.497 131 213 245
147.331 -111.344 993.463 126 210 246
147.331 -110.844 993.409 108 195 240
147.331 -110.344 993.377 107 197 241
147.331 -109.844 993.364 106 199 242
147.331 -109.344 993.363 106 198 241
147.331 -108.844 993.347 108 198 239
147.331 -108.344 993.326 112 197 237
147.331 -107.844 993.268 117 194 235
147.331 -107.344 993.203 121 196 237
147.331 -106.844 993.105 126 196 236
147.331 -106.344 993.108 133 198 236
147.331 -105.844 993.149 139 200 237
147.331 -105.344 993.177 149 205 242
147.331 -104.844 993.289 159 210 243
147.331 -104.344 993.362 167 217 248
147.331 -103.844 993.261 179 219 247
147.331 -103.344 992.599 188 204 233
147.331 -102.844 991.804 159 173 196
147.331 -102.344 991.064 131 153 177
147.831 -125.344 989.905 218 214 210
147.831 -124.844 991.435 219 218 217
147.831 -124.344 992.504 217 218 220
147.831 -123.844 993.409 233 233 233
147.831 -123.344 993.833 241 241 241
147.831 -122.844 993.977 239 239 239
147.831 -122.344 994.070 237 237 237
147.831 -121.844 994.192 237 237 237
147.831 -121.344 994.261 231 231 230
147.831 -120.844 994.329 235 235 239
147.831 -120.344 994.373 240 239 243
147.831 -119.844 994.378 243 243 241
147.831 -119.344 994.316 236 244 249
147.831 -118.844 994.246 139 162 188
147.831 -118.344 994.136 100 151 192
147.831 -117.844 994.020 119 190 235
147.831 -117.344 993.911 136 210 245
147.831 -116.844 993.827 135 209 244
147.831 -116.344 993.791 136 212 244
147.831 -115.844 993.742 136 212 245
147.831 -115.344 993.668 138 213 246
147.831 -114.844 993.587 135 211 247
147.831 -114.344 993.535 135 212 247
147.831 -113.844 993.521 138 213 247
147.831 -113.344 993.505 140 212 244
147.831 -112.844 993.492 139 209 239
147.831 -112.344 993.489 144 210 239
147.831 -111.844 993.459 145 210 236
147.831 -111.344 993.412 153 218 247
147.831 -110.844 993.353 125 195 231
147.831 -110.344 993.305 132 199 232
147.831 -109.844 993.279 140 203 236
147.831 -109.344 993.295 148 206 238
147.831 -108.844 993.288 157 210 240
147.831 -108.344 993.236 167 217 245
147.831 -107.844 993.158 181 218 244
147.831 -107.344 993.105 186 221 246
147.831 -106.844 992.978 190 222 248
147.831 -106.344 993.022 190 220 248
147.831 -105.844 993.093 189 218 246
147.831 -105.344 993.176 186 214 242
147.831 -104.844 993.310 180 208 236
147.831 -104.344 993.301 175 204 232
147.831 -103.844 993.122 169 197 227
147.831 -103.344 992.213 159 185 218
147.831 -102.844 991.526 133 160 197
147.831 -102.344 990.988 125 155 194
148.331 -125.344 989.276 216 213 208
148.331 -124.844 991.308 214 213 210
148.331 -124.344 992.418 205 206 208
148.331 -123.844 993.348 232 232 231
148.331 -123.344 993.781 241 241 241
148.331 -122.844 993.902 237 237 237
148.331 -122.344 994.049 234 234 234
148.331 -121.844 994.150 235 235 235
148.331 -121.344 994.217 237 237 237
148.331 -120.844 994.289 238 237 241
148.331 -120.344 994.333 241 240 243
148.331 -119.844 994.339 239 243 241
148.331 -119.344 994.296 236 244 248
148.331 -118.844 994.224 155 176 197
148.331 -118.344 994.113 105 147 181
148.331 -117.844 993.987 126 184 223
148.331 -117.344 993.881 142 211 245
148.331 -116.844 993.802 142 211 243
148.331 -116.344 993.722 145 211 240
148.331 -115.844 993.683 148 213 240
148.331 -115.344 993.596 151 212 239
148.331 -114.844 993.515 152 212 238
148.331 -114.344 993.493 161 208 234
148.331 -113.844 993.488 169 213 238
148.331 -113.344 993.483 176 218 242
148.331 -112.844 993.475 185 227 248
148.331 -112.344 993.459 195 233 253
148.331 -111.844 993.416 199 237 255
148.331 -111.344 993.344 192 231 250
148.331 -110.844 993.247 171 214 239
148.331 -110.344 993.167 181 223 248
148.331 -109.844 993.104 188 225 251
148.331 -109.344 993.123 189 223 248
148.331 -108.844 993.091 189 220 245
148.331 -108.344 993.031 184 213 237
148.331 -107.844 992.973 176 208 236
148.331 -107.344 992.927 169 203 231
148.331 -106.844 992.876 162 194 224
148.331 -106.344 992.909 157 188 219
148.331 -105.844 992.976 151 181 214
148.331 -105.344 993.048 148 179 212
148.331 -104.844 993.137 141 175 211
148.331 -104.344 993.032 138 173 212
148.331 -103.844 992.681 137 172 211
148.331 -103.344 991.787 123 160 202
148.331 -102.844 991.257 118 156 200
148.331 -102.344 990.948 124 162 209
148.831 -125.344 987.127 216 211 207
148.831 -124.844 990.882 215 214 211
148.831 -124.344 992.177 210 211 211
148.831 -123.844 993.149 226 226 226
148.831 -123.344 993.728 240 240 240
148.831 -122.844 993.861 239 239 239
148.831 -122.344 993.960 233 233 233
148.831 -121.844 994.097 236 236 236
148.831 -121.344 994.180 236 236 236
148.831 -120.844 994.253 236 235 236
148.831 -120.344 994.290 240 241 240
148.831 -119.844 994.313 237 243 242
148.831 -119.344 994.283 235 244 249
148.831 -118.844 994.213 179 193 207
148.831 -118.344 994.108 122 151 175
148.831 -117.844 993.971 152 192 221
148.831 -117.344 993.855 172 219 242
148.831 -116.844 993.766 180 224 246
148.831 -116.344 993.662 188 230 247
148.831 -115.844 993.624 199 236 251
148.831 -115.344 993.541 206 240 253
148.831 -114.844 993.473 212 243 255
148.831 -114.344 993.468 217 238 255
148.831 -113.844 993.457 215 235 252
148.831 -113.344 993.440 210 232 250
148.831 -112.844 993.431 203 225 245
148.831 -112.344 993.403 197 219 241
148.831 -111.844 993.329 188 211 234
148.831 -111.344 993.205 172 198 224
148.831 -110.844 993.084 153 189 222
148.831 -110.344 993.021 155 191 225
148.831 -109.844 992.958 152 186 220
148.831 -109.344 992.938 147 180 216
148.831 -108.844 992.914 144 176 212
148.831 -108.344 992.885 143 174 211
148.831 -107.844 992.847 137 173 212
148.831 -107.344 992.789 133 172 210
148.831 -106.844 992.760 131 169 210
148.831 -106.344 992.758 128 168 209
149.331 -125.344 986.181 214 209 205
149.331 -124.844 990.669 213 211 208
149.331 -124.344 992.065 214 214 214
149.331 -123.844 993.045 224 224 224
149.331 -123.344 993.633 240 240 240
149.331 -122.844 993.841 240 240 240
149.331 -122.344 993.885 237 237 237
149.331 -121.844 994.041 238 238 238
149.331 -121.344 994.136 236 236 236
149.331 -120.844 994.217 233 233 232
149.331 -120.344 994.259 239 239 239
149.331 -119.844 994.278 238 243 244
149.331 -119.344 994.256 236 244 247
149.331 -118.844 994.192 196 207 217
149.331 -118.344 994.101 150 168 188
149.331 -117.844 993.966 179 205 232
149.331 -117.344 993.822 193 219 242
149.331 -116.844 993.707 191 217 239
149.331 -116.344 993.640 185 210 232
149.331 -115.844 993.605 175 200 223
149.331 -115.344 993.533 168 189 213
149.331 -114.844 993.456 159 180 208
149.331 -114.344 993.438 148 174 208
149.331 -113.844 993.411 144 173 207
149.331 -113.344 993.371 140 170 207
149.331 -112.844 993.335 137 170 208
149.331 -112.344 993.272 133 168 206
149.331 -111.844 993.132 131 167 205
149.331 -111.344 993.007 128 168 210
149.331 -110.844 992.932 121 168 214
149.831 -125.344 986.050 213 208 202
149.831 -124.844 990.505 217 215 211
149.831 -124.344 992.075 216 216 216
149.831 -123.844 992.952 221 221 221
149.831 -123.344 993.533 237 237 237
149.831 -122.844 993.781 243 243 242
149.831 -122.344 993.833 239 239 239
149.831 -121.844 993.966 236 236 236
149.831 -121.344 994.062 237 237 237
149.831 -120.844 994.140 232 232 229
149.831 -120.344 994.221 238 238 238
149.831 -119.844 994.230 238 243 246
149.831 -119.344 994.207 237 241 246
149.831 -118.844 994.172 211 219 227
149.831 -118.344 994.083 131 149 172
149.831 -117.844 993.961 128 155 192
149.831 -117.344 993.813 124 159 200
149.831 -116.844 993.702 126 162 204
149.831 -116.344 993.649 130 168 210
150.331 -125.344 986.026 215 210 205
150.331 -124.844 990.457 218 216 211
150.331 -124.344 992.067 215 215 215
150.331 -123.844 992.850 224 224 224
150.331 -123.344 993.413 236 236 236
150.331 -122.844 993.652 243 243 242
150.331 -122.344 993.791 237 237 237
150.331 -121.844 993.932 234 234 234
150.331 -121.344 994.007 237 237 237
150.331 -120.844 994.079 230 230 228
150.331 -120.344 994.149 236 236 236
150.331 -119.844 994.166 240 241 245
150.331 -119.344 994.182 241 243 246
150.331 -118.844 994.150 223 232 239
150.331 -118.344 994.063 134 155 184
150.331 -117.844 993.962 123 155 205
150.331 -117.344 993.819 117 162 214
150.831 -125.344 986.037 219 212 206
150.831 -124.844 990.555 220 216 212
150.831 -124.344 992.050 208 207 205
150.831 -123.844 992.692 221 221 221
150.831 -123.344 993.264 236 236 236
150.831 -122.844 993.584 240 240 240
150.831 -122.344 993.782 234 234 234
150.831 -121.844 993.914 233 233 233
150.831 -121.344 993.972 234 234 234
150.831 -120.844 994.036 227 227 226
150.831 -120.344 994.086 233 233 233
150.831 -119.844 994.126 238 237 241
150.831 -119.344 994.163 240 240 243
150.831 -118.844 994.147 228 236 244
150.831 -118.344 994.084 144 167 195
150.831 -117.844 993.989 119 153 202
150.831 -117.344 993.829 118 163 215
151.331 -125.344 986.015 218 211 205
151.331 -124.844 990.862 216 211 208
151.331 -124.344 991.955 213 211 209
151.331 -123.844 992.777 217 217 217
151.331 -123.344 993.335 234 234 234
151.331 -122.844 993.646 243 243 242
151.331 -122.344 993.793 241 241 241
151.331 -121.844 993.872 232 232 231
151.331 -121.344 993.950 230 230 229
151.331 -120.844 994.025 224 224 224
151.331 -120.344 994.068 230 230 229
151.331 -119.844 994.111 233 233 235
151.331 -119.344 994.155 236 236 238
151.331 -118.844 994.148 233 240 247
151.331 -118.344 994.101 159 179 205
151.331 -117.844 994.018 119 152 194
151.331 -117.344 993.855 119 162 212
151.831 -125.344 985.976 219 212 205
151.831 -124.844 990.329 217 212 209
151.831 -124.344 991.630 209 208 206
151.831 -123.844 992.591 198 198 198
151.831 -123.344 993.348 224 224 224
151.831 -122.844 993.636 233 233 232
151.831 -122.344 993.795 226 226 226
151.831 -121.844 993.854 225 225 225
151.831 -121.344 993.963 230 230 229
151.831 -120.844 994.028 228 228 227
151.831 -120.344 994.059 233 233 232
151.831 -119.844 994.102 235 235 237
151.831 -119.344 994.150 238 238 240
151.831 -118.844 994.153 233 240 246
151.831 -118.344 994.121 173 191 214
151.831 -117.844 994.024 121 150 190
151.831 -117.344 993.868 121 160 209
152.331 -125.344 986.426 220 213 205
152.331 -124.844 988.405 218 214 210
152.331 -124.344 991.253 212 211 208
152.331 -123.844 992.574 204 204 205
152.331 -123.344 993.273 210 210 210
152.331 -122.844 993.498 233 233 233
152.331 -122.344 993.766 234 234 234
152.331 -121.844 993.841 238 238 238
152.331 -121.344 993.960 240 240 240
152.331 -120.844 994.032 235 235 234
152.331 -120.344 994.060 238 238 238
152.331 -119.844 994.099 240 241 243
152.331 -119.344 994.144 243 243 242
152.331 -118.844 994.150 235 240 244
152.331 -118.344 994.111 191 206 225
152.331 -117.844 994.009 123 149 185
152.331 -117.344 993.851 121 160 209
152.831 -125.344 986.638 213 206 199
152.831 -124.844 987.803 214 210 206
152.831 -124.344 990.720 215 214 212
152.831 -123.844 992.478 206 206 206
152.831 -123.344 993.039 214 214 214
152.831 -122.844 993.420 233 233 233
152.831 -122.344 993.688 240 240 240
152.831 -121.844 993.828 241 241 241
152.831 -121.344 993.948 241 241 241
152.831 -120.844 994.005 237 238 235
152.831 -120.344 994.055 239 241 239
152.831 -119.844 994.097 243 244 245
152.831 -119.344 994.137 243 244 243
152.831 -118.844 994.135 238 243 244
152.831 -118.344 994.068 207 220 236
152.831 -117.844 993.955 128 150 183
152.831 -117.344 993.764 121 160 209
153.331 -125.344 987.063 212 205 198
153.331 -124.844 987.849 212 207 205
153.331 -124.344 990.063 216 214 212
153.331 -123.844 992.426 209 209 209
153.331 -123.344 992.938 221 221 221
153.331 -122.844 993.399 235 235 235
153.331 -122.344 993.652 241 241 241
153.331 -121.844 993.823 243 243 242
153.331 -121.344 993.920 243 243 242
153.331 -120.844 993.987 238 238 237
153.331 -120.344 994.048 239 241 240
153.331 -119.844 994.086 240 241 243
153.331 -119.344 994.118 240 243 241
153.331 -118.844 994.118 240 244 244
153.331 -118.344 994.039 220 231 242
153.331 -117.844 993.898 140 158 188
153.331 -117.344 993.630 124 158 205
153.831 -125.344 987.498 210 204 198
153.831 -124.844 988.106 210 206 202
153.831 -124.344 989.805 215 214 212
153.831 -123.844 992.341 210 210 210
153.831 -123.344 993.032 226 226 226
153.831 -122.844 993.405 235 235 235
153.831 -122.344 993.672 241 241 241
153.831 -121.844 993.806 241 241 241
153.831 -121.344 993.874 243 243 242
153.831 -120.844 993.938 237 237 236
153.831 -120.344 994.020 239 241 240
153.831 -119.844 994.063 240 243 244
153.831 -119.344 994.100 241 244 242
153.831 -118.844 994.087 241 244 245
153.831 -118.344 993.975 225 233 243
153.831 -117.844 993.767 147 162 188
153.831 -117.344 993.393 116 144 183
154.331 -125.344 988.305 201 196 192
154.331 -124.844 988.472 205 201 198
154.331 -124.344 989.945 213 209 208
154.331 -123.844 992.434 208 208 208
154.331 -123.344 993.068 227 227 227
154.331 -122.844 993.428 235 235 235
154.331 -122.344 993.607 240 240 240
154.331 -121.844 993.744 241 241 241
154.331 -121.344 993.828 241 241 241
154.331 -120.844 993.880 240 240 240
154.331 -120.344 993.957 240 240 240
154.331 -119.844 994.020 241 241 241
154.331 -119.344 994.054 243 243 244
154.331 -118.844 994.061 239 241 246
154.331 -118.344 993.911 226 232 237
154.331 -117.844 993.634 152 159 170
154.331 -117.344 993.190 97 109 133
154.831 -125.344 989.147 196 193 189
154.831 -124.844 989.528 195 192 190
154.831 -124.344 990.553 202 201 200
154.831 -123.844 992.436 208 208 208
154.831 -123.344 993.018 227 227 227
154.831 -122.844 993.356 234 234 234
154.831 -122.344 993.517 239 239 239
154.831 -121.844 993.719 239 239 239
154.831 -121.344 993.794 240 240 240
154.831 -120.844 993.831 240 240 240
154.831 -120.344 993.880 239 239 239
154.831 -119.844 993.946 243 243 242
154.831 -119.344 993.984 243 243 243
154.831 -118.844 993.969 240 244 245
154.831 -118.344 993.712 231 235 239
154.831 -117.844 993.369 172 179 185
154.831 -117.344 993.061 111 122 137
155.331 -125.344 989.943 183 180 178
155.331 -124.844 990.524 189 187 188
155.331 -124.344 991.284 192 191 191
155.331 -123.844 992.472 207 207 207
155.331 -123.344 992.876 228 228 228
155.331 -122.844 993.234 232 232 231
155.331 -122.344 993.444 237 237 237
155.331 -121.844 993.608 238 238 238
155.331 -121.344 993.691 237 237 237
155.331 -120.844 993.772 236 236 237
155.331 -120.344 993.796 233 234 236
155.331 -119.844 993.838 233 233 233
155.331 -119.344 993.885 232 232 231
155.331 -118.844 993.808 224 225 228
155.331 -118.344 993.504 208 210 215
155.331 -117.844 993.205 172 177 183
155.331 -117.344 992.888 138 145 155
155.831 -125.344 991.016 177 175 176
155.831 -124.844 991.257 186 186 187
155.831 -124.344 992.138 187 187 189
155.831 -123.844 992.533 205 206 208
155.831 -123.344 992.841 221 222 224
155.831 -122.844 993.050 212 213 215
155.831 -122.344 993.290 215 216 218
155.831 -121.844 993.361 211 212 214
155.831 -121.344 993.460 206 207 209
155.831 -120.844 993.568 198 199 202
