53.478 51.731 980.259 232 221 209
53.978 43.231 979.563 236 227 212
53.978 43.731 979.554 235 226 211
53.978 44.231 979.547 235 226 211
53.978 44.731 979.554 235 226 211
53.978 45.231 979.617 236 227 212
53.978 45.731 979.768 235 226 209
53.978 46.231 979.916 233 221 205
53.978 46.731 980.031 233 221 205
53.978 47.231 980.143 230 217 201
53.978 47.731 980.241 228 215 199
53.978 48.231 980.271 220 207 191
53.978 48.731 980.252 213 199 183
53.978 49.231 980.239 223 209 193
53.978 49.731 980.235 224 210 196
53.978 50.231 980.232 218 206 192
53.978 50.731 980.224 228 217 204
53.978 51.231 980.245 231 220 207
53.978 51.731 980.275 230 219 206
54.478 43.231 979.585 236 227 212
54.478 43.731 979.559 235 226 211
54.478 44.231 979.547 235 226 211
54.478 44.731 979.559 235 226 211
54.478 45.231 979.594 236 227 212
54.478 45.731 979.676 237 228 211
54.478 46.231 979.788 235 226 209
54.478 46.731 979.911 233 223 206
54.478 47.231 980.025 233 220 205
54.478 47.731 980.153 230 217 201
54.478 48.231 980.247 226 214 198
54.478 48.731 980.265 220 206 190
54.478 49.231 980.260 219 203 188
54.478 49.731 980.259 219 206 190
54.478 50.231 980.264 223 209 196
54.478 50.731 980.270 230 217 204
54.478 51.231 980.282 228 219 205
54.478 51.731 980.301 227 218 204
54.978 43.231 979.622 235 226 211
54.978 43.731 979.590 235 226 211
54.978 44.231 979.571 235 226 211
54.978 44.731 979.572 236 227 212
54.978 45.231 979.600 236 227 212
54.978 45.731 979.645 235 228 212
54.978 46.231 979.709 237 228 213
54.978 46.731 979.792 235 226 211
54.978 47.231 979.908 233 221 207
54.978 47.731 980.040 233 220 206
54.978 48.231 980.175 231 218 205
54.978 48.731 980.245 230 217 200
54.978 49.231 980.257 221 208 191
54.978 49.731 980.269 215 202 185
54.978 50.231 980.285 228 215 199
54.978 50.731 980.303 230 217 204
54.978 51.231 980.309 222 210 198
54.978 51.731 980.318 223 211 199
55.478 43.231 979.669 235 226 211
55.478 43.731 979.654 235 226 211
55.478 44.231 979.621 235 226 211
55.478 44.731 979.587 235 226 211
55.478 45.231 979.591 236 227 212
55.478 45.731 979.616 235 226 211
55.478 46.231 979.666 236 227 212
55.478 46.731 979.706 235 226 211
55.478 47.231 979.828 237 225 211
55.478 47.731 979.971 235 223 209
55.478 48.231 980.100 233 220 206
55.478 48.731 980.199 232 219 204
55.478 49.231 980.236 227 214 197
55.478 49.731 980.267 216 203 186
55.478 50.231 980.297 225 212 196
55.478 50.731 980.316 227 215 201
55.478 51.231 980.322 213 201 189
55.478 51.731 980.331 209 197 185
55.978 43.231 979.701 234 225 210
55.978 43.731 979.698 235 226 211
55.978 44.231 979.669 235 226 211
55.978 44.731 979.630 234 225 210
55.978 45.231 979.613 234 225 210
55.978 45.731 979.610 234 225 210
55.978 46.231 979.637 234 225 210
55.978 46.731 979.669 236 227 212
55.978 47.231 979.758 236 227 212
55.978 47.731 979.894 236 225 210
55.978 48.231 980.005 234 222 208
55.978 48.731 980.110 233 220 205
55.978 49.231 980.198 232 218 201
55.978 49.731 980.258 223 210 194
55.978 50.231 980.300 220 207 191
55.978 50.731 980.319 220 208 193
55.978 51.231 980.335 219 207 193
55.978 51.731 980.346 217 205 191
56.478 43.231 979.712 233 224 209
56.478 43.731 979.710 234 225 210
56.478 44.231 979.702 234 225 210
56.478 44.731 979.683 234 225 210
56.478 45.231 979.659 234 225 210
56.478 45.731 979.640 236 225 210
56.478 46.231 979.646 235 224 210
56.478 46.731 979.672 235 226 211
56.478 47.231 979.724 237 228 213
56.478 47.731 979.824 235 226 211
56.478 48.231 979.910 234 224 210
56.478 48.731 979.999 235 223 208
56.478 49.231 980.137 233 221 205
56.478 49.731 980.241 230 216 200
56.478 50.231 980.291 226 214 198
56.478 50.731 980.324 216 203 188
56.478 51.231 980.347 218 205 191
56.478 51.731 980.357 226 213 200
56.978 43.231 979.710 233 224 209
56.978 43.731 979.714 235 226 211
56.978 44.231 979.730 234 225 210
56.978 44.731 979.724 234 225 210
56.978 45.231 979.703 234 225 210
56.978 45.731 979.688 236 224 210
56.978 46.231 979.689 235 223 209
56.978 46.731 979.710 235 224 210
56.978 47.231 979.740 235 226 211
56.978 47.731 979.791 234 225 210
56.978 48.231 979.851 234 225 210
56.978 48.731 979.918 235 225 210
56.978 49.231 980.067 236 224 208
56.978 49.731 980.197 233 221 205
56.978 50.231 980.272 230 217 201
56.978 50.731 980.329 224 211 195
56.978 51.231 980.354 206 193 177
56.978 51.731 980.375 227 214 198
57.478 43.231 979.699 233 224 209
57.478 43.731 979.713 235 226 211
57.478 44.231 979.742 234 225 210
57.478 44.731 979.746 234 225 210
57.478 45.231 979.737 234 225 210
57.478 45.731 979.735 236 224 210
57.478 46.231 979.741 236 224 210
57.478 46.731 979.754 237 225 211
57.478 47.231 979.768 234 225 210
57.478 47.731 979.788 234 225 210
57.478 48.231 979.829 234 225 210
57.478 48.731 979.888 236 226 211
57.478 49.231 980.012 238 226 210
57.478 49.731 980.126 237 225 209
57.478 50.231 980.237 233 220 205
57.478 50.731 980.324 230 216 200
57.478 51.231 980.363 210 197 181
57.478 51.731 980.393 219 207 191
57.978 43.231 979.692 233 224 209
57.978 43.731 979.710 233 224 209
57.978 44.231 979.740 234 225 210
57.978 44.731 979.754 234 225 210
57.978 45.231 979.761 234 225 210
57.978 45.731 979.763 234 222 208
57.978 46.231 979.766 235 224 209
57.978 46.731 979.776 235 224 210
57.978 47.231 979.791 234 225 210
57.978 47.731 979.806 234 225 210
57.978 48.231 979.835 234 225 210
57.978 48.731 979.882 235 226 211
57.978 49.231 979.966 237 226 210
57.978 49.731 980.062 236 224 208
57.978 50.231 980.191 233 220 205
57.978 50.731 980.300 233 220 205
57.978 51.231 980.366 219 206 190
57.978 51.731 980.403 211 198 182
58.478 43.231 979.690 233 224 209
58.478 43.731 979.708 233 224 209
58.478 44.231 979.736 234 225 210
58.478 44.731 979.757 234 225 210
58.478 45.231 979.773 234 225 210
58.478 45.731 979.777 234 225 210
58.478 46.231 979.779 234 225 210
58.478 46.731 979.785 234 225 210
58.478 47.231 979.801 234 225 210
58.478 47.731 979.820 235 226 211
58.478 48.231 979.847 235 226 211
58.478 48.731 979.882 235 226 211
58.478 49.231 979.935 234 225 210
58.478 49.731 980.026 236 224 210
58.478 50.231 980.152 234 222 208
58.478 50.731 980.258 233 220 205
58.478 51.231 980.353 227 214 198
58.478 51.731 980.411 210 197 181
58.978 43.231 979.691 233 224 209
58.978 43.731 979.709 233 224 209
58.978 44.231 979.728 234 225 210
58.978 44.731 979.750 234 225 210
58.978 45.231 979.773 234 225 210
58.978 45.731 979.785 234 225 210
58.978 46.231 979.789 234 225 210
58.978 46.731 979.792 234 225 210
58.978 47.231 979.806 235 226 211
58.978 47.731 979.823 235 226 211
58.978 48.231 979.849 235 226 211
58.978 48.731 979.883 234 225 210
58.978 49.231 979.923 234 225 210
58.978 49.731 980.002 236 227 212
58.978 50.231 980.110 238 226 212
58.978 50.731 980.205 234 222 207
58.978 51.231 980.326 233 220 205
58.978 51.731 980.414 223 211 195
59.478 43.231 979.690 233 224 209
59.478 43.731 979.711 234 225 210
59.478 44.231 979.722 234 225 210
59.478 44.731 979.739 234 225 210
59.478 45.231 979.765 234 225 210
59.478 45.731 979.788 234 225 210
59.478 46.231 979.799 234 225 210
59.478 46.731 979.805 235 226 211
59.478 47.231 979.812 235 226 211
59.478 47.731 979.822 235 226 211
59.478 48.231 979.846 235 226 211
59.478 48.731 979.882 234 225 210
59.478 49.231 979.918 235 226 211
59.478 49.731 979.983 236 227 212
59.478 50.231 980.078 235 226 211
59.478 50.731 980.172 236 224 209
59.478 51.231 980.304 233 221 205
59.478 51.731 980.411 232 219 204
59.978 43.231 979.690 236 224 210
59.978 43.731 979.707 236 224 210
59.978 44.231 979.713 236 224 210
59.978 44.731 979.726 236 224 210
59.978 45.231 979.759 236 224 210
59.978 45.731 979.790 233 224 209
59.978 46.231 979.809 234 225 210
59.978 46.731 979.822 234 225 210
59.978 47.231 979.827 235 226 211
59.978 47.731 979.835 235 226 211
59.978 48.231 979.857 235 226 211
59.978 48.731 979.889 234 226 211
59.978 49.231 979.923 234 226 211
59.978 49.731 979.968 235 226 211
59.978 50.231 980.057 235 226 211
59.978 50.731 980.154 235 225 210
59.978 51.231 980.274 235 223 207
59.978 51.731 980.392 233 221 205
60.478 43.231 979.703 236 224 210
60.478 43.731 979.703 236 224 210
60.478 44.231 979.710 236 224 210
60.478 44.731 979.726 235 223 209
60.478 45.231 979.761 235 223 209
60.478 45.731 979.789 233 224 209
60.478 46.231 979.813 234 225 210
60.478 46.731 979.837 234 225 210
60.478 47.231 979.848 234 225 210
60.478 47.731 979.854 234 225 210
60.478 48.231 979.871 235 226 211
60.478 48.731 979.896 234 226 211
60.478 49.231 979.925 234 227 211
60.478 49.731 979.962 235 227 211
60.478 50.231 980.050 236 227 212
60.478 50.731 980.145 236 227 211
60.478 51.231 980.244 236 226 209
60.478 51.731 980.357 235 224 208
60.978 43.231 979.719 236 224 210
60.978 43.731 979.712 236 224 210
60.978 44.231 979.729 235 223 209
60.978 44.731 979.748 235 223 209
60.978 45.231 979.771 235 223 209
60.978 45.731 979.791 233 224 209
60.978 46.231 979.817 234 225 210
60.978 46.731 979.844 233 224 209
60.978 47.231 979.862 234 225 210
60.978 47.731 979.866 234 225 210
60.978 48.231 979.878 235 226 211
60.978 48.731 979.895 234 226 211
60.978 49.231 979.921 235 228 212
60.978 49.731 979.965 235 228 212
60.978 50.231 980.044 236 227 212
60.978 50.731 980.136 235 226 210
60.978 51.231 980.224 235 226 209
60.978 51.731 980.317 235 225 209
61.478 43.231 979.723 236 224 208
61.478 43.731 979.727 234 222 206
61.478 44.231 979.746 234 222 206
61.478 44.731 979.766 233 221 205
61.478 45.231 979.777 233 221 205
61.478 45.731 979.792 235 223 209
61.478 46.231 979.812 235 223 209
61.478 46.731 979.839 236 224 210
61.478 47.231 979.866 235 223 209
61.478 47.731 979.875 236 224 210
61.478 48.231 979.880 236 224 210
61.478 48.731 979.892 235 224 210
61.478 49.231 979.914 235 226 211
61.478 49.731 979.965 236 227 212
61.478 50.231 980.041 236 227 212
61.478 50.731 980.121 236 227 212
61.478 51.231 980.198 236 227 212
61.478 51.731 980.287 236 227 212
61.978 43.231 979.728 233 221 205
61.978 43.731 979.738 233 221 205
61.978 44.231 979.754 233 221 205
61.978 44.731 979.771 233 221 205
61.978 45.231 979.777 235 223 207
61.978 45.731 979.790 235 223 209
61.978 46.231 979.799 236 224 210
61.978 46.731 979.826 236 224 210
61.978 47.231 979.855 235 223 209
61.978 47.731 979.867 235 223 209
61.978 48.231 979.878 235 223 209
61.978 48.731 979.894 234 223 209
61.978 49.231 979.913 234 225 210
61.978 49.731 979.958 234 225 210
61.978 50.231 980.036 235 226 211
61.978 50.731 980.106 235 226 211
61.978 51.231 980.177 235 226 211
61.978 51.731 980.272 235 226 211
62.478 43.231 979.745 233 221 205
62.478 43.731 979.755 233 221 205
62.478 44.231 979.767 233 221 205
62.478 44.731 979.776 233 221 205
62.478 45.231 979.781 235 223 207
62.478 45.731 979.786 236 224 210
62.478 46.231 979.790 236 224 210
62.478 46.731 979.813 236 224 210
62.478 47.231 979.839 235 223 209
62.478 47.731 979.849 235 223 209
62.478 48.231 979.865 234 222 208
62.478 48.731 979.894 233 222 208
62.478 49.231 979.919 233 224 209
62.478 49.731 979.956 233 224 209
62.478 50.231 980.023 234 225 210
62.478 50.731 980.087 235 226 211
62.478 51.231 980.151 235 226 211
62.478 51.731 980.259 235 226 211
62.978 43.231 979.767 233 221 205
62.978 43.731 979.773 231 218 202
62.978 44.231 979.780 232 219 204
62.978 44.731 979.788 234 222 206
62.978 45.231 979.792 235 223 207
62.978 45.731 979.788 234 222 206
62.978 46.231 979.791 234 222 206
62.978 46.731 979.808 236 224 208
62.978 47.231 979.825 235 223 207
62.978 47.731 979.830 234 222 206
62.978 48.231 979.845 235 223 207
62.978 48.731 979.879 233 221 205
62.978 49.231 979.917 233 220 206
62.978 49.731 979.962 234 222 208
62.978 50.231 980.008 234 222 208
62.978 50.731 980.059 235 223 209
62.978 51.231 980.134 236 224 210
62.978 51.731 980.248 237 225 211
63.478 43.231 979.777 234 222 206
63.478 43.731 979.782 231 218 202
63.478 44.231 979.787 232 219 204
63.478 44.731 979.793 234 222 206
63.478 45.231 979.797 234 222 206
63.478 45.731 979.790 234 222 206
63.478 46.231 979.794 234 222 206
63.478 46.731 979.806 235 223 207
63.478 47.231 979.810 235 223 207
63.478 47.731 979.811 235 223 207
63.478 48.231 979.826 233 221 205
63.478 48.731 979.861 231 218 202
63.478 49.231 979.909 231 218 205
63.478 49.731 979.965 233 221 207
63.478 50.231 980.001 234 222 208
63.478 50.731 980.046 234 222 208
63.478 51.231 980.149 235 223 209
63.478 51.731 980.252 235 224 210
63.978 43.231 979.773 235 223 207
63.978 43.731 979.783 234 222 206
63.978 44.231 979.788 234 222 206
63.978 44.731 979.787 234 222 206
63.978 45.231 979.791 235 223 207
63.978 45.731 979.786 234 222 206
63.978 46.231 979.791 234 222 206
63.978 46.731 979.798 234 222 206
63.978 47.231 979.798 233 221 205
63.978 47.731 979.795 234 222 206
63.978 48.231 979.815 233 220 205
63.978 48.731 979.857 232 219 205
63.978 49.231 979.911 233 221 207
63.978 49.731 979.966 235 223 209
63.978 50.231 980.006 234 222 208
63.978 50.731 980.045 234 222 208
63.978 51.231 980.160 235 223 209
63.978 51.731 980.263 234 223 209
64.478 43.231 979.762 234 222 206
64.478 43.731 979.770 235 223 207
64.478 44.231 979.776 234 222 206
64.478 44.731 979.779 234 222 206
64.478 45.231 979.786 235 223 207
64.478 45.731 979.790 234 222 206
64.478 46.231 979.793 234 222 206
64.478 46.731 979.796 233 220 205
64.478 47.231 979.792 232 219 204
64.478 47.731 979.794 233 220 205
64.478 48.231 979.823 233 221 205
64.478 48.731 979.870 234 222 206
64.478 49.231 979.925 233 221 206
64.478 49.731 979.971 233 220 205
64.478 50.231 980.010 233 220 206
64.478 50.731 980.046 233 222 207
64.478 51.231 980.157 233 223 209
64.478 51.731 980.273 234 224 211
64.978 43.231 979.750 234 222 206
64.978 43.731 979.749 233 221 205
64.978 44.231 979.754 233 220 205
64.978 44.731 979.770 233 221 205
64.978 45.231 979.789 233 221 205
64.978 45.731 979.804 233 221 205
64.978 46.231 979.808 234 222 206
64.978 46.731 979.809 233 221 205
64.978 47.231 979.804 233 221 205
64.978 47.731 979.812 233 221 205
64.978 48.231 979.839 234 222 206
64.978 48.731 979.880 234 222 206
64.978 49.231 979.936 233 220 205
64.978 49.731 979.976 232 219 204
64.978 50.231 980.011 233 221 207
64.978 50.731 980.065 233 223 208
64.978 51.231 980.171 234 225 210
64.978 51.731 980.281 233 224 211
65.478 43.231 979.741 234 222 206
65.478 43.731 979.737 232 219 204
65.478 44.231 979.739 230 217 201
65.478 44.731 979.757 233 220 205
65.478 45.231 979.787 235 223 207
65.478 45.731 979.818 233 221 205
65.478 46.231 979.828 234 222 206
65.478 46.731 979.826 235 223 207
65.478 47.231 979.814 235 223 207
65.478 47.731 979.811 235 223 207
65.478 48.231 979.827 234 222 206
65.478 48.731 979.864 233 221 205
65.478 49.231 979.917 233 220 205
65.478 49.731 979.967 233 221 205
65.478 50.231 980.011 234 222 208
65.478 50.731 980.083 233 224 209
65.478 51.231 980.194 234 225 210
65.478 51.731 980.289 233 225 211
65.978 43.231 979.737 233 221 205
65.978 43.731 979.733 233 220 205
65.978 44.231 979.731 232 219 204
65.978 44.731 979.746 233 220 205
65.978 45.231 979.774 233 221 205
65.978 45.731 979.814 234 222 206
65.978 46.231 979.829 235 223 207
65.978 46.731 979.826 236 224 208
65.978 47.231 979.809 235 223 207
65.978 47.731 979.797 235 223 207
65.978 48.231 979.807 233 220 205
65.978 48.731 979.838 233 220 205
65.978 49.231 979.878 233 221 205
65.978 49.731 979.931 236 224 208
65.978 50.231 979.993 236 224 210
65.978 50.731 980.082 234 225 210
65.978 51.231 980.200 234 225 210
65.978 51.731 980.292 233 224 210
66.478 43.231 979.733 233 220 205
66.478 43.731 979.728 233 220 205
66.478 44.231 979.726 233 220 205
66.478 44.731 979.742 235 223 207
66.478 45.231 979.764 234 222 206
66.478 45.731 979.799 235 223 207
66.478 46.231 979.813 234 222 206
66.478 46.731 979.812 234 222 206
66.478 47.231 979.803 234 222 206
66.478 47.731 979.795 234 222 206
66.478 48.231 979.805 233 220 205
66.478 48.731 979.823 233 221 205
66.478 49.231 979.852 234 222 206
66.478 49.731 979.888 236 224 208
66.478 50.231 979.945 236 224 210
66.478 50.731 980.047 235 226 211
66.478 51.231 980.172 235 226 211
66.478 51.731 980.266 235 226 212
66.978 43.231 979.717 233 221 205
66.978 43.731 979.712 233 221 205
66.978 44.231 979.719 233 221 205
66.978 44.731 979.733 236 224 208
66.978 45.231 979.754 236 224 208
66.978 45.731 979.783 235 223 207
66.978 46.231 979.795 233 221 205
66.978 46.731 979.796 233 220 205
66.978 47.231 979.798 233 221 205
66.978 47.731 979.804 235 223 207
66.978 48.231 979.818 234 222 206
66.978 48.731 979.828 234 222 206
66.978 49.231 979.848 235 223 207
66.978 49.731 979.864 236 224 208
66.978 50.231 979.896 236 224 210
66.978 50.731 979.982 234 225 210
66.978 51.231 980.115 235 226 211
66.978 51.731 980.208 236 226 212
67.478 43.231 979.700 232 219 204
67.478 43.731 979.698 231 218 202
67.478 44.231 979.706 233 220 205
67.478 44.731 979.712 235 223 207
67.478 45.231 979.731 236 224 208
67.478 45.731 979.757 235 223 207
67.478 46.231 979.772 233 221 205
67.478 46.731 979.781 233 221 205
67.478 47.231 979.793 234 222 206
67.478 47.731 979.815 235 223 207
67.478 48.231 979.838 234 222 206
67.478 48.731 979.842 233 221 205
67.478 49.231 979.845 234 222 206
67.478 49.731 979.851 236 224 208
67.478 50.231 979.871 237 225 211
67.478 50.731 979.933 234 225 210
67.478 51.231 980.060 235 226 209
67.478 51.731 980.141 236 226 210
67.978 43.231 979.693 233 220 205
67.978 43.731 979.687 231 218 202
67.978 44.231 979.690 232 219 204
67.978 44.731 979.693 234 222 206
67.978 45.231 979.712 236 224 208
67.978 45.731 979.735 235 223 207
67.978 46.231 979.753 234 222 206
67.978 46.731 979.771 235 223 207
67.978 47.231 979.790 235 223 207
67.978 47.731 979.822 235 223 207
67.978 48.231 979.849 235 223 207
67.978 48.731 979.848 233 220 205
67.978 49.231 979.838 233 221 205
67.978 49.731 979.841 236 224 208
67.978 50.231 979.862 236 226 209
67.978 50.731 979.916 235 226 208
67.978 51.231 980.012 233 225 206
67.978 51.731 980.083 233 225 206
68.478 43.231 979.678 233 220 205
68.478 43.731 979.664 233 221 205
68.478 44.231 979.669 233 221 205
68.478 44.731 979.682 234 222 206
68.478 45.231 979.707 235 223 207
68.478 45.731 979.726 235 223 207
68.478 46.231 979.745 236 224 208
68.478 46.731 979.764 236 224 208
68.478 47.231 979.781 236 224 208
68.478 47.731 979.810 235 223 207
68.478 48.231 979.835 235 223 207
68.478 48.731 979.832 233 220 205
68.478 49.231 979.820 233 220 205
68.478 49.731 979.822 234 222 206
68.478 50.231 979.848 236 224 208
68.478 50.731 979.907 236 225 208
68.478 51.231 979.976 233 222 205
68.478 51.731 980.039 230 219 201
68.978 43.231 979.654 234 222 206
68.978 43.731 979.643 235 223 207
68.978 44.231 979.659 234 222 206
68.978 44.731 979.688 236 224 208
68.978 45.231 979.714 234 222 206
68.978 45.731 979.726 235 223 207
68.978 46.231 979.741 235 223 207
68.978 46.731 979.752 236 224 208
68.978 47.231 979.763 236 224 208
68.978 47.731 979.789 235 223 207
68.978 48.231 979.803 235 223 207
68.978 48.731 979.799 233 222 206
68.978 49.231 979.791 232 220 205
68.978 49.731 979.800 233 220 205
68.978 50.231 979.833 236 224 208
68.978 50.731 979.894 236 224 208
68.978 51.231 979.946 233 221 204
68.978 51.731 979.990 230 218 200
69.978 43.231 979.631 236 224 208
69.978 43.731 979.644 234 222 206
69.978 44.231 979.670 235 223 207
69.978 44.731 979.705 236 224 208
69.978 45.231 979.714 235 223 207
69.978 45.731 979.702 233 220 205
69.978 46.231 979.690 234 222 206
69.978 46.731 979.689 235 223 207
69.978 47.231 979.710 234 222 206
69.978 47.731 979.736 235 223 207
69.978 48.231 979.749 236 224 208
69.978 48.731 979.755 234 223 207
69.978 49.231 979.764 233 223 206
69.978 49.731 979.794 234 222 206
69.978 50.231 979.827 233 221 205
69.978 50.731 979.861 233 219 204
69.978 51.231 979.898 234 218 202
69.978 51.731 979.931 234 218 202
70.478 43.231 979.628 236 224 208
70.478 43.731 979.640 234 222 206
70.478 44.231 979.656 234 222 206
70.478 44.731 979.684 235 223 207
70.478 45.231 979.690 233 221 205
70.478 45.731 979.676 233 221 205
70.478 46.231 979.666 234 222 206
70.478 46.731 979.661 234 222 206
70.478 47.231 979.673 233 221 205
70.478 47.731 979.700 234 222 206
70.478 48.231 979.726 235 223 207
70.478 48.731 979.742 234 223 207
70.478 49.231 979.761 233 224 207
70.478 49.731 979.791 235 223 207
70.478 50.231 979.815 233 220 205
70.478 50.731 979.842 233 218 202
70.478 51.231 979.875 234 218 202
70.478 51.731 979.922 234 218 202
70.978 43.231 979.620 236 224 208
70.978 43.731 979.630 233 221 205
70.978 44.231 979.637 234 222 206
70.978 44.731 979.654 233 221 205
70.978 45.231 979.663 233 221 205
70.978 45.731 979.659 234 222 206
70.978 46.231 979.656 235 223 207
70.978 46.731 979.642 234 222 206
70.978 47.231 979.648 234 222 206
70.978 47.731 979.689 234 222 206
70.978 48.231 979.723 235 223 207
70.978 48.731 979.744 235 223 207
70.978 49.231 979.763 235 223 207
70.978 49.731 979.789 233 220 205
70.978 50.231 979.807 231 218 202
70.978 50.731 979.833 232 219 204
70.978 51.231 979.861 233 219 204
70.978 51.731 979.914 233 220 205
71.478 43.231 979.619 235 223 207
71.478 43.731 979.627 233 221 205
71.478 44.231 979.629 234 222 206
71.478 44.731 979.636 234 222 206
71.478 45.231 979.643 234 222 206
71.478 45.731 979.642 235 223 207
71.478 46.231 979.643 234 222 206
71.478 46.731 979.637 235 223 207
71.478 47.231 979.646 235 223 207
71.478 47.731 979.683 235 223 207
71.478 48.231 979.721 235 223 207
71.478 48.731 979.751 234 222 206
71.478 49.231 979.773 234 222 206
71.478 49.731 979.795 233 220 205
71.478 50.231 979.811 232 219 204
71.478 50.731 979.836 232 219 204
71.478 51.231 979.863 233 221 205
71.478 51.731 979.924 233 220 205
71.978 43.231 979.612 234 222 206
71.978 43.731 979.617 233 221 205
71.978 44.231 979.622 235 223 207
71.978 44.731 979.630 234 222 206
71.978 45.231 979.625 234 222 206
71.978 45.731 979.615 235 223 207
71.978 46.231 979.617 235 223 207
71.978 46.731 979.632 236 224 208
71.978 47.231 979.658 236 224 208
71.978 47.731 979.688 235 223 207
71.978 48.231 979.722 233 221 205
71.978 48.731 979.756 233 220 205
71.978 49.231 979.782 231 218 202
71.978 49.731 979.807 232 219 204
71.978 50.231 979.832 233 220 205
71.978 50.731 979.860 233 220 205
71.978 51.231 979.881 234 222 206
71.978 51.731 979.930 235 223 207
72.478 43.231 979.605 235 223 207
72.478 43.731 979.609 234 222 206
72.478 44.231 979.619 235 223 207
72.478 44.731 979.623 234 222 206
72.478 45.231 979.610 234 222 206
72.478 45.731 979.599 235 223 207
72.478 46.231 979.602 236 224 208
72.478 46.731 979.625 236 224 208
72.478 47.231 979.663 235 223 207
72.478 47.731 979.695 235 223 207
72.478 48.231 979.728 231 218 202
72.478 48.731 979.759 233 220 205
72.478 49.231 979.785 228 216 200
72.478 49.731 979.811 231 218 202
72.478 50.231 979.846 233 220 205
72.478 50.731 979.883 234 222 206
72.478 51.231 979.899 235 223 207
72.478 51.731 979.933 237 225 209
72.978 43.231 979.586 236 224 208
72.978 43.731 979.592 235 223 207
72.978 44.231 979.603 235 223 207
72.978 44.731 979.600 234 222 206
72.978 45.231 979.590 235 223 207
72.978 45.731 979.590 236 224 208
72.978 46.231 979.595 236 224 208
72.978 46.731 979.619 236 224 208
72.978 47.231 979.665 236 224 208
72.978 47.731 979.705 232 219 204
72.978 48.231 979.735 231 218 202
72.978 48.731 979.762 233 220 205
72.978 49.231 979.793 228 216 200
72.978 49.731 979.826 231 218 202
72.978 50.231 979.860 233 221 205
72.978 50.731 979.892 235 223 207
72.978 51.231 979.915 237 225 209
72.978 51.731 979.948 237 225 209
73.478 43.231 979.589 236 224 208
73.478 43.731 979.591 236 224 208
73.478 44.231 979.599 235 223 207
73.478 44.731 979.590 235 223 207
73.478 45.231 979.580 235 223 207
73.478 45.731 979.581 236 224 208
73.478 46.231 979.598 237 225 209
73.478 46.731 979.626 234 222 206
73.478 47.231 979.667 233 221 205
73.478 47.731 979.712 232 219 204
73.478 48.231 979.745 233 221 205
73.478 48.731 979.767 228 216 200
73.478 49.231 979.800 230 217 201
73.478 49.731 979.838 232 219 204
73.478 50.231 979.863 233 221 205
73.478 50.731 979.886 233 221 205
73.478 51.231 979.926 237 225 209
73.478 51.731 979.963 237 225 209
73.978 43.231 979.602 236 225 209
73.978 43.731 979.597 235 224 208
73.978 44.231 979.607 235 223 207
73.978 44.731 979.596 235 223 207
73.978 45.231 979.583 236 225 208
73.978 45.731 979.582 237 225 209
73.978 46.231 979.606 236 224 209
73.978 46.731 979.634 234 222 206
73.978 47.231 979.664 233 221 205
73.978 47.731 979.710 233 220 204
73.978 48.231 979.750 232 220 204
73.978 48.731 979.771 228 216 200
73.978 49.231 979.803 231 218 202
73.978 49.731 979.838 232 219 204
73.978 50.231 979.856 233 221 206
73.978 50.731 979.875 233 220 205
73.978 51.231 979.920 235 223 208
73.978 51.731 979.980 239 227 212
74.478 43.231 979.613 236 225 209
74.478 43.731 979.618 236 225 209
74.478 44.231 979.624 236 225 209
74.478 44.731 979.604 236 225 209
74.478 45.231 979.585 236 225 209
74.478 45.731 979.588 236 224 210
74.478 46.231 979.611 235 223 209
74.478 46.731 979.636 234 222 206
74.478 47.231 979.665 233 220 205
74.478 47.731 979.720 233 221 204
74.478 48.231 979.765 233 221 204
74.478 48.731 979.783 233 220 205
74.478 49.231 979.810 233 220 206
74.478 49.731 979.836 234 222 208
74.478 50.231 979.849 235 223 209
74.478 50.731 979.865 234 222 208
74.478 51.231 979.913 236 224 210
74.478 51.731 980.004 237 225 211
74.978 43.231 979.617 236 224 208
74.978 43.731 979.641 236 224 208
74.978 44.231 979.636 237 225 209
74.978 44.731 979.603 236 224 208
74.978 45.231 979.587 236 224 208
74.978 45.731 979.596 236 224 208
74.978 46.231 979.619 235 223 207
74.978 46.731 979.645 234 222 206
74.978 47.231 979.691 233 221 205
74.978 47.731 979.746 233 221 205
74.978 48.231 979.777 233 222 205
74.978 48.731 979.790 233 221 205
74.978 49.231 979.805 234 222 208
74.978 49.731 979.828 235 223 209
74.978 50.231 979.847 235 223 209
74.978 50.731 979.875 233 221 207
74.978 51.231 979.923 237 225 211
74.978 51.731 980.022 236 224 210
75.478 43.231 979.611 236 224 208
75.478 43.731 979.645 236 224 208
75.478 44.231 979.645 236 224 208
75.478 44.731 979.615 235 223 207
75.478 45.231 979.602 235 223 207
75.478 45.731 979.616 235 223 207
75.478 46.231 979.630 235 223 207
75.478 46.731 979.661 234 222 206
75.478 47.231 979.728 234 222 206
75.478 47.731 979.773 234 222 206
75.478 48.231 979.788 234 222 206
75.478 48.731 979.795 235 223 208
75.478 49.231 979.807 236 224 210
75.478 49.731 979.835 236 224 210
75.478 50.231 979.860 236 224 210
75.478 50.731 979.896 237 225 211
75.478 51.231 979.964 238 226 212
75.478 51.731 980.064 235 223 209
75.978 43.231 979.603 236 224 207
75.978 43.731 979.632 235 224 206
75.978 44.231 979.653 235 223 206
75.978 44.731 979.647 235 223 206
75.978 45.231 979.644 235 223 206
75.978 45.731 979.661 234 222 205
75.978 46.231 979.672 233 221 205
75.978 46.731 979.702 234 222 206
75.978 47.231 979.752 234 222 206
75.978 47.731 979.782 234 222 206
75.978 48.231 979.791 235 223 207
75.978 48.731 979.800 237 225 210
75.978 49.231 979.820 238 226 212
75.978 49.731 979.853 237 225 211
75.978 50.231 979.884 238 226 212
75.978 50.731 979.933 238 226 212
75.978 51.231 980.010 236 224 210
75.978 51.731 980.104 233 221 207
76.478 43.231 979.577 237 224 207
76.478 43.731 979.621 236 223 206
76.478 44.231 979.653 234 221 205
76.478 44.731 979.669 235 222 205
76.478 45.231 979.683 235 222 205
76.478 45.731 979.699 234 223 205
76.478 46.231 979.710 234 223 205
76.478 46.731 979.733 234 222 205
76.478 47.231 979.768 235 223 207
76.478 47.731 979.793 235 223 207
76.478 48.231 979.804 236 224 210
76.478 48.731 979.816 238 226 211
76.478 49.231 979.842 238 226 212
76.478 49.731 979.876 238 226 212
76.478 50.231 979.927 239 227 213
76.478 50.731 979.988 237 225 211
76.478 51.231 980.066 234 222 208
76.478 51.731 980.154 232 219 205
76.978 43.231 979.558 236 223 206
76.978 43.731 979.614 233 220 204
76.978 44.231 979.648 233 220 204
76.978 44.731 979.681 234 221 205
76.978 45.231 979.701 235 222 205
76.978 45.731 979.710 235 224 206
76.978 46.231 979.721 234 223 205
76.978 46.731 979.742 234 223 205
76.978 47.231 979.769 235 223 207
76.978 47.731 979.791 236 224 208
76.978 48.231 979.802 238 226 212
76.978 48.731 979.827 237 225 211
76.978 49.231 979.863 237 225 211
76.978 49.731 979.907 239 227 213
76.978 50.231 979.975 238 226 212
76.978 50.731 980.033 234 222 208
76.978 51.231 980.113 232 219 205
76.978 51.731 980.194 230 217 202
77.478 43.231 979.562 235 222 205
77.478 43.731 979.620 234 221 205
77.478 44.231 979.651 234 221 205
77.478 44.731 979.685 235 222 205
77.478 45.231 979.700 235 222 205
77.478 45.731 979.708 234 222 206
77.478 46.231 979.721 233 221 205
77.478 46.731 979.735 233 221 205
77.478 47.231 979.744 235 223 207
77.478 47.731 979.748 237 225 211
77.478 48.231 979.772 237 225 211
77.478 48.731 979.828 238 226 212
77.478 49.231 979.879 238 226 212
77.478 49.731 979.938 237 225 211
77.478 50.231 980.016 236 224 208
77.478 50.731 980.081 233 220 205
77.478 51.231 980.148 230 216 200
77.478 51.731 980.212 220 207 190
77.978 43.231 979.550 235 222 205
77.978 43.731 979.616 233 220 204
77.978 44.231 979.660 234 221 205
77.978 44.731 979.692 235 222 205
77.978 45.231 979.707 235 222 205
77.978 45.731 979.713 234 222 206
77.978 46.231 979.716 234 222 206
77.978 46.731 979.717 234 222 206
77.978 47.231 979.708 236 224 208
77.978 47.731 979.708 237 225 211
77.978 48.231 979.744 238 226 212
77.978 48.731 979.824 239 227 213
77.978 49.231 979.904 238 226 212
77.978 49.731 979.976 235 223 209
77.978 50.231 980.055 233 220 205
77.978 50.731 980.119 234 221 205
77.978 51.231 980.171 221 208 192
77.978 51.731 980.219 215 202 185
78.478 43.231 979.540 235 222 205
78.478 43.731 979.600 233 220 204
78.478 44.231 979.661 234 221 205
78.478 44.731 979.692 235 222 205
78.478 45.231 979.703 235 222 205
78.478 45.731 979.703 233 221 205
78.478 46.231 979.700 234 222 206
78.478 46.731 979.691 236 224 208
78.478 47.231 979.684 236 224 208
78.478 47.731 979.698 238 226 212
78.478 48.231 979.747 238 226 212
78.478 48.731 979.838 239 227 212
78.478 49.231 979.932 238 226 211
78.478 49.731 980.004 236 224 208
78.478 50.231 980.080 233 220 205
78.478 50.731 980.135 232 218 202
78.478 51.231 980.175 212 199 183
78.478 51.731 980.212 214 201 185
69.478 43.231 979.633 236 224 208
69.478 43.731 979.640 234 222 206
69.478 44.231 979.666 234 222 206
69.478 44.731 979.701 236 224 208
69.478 45.231 979.720 236 224 208
69.478 45.731 979.720 235 223 207
69.478 46.231 979.722 235 223 207
69.478 46.731 979.725 236 224 208
69.478 47.231 979.742 236 224 208
69.478 47.731 979.768 236 224 208
69.478 48.231 979.776 236 224 208
69.478 48.731 979.775 234 223 207
69.478 49.231 979.776 233 221 205
69.478 49.731 979.796 233 221 205
69.478 50.231 979.830 235 223 207
69.478 50.731 979.880 236 223 207
69.478 51.231 979.918 233 220 204
69.478 51.731 979.950 232 218 201
78.978 43.231 979.536 235 222 205
78.978 43.731 979.586 234 221 205
78.978 44.231 979.640 235 222 205
78.978 44.731 979.666 234 221 205
78.978 45.231 979.664 234 221 205
78.978 45.731 979.663 232 219 204
78.978 46.231 979.662 234 222 206
78.978 46.731 979.659 235 223 207
78.978 47.231 979.673 237 225 209
78.978 47.731 979.714 237 225 211
78.978 48.231 979.790 238 226 212
78.978 48.731 979.872 238 226 212
78.978 49.231 979.960 238 226 210
78.978 49.731 980.024 233 221 205
78.978 50.231 980.091 233 220 205
78.978 50.731 980.150 231 217 201
78.978 51.231 980.178 211 198 182
78.978 51.731 980.198 203 190 174
79.478 43.231 979.531 236 223 206
79.478 43.731 979.576 236 223 206
79.478 44.231 979.611 234 221 205
79.478 44.731 979.624 235 222 205
79.478 45.231 979.617 235 222 205
79.478 45.731 979.617 233 221 205
79.478 46.231 979.621 235 223 207
79.478 46.731 979.627 236 224 208
79.478 47.231 979.665 237 225 209
79.478 47.731 979.750 238 226 212
79.478 48.231 979.834 238 226 212
79.478 48.731 979.905 237 225 210
79.478 49.231 979.989 234 222 206
79.478 49.731 980.063 233 220 205
79.478 50.231 980.119 231 218 202
79.478 50.731 980.158 222 208 194
79.478 51.231 980.170 203 189 176
79.478 51.731 980.175 191 177 164
79.978 43.231 979.517 235 222 205
79.978 43.731 979.566 233 220 204
79.978 44.231 979.588 233 220 204
79.978 44.731 979.588 234 221 205
79.978 45.231 979.584 235 222 205
79.978 45.731 979.583 236 224 208
79.978 46.231 979.592 238 226 210
79.978 46.731 979.608 238 226 210
79.978 47.231 979.679 238 226 210
79.978 47.731 979.784 239 227 213
79.978 48.231 979.860 237 225 211
79.978 48.731 979.949 234 222 206
79.978 49.231 980.030 232 220 204
79.978 49.731 980.102 232 219 204
79.978 50.231 980.144 223 211 195
79.978 50.731 980.157 211 197 182
79.978 51.231 980.149 199 185 172
79.978 51.731 980.165 186 172 159
80.478 43.231 979.484 233 219 204
80.478 43.731 979.534 233 220 205
80.478 44.231 979.548 234 221 205
80.478 44.731 979.548 235 223 208
80.478 45.231 979.550 236 224 209
80.478 45.731 979.559 236 227 212
80.478 46.231 979.578 237 227 212
80.478 46.731 979.621 237 227 211
80.478 47.231 979.727 237 227 211
80.478 47.731 979.825 237 227 211
80.478 48.231 979.894 235 223 208
80.478 48.731 979.998 233 220 205
80.478 49.231 980.083 233 220 204
80.478 49.731 980.133 230 216 200
80.478 50.231 980.154 219 207 191
80.478 50.731 980.156 215 201 186
80.478 51.231 980.150 215 201 188
80.478 51.731 980.169 201 187 174
80.978 43.231 979.461 233 220 205
80.978 43.731 979.491 233 221 205
80.978 44.231 979.512 234 222 206
80.978 44.731 979.517 236 224 210
80.978 45.231 979.523 237 225 211
80.978 45.731 979.544 235 227 212
80.978 46.231 979.582 237 228 213
80.978 46.731 979.668 238 230 213
80.978 47.231 979.787 237 228 211
80.978 47.731 979.880 236 224 208
80.978 48.231 979.970 235 223 207
80.978 48.731 980.060 234 221 205
80.978 49.231 980.124 233 219 204
80.978 49.731 980.162 223 210 194
80.978 50.231 980.169 222 209 193
80.978 50.731 980.159 222 209 194
80.978 51.231 980.155 206 192 179
80.978 51.731 980.160 201 187 174
81.478 43.231 979.450 235 222 206
81.478 43.731 979.474 235 223 207
81.478 44.231 979.506 235 223 207
81.478 44.731 979.514 236 224 210
81.478 45.231 979.527 236 226 212
81.478 45.731 979.555 236 227 212
81.478 46.231 979.609 237 228 213
81.478 46.731 979.716 237 228 212
81.478 47.231 979.830 237 228 211
81.478 47.731 979.935 235 223 207
81.478 48.231 980.044 234 222 206
81.478 48.731 980.111 232 218 202
81.478 49.231 980.145 221 208 192
81.478 49.731 980.169 218 205 189
81.478 50.231 980.179 228 215 199
81.478 50.731 980.169 224 211 196
81.478 51.231 980.161 190 176 163
81.478 51.731 980.154 196 183 170
81.978 43.231 979.455 235 223 207
81.978 43.731 979.476 236 224 208
81.978 44.231 979.503 234 223 207
81.978 44.731 979.518 234 225 210
81.978 45.231 979.545 235 226 211
81.978 45.731 979.588 237 228 213
81.978 46.231 979.660 237 228 213
81.978 46.731 979.769 235 226 211
81.978 47.231 979.880 236 225 209
81.978 47.731 980.000 233 221 205
81.978 48.231 980.103 232 219 204
81.978 48.731 980.145 222 210 194
81.978 49.231 980.174 212 200 184
81.978 49.731 980.194 221 209 193
81.978 50.231 980.203 226 214 198
81.978 50.731 980.194 227 215 199
81.978 51.231 980.195 221 209 195
81.978 51.731 980.175 223 211 197
82.478 43.231 979.466 236 224 208
82.478 43.731 979.475 235 226 209
82.478 44.231 979.497 234 225 208
82.478 44.731 979.530 234 225 210
82.478 45.231 979.573 235 226 211
82.478 45.731 979.631 236 227 212
82.478 46.231 979.734 238 227 213
82.478 46.731 979.837 235 224 209
82.478 47.231 979.931 232 219 204
82.478 47.731 980.059 233 220 205
82.478 48.231 980.159 234 222 206
82.478 48.731 980.195 217 204 188
82.478 49.231 980.221 217 205 189
82.478 49.731 980.236 223 211 195
82.478 50.231 980.238 225 213 197
82.478 50.731 980.224 228 216 201
82.478 51.231 980.228 228 216 202
82.478 51.731 980.220 226 214 200
82.978 43.231 979.470 236 224 208
82.978 43.731 979.472 235 226 209
82.978 44.231 979.506 234 225 208
82.978 44.731 979.561 232 222 207
82.978 45.231 979.613 230 222 206
82.978 45.731 979.702 235 225 211
82.978 46.231 979.813 238 226 212
82.978 46.731 979.904 234 222 207
82.978 47.231 980.004 233 220 205
82.978 47.731 980.123 234 221 205
82.978 48.231 980.203 227 214 198
82.978 48.731 980.237 211 198 182
82.978 49.231 980.255 226 214 198
82.978 49.731 980.257 227 215 199
82.978 50.231 980.254 230 217 201
82.978 50.731 980.246 230 217 202
82.978 51.231 980.246 230 217 204
82.978 51.731 980.250 226 214 200
83.478 43.231 979.471 234 224 207
83.478 43.731 979.472 235 226 209
83.478 44.231 979.511 234 225 208
83.478 44.731 979.574 232 223 208
83.478 45.231 979.649 230 222 206
83.478 45.731 979.783 237 227 212
83.478 46.231 979.882 237 225 211
83.478 46.731 979.978 234 222 207
83.478 47.231 980.097 233 221 205
83.478 47.731 980.184 230 216 200
83.478 48.231 980.241 219 206 190
83.478 48.731 980.260 218 207 191
83.478 49.231 980.263 222 213 196
83.478 49.731 980.261 221 212 195
83.478 50.231 980.262 224 215 198
83.478 50.731 980.258 227 218 201
83.478 51.231 980.257 228 219 205
83.478 51.731 980.267 225 216 201
83.978 43.231 979.469 237 225 211
83.978 43.731 979.475 235 226 211
83.978 44.231 979.513 235 226 211
83.978 44.731 979.584 236 230 213
83.978 45.231 979.691 239 233 216
83.978 45.731 979.841 237 228 213
83.978 46.231 979.940 235 226 211
83.978 46.731 980.050 236 224 208
83.978 47.231 980.163 231 218 202
83.978 47.731 980.223 221 208 191
83.978 48.231 980.255 224 211 194
83.978 48.731 980.258 225 214 197
83.978 49.231 980.253 224 215 200
83.978 49.731 980.247 223 214 199
83.978 50.231 980.258 226 217 202
83.978 50.731 980.259 228 219 205
83.978 51.231 980.268 227 218 204
83.978 51.731 980.296 227 218 204
84.478 43.231 979.473 237 225 211
84.478 43.731 979.492 236 227 212
84.478 44.231 979.537 235 226 211
84.478 44.731 979.620 238 230 214
84.478 45.231 979.741 238 230 214
84.478 45.731 979.865 237 226 210
84.478 46.231 979.984 236 224 209
84.478 46.731 980.107 233 220 205
84.478 47.231 980.190 223 211 195
84.478 47.731 980.228 220 208 192
84.478 48.231 980.229 228 215 198
84.478 48.731 980.229 225 213 197
84.478 49.231 980.237 225 216 201
84.478 49.731 980.238 225 216 201
84.478 50.231 980.257 227 218 204
84.478 50.731 980.268 227 218 204
84.478 51.231 980.289 227 218 204
84.478 51.731 980.337 227 218 204
84.978 43.231 979.479 238 226 210
84.978 43.731 979.517 239 227 211
84.978 44.231 979.579 237 225 209
84.978 44.731 979.674 234 225 208
84.978 45.231 979.794 233 224 207
84.978 45.731 979.898 233 221 205
84.978 46.231 980.025 232 219 204
84.978 46.731 980.134 224 212 196
84.978 47.231 980.177 225 213 197
84.978 47.731 980.188 227 215 199
84.978 48.231 980.177 227 215 199
84.978 48.731 980.184 223 212 196
84.978 49.231 980.209 225 216 201
84.978 49.731 980.237 225 216 201
84.978 50.231 980.269 227 218 204
84.978 50.731 980.292 227 218 204
84.978 51.231 980.339 227 218 204
84.978 51.731 980.392 230 220 205
85.478 43.231 979.498 238 226 210
85.478 43.731 979.558 238 226 210
85.478 44.231 979.637 237 225 209
85.478 44.731 979.752 237 225 209
85.478 45.231 979.865 235 223 207
85.478 45.731 979.955 234 222 206
85.478 46.231 980.059 228 216 200
85.478 46.731 980.126 217 205 189
85.478 47.231 980.142 223 211 195
85.478 47.731 980.139 225 213 197
85.478 48.231 980.128 225 213 197
85.478 48.731 980.142 222 212 196
85.478 49.231 980.173 225 216 201
85.478 49.731 980.230 227 218 204
85.478 50.231 980.296 228 219 205
14.978 34.731 989.634 94 97 106
14.978 31.231 990.028 92 92 103
14.978 51.731 986.421 86 85 98
14.978 29.231 989.805 86 86 97
14.978 36.731 988.426 81 81 92
15.978 36.231 987.727 198 188 179
15.978 50.731 986.390 176 166 159
16.478 47.731 986.298 170 160 151
20.978 35.231 984.911 208 192 177
15.478 38.731 986.873 218 208 194
15.978 43.731 986.197 200 187 178
14.978 38.731 987.195 100 97 104
14.978 50.231 986.455 108 106 113
15.478 40.231 986.368 172 164 161
14.978 29.731 989.864 151 143 141
14.978 44.731 986.309 142 134 132
17.478 23.731 991.985 122 118 121
17.978 24.231 991.666 126 121 125
18.478 23.731 991.651 129 124 126
18.478 24.231 991.532 133 128 130
18.978 24.231 991.339 137 133 134
19.478 24.231 991.014 136 132 133
15.478 40.731 986.281 195 184 171
15.478 46.231 986.314 141 130 126
17.478 24.231 991.757 123 119 122
20.978 25.231 989.564 141 135 135
20.978 25.731 989.269 139 133 133
20.978 26.231 988.924 140 134 134
20.978 26.731 988.543 135 129 129
20.978 27.231 988.260 135 130 127
20.978 27.731 987.793 132 124 122
20.978 28.231 987.430 133 125 122
20.978 28.731 987.096 136 126 123
20.978 29.231 986.780 142 133 128
20.978 29.731 986.350 169 156 148
20.978 30.231 985.971 195 181 172
20.978 30.731 985.808 203 189 180
20.978 31.231 985.760 199 185 174
20.978 31.731 985.562 161 145 132
20.978 32.231 985.377 207 191 178
21.478 25.231 989.276 143 135 133
21.478 25.731 989.046 142 133 134
21.478 26.231 988.696 146 137 136
21.478 26.731 988.317 138 130 128
21.478 27.231 987.966 135 127 124
21.478 27.731 987.618 138 128 126
21.478 28.231 987.245 143 134 129
21.478 28.731 986.896 150 139 135
21.478 29.231 986.529 162 151 145
21.478 29.731 986.104 171 157 148
21.478 30.231 985.806 188 174 165
21.478 30.731 985.628 199 185 174
21.478 31.231 985.527 210 194 181
21.478 31.731 985.326 170 154 141
21.478 32.231 985.143 183 167 151
21.478 32.731 985.106 224 208 193
21.478 33.231 985.101 223 207 192
21.978 25.231 989.005 139 131 129
21.978 25.731 988.643 144 136 134
21.978 26.231 988.292 147 139 137
21.978 26.731 987.965 139 131 128
21.978 27.231 987.650 140 130 127
21.978 27.731 987.380 149 139 135
21.978 28.231 986.862 160 148 142
21.978 28.731 986.555 171 159 152
21.978 29.231 986.141 184 171 163
21.978 29.731 985.835 196 183 171
21.978 30.231 985.615 177 163 152
21.978 30.731 985.411 187 172 160
21.978 31.231 985.205 185 169 156
21.978 31.731 985.116 201 185 171
21.978 32.231 984.966 206 190 175
21.978 32.731 984.915 231 214 199
21.978 33.231 984.886 230 213 198
22.478 25.231 988.586 142 134 132
22.478 25.731 988.206 145 137 135
22.478 26.231 987.958 147 139 137
22.478 26.731 987.676 143 134 130
22.478 27.231 987.422 151 141 137
22.478 27.731 987.092 168 157 152
22.478 28.231 986.555 180 168 161
22.478 28.731 986.345 174 160 153
22.478 29.231 985.915 162 147 140
22.478 29.731 985.630 204 190 180
22.478 30.231 985.400 205 191 180
22.478 30.731 985.116 212 196 183
22.478 31.231 984.971 220 204 189
22.478 31.731 984.927 224 208 193
22.478 32.231 984.843 219 202 186
22.478 32.731 984.713 228 211 196
22.478 33.231 984.675 231 212 198
22.978 25.731 987.877 146 138 135
22.978 26.231 987.705 144 137 133
22.978 26.731 987.366 143 134 127
22.978 27.231 986.957 160 149 142
22.978 27.731 986.651 179 169 160
22.978 28.231 986.386 196 184 175
22.978 28.731 986.148 164 150 142
22.978 29.231 985.728 157 143 134
22.978 29.731 985.414 194 180 168
22.978 30.231 985.109 216 202 189
22.978 30.731 984.874 222 206 191
22.978 31.231 984.760 219 203 187
22.978 31.731 984.637 223 207 191
23.478 25.731 987.630 152 143 138
23.478 26.231 987.295 151 142 137
23.478 26.731 986.995 163 153 146
23.478 27.231 986.534 171 161 152
23.478 27.731 986.339 191 181 172
23.478 28.231 986.165 190 177 170
23.478 28.731 985.940 162 147 140
23.478 29.231 985.495 158 144 135
23.478 29.731 985.122 192 179 166
23.478 30.231 984.863 219 205 192
23.478 30.731 984.631 217 201 186
14.978 33.231 989.889 159 152 148
15.478 26.731 990.315 120 117 117
15.478 27.231 990.050 137 133 132
15.478 27.731 989.780 150 145 142
15.478 28.231 989.554 161 156 150
15.478 29.231 989.400 184 176 166
15.478 29.731 989.424 180 171 162
15.478 30.231 989.420 190 181 172
15.478 30.731 989.444 192 183 174
15.478 31.231 989.544 196 185 179
15.478 31.731 989.603 171 160 154
15.478 32.231 989.644 161 150 144
15.478 32.731 989.546 170 160 154
15.478 50.731 986.414 168 157 151
15.978 25.731 990.962 121 117 121
15.978 26.231 990.469 116 110 114
15.978 26.731 990.062 112 110 114
15.978 27.231 989.698 127 123 124
15.978 27.731 989.364 153 148 146
15.978 28.731 988.948 179 171 162
15.978 29.231 988.882 162 155 145
15.978 29.731 988.852 166 156 150
15.978 30.231 988.845 195 186 179
15.978 30.731 988.863 184 173 167
15.978 31.231 989.024 175 166 156
15.978 31.731 989.099 180 170 161
15.978 32.731 989.131 186 176 168
15.978 33.231 988.985 170 162 159
16.478 25.731 990.789 122 118 122
16.478 26.231 990.286 116 110 116
16.478 26.731 989.789 117 112 116
16.478 27.231 989.395 117 112 116
16.478 27.731 989.064 131 127 127
16.478 28.231 988.824 160 156 153
16.478 28.731 988.556 162 156 151
16.478 29.731 988.290 168 160 152
16.478 30.231 988.248 162 155 147
16.478 30.731 988.334 181 172 163
16.478 31.231 988.552 176 168 158
16.478 31.731 988.641 184 174 167
16.478 32.231 988.718 190 180 173
16.478 33.231 988.608 166 157 152
16.478 41.231 985.967 149 134 121
16.978 25.231 991.185 137 132 136
16.978 25.731 990.705 128 123 127
16.978 26.231 990.155 119 115 118
16.978 27.231 989.209 117 111 116
16.978 27.731 988.869 117 112 113
16.978 28.231 988.586 130 126 125
16.978 28.731 988.263 144 139 135
16.978 29.231 987.994 160 155 149
16.978 29.731 987.793 187 180 172
16.978 30.231 987.718 174 168 159
16.978 30.731 987.947 167 158 149
16.978 31.231 988.086 170 161 152
16.978 31.731 988.273 174 166 158
16.978 32.231 988.318 187 179 171
16.978 32.731 988.262 179 170 165
16.978 33.231 988.212 151 142 137
17.478 24.731 991.455 133 128 132
17.478 25.231 991.046 133 128 132
17.478 25.731 990.672 131 126 130
17.478 26.731 989.516 118 113 116
17.478 27.231 989.058 118 112 116
17.478 27.731 988.683 115 110 111
17.478 28.231 988.351 120 117 116
17.478 28.731 988.007 129 124 121
17.478 29.231 987.695 144 139 133
17.478 29.731 987.416 175 168 162
17.478 30.231 987.327 205 198 190
17.478 30.731 987.534 198 190 182
17.478 31.231 987.598 168 159 150
17.478 31.731 987.890 176 168 158
17.478 32.231 987.907 190 181 174
17.478 32.731 987.809 179 169 162
17.478 33.231 987.757 174 166 158
17.978 24.731 991.366 131 126 130
17.978 25.231 990.956 130 125 129
17.978 25.731 990.567 126 121 125
17.978 26.231 990.014 122 118 121
17.978 26.731 989.436 119 116 116
17.978 27.231 988.954 127 122 126
17.978 27.731 988.544 127 122 126
17.978 28.231 988.224 127 123 124
17.978 28.731 987.864 126 121 119
17.978 29.231 987.471 125 120 116
17.978 29.731 987.226 139 131 128
17.978 30.231 987.063 185 176 171
17.978 30.731 987.100 212 203 196
17.978 31.231 987.135 198 188 179
17.978 31.731 987.288 177 168 158
17.978 32.231 987.411 173 163 154
17.978 32.731 987.391 188 177 171
17.978 33.231 987.340 206 196 187
18.478 24.731 991.229 135 131 132
18.478 25.231 990.812 131 126 128
18.478 25.731 990.414 125 121 122
18.478 26.231 989.874 119 115 116
18.478 26.731 989.383 119 116 116
18.478 27.231 988.909 127 122 126
18.478 27.731 988.495 124 119 123
18.478 28.231 988.195 124 119 123
18.478 28.731 987.800 119 113 114
18.478 29.231 987.390 113 107 105
18.478 29.731 987.041 125 116 114
18.478 30.231 986.847 145 135 133
18.478 30.731 986.748 170 161 153
18.478 31.231 986.758 190 180 171
18.478 31.731 986.774 166 155 145
18.478 32.231 986.896 168 157 147
18.478 32.731 986.843 201 190 180
18.478 33.231 986.795 208 196 187
18.978 24.731 991.003 137 133 134
18.978 25.231 990.591 133 129 130
18.978 25.731 990.293 130 126 127
18.978 26.231 989.810 130 126 127
18.978 26.731 989.332 121 118 118
18.978 27.231 988.783 120 117 119
18.978 27.731 988.391 120 116 119
18.978 28.231 988.062 120 116 119
18.978 28.731 987.712 119 112 113
18.978 29.231 987.304 118 111 111
18.978 29.731 986.858 123 115 116
18.978 30.231 986.660 125 116 114
18.978 30.731 986.506 157 147 142
18.978 31.231 986.464 194 184 174
18.978 31.731 986.450 179 169 159
18.978 32.231 986.418 184 174 164
18.978 32.731 986.336 205 192 182
18.978 33.231 986.300 200 188 176
19.478 24.731 990.751 139 135 136
19.478 25.231 990.399 138 134 135
19.478 25.731 990.050 136 132 133
19.478 26.231 989.588 133 129 130
19.478 27.231 988.614 128 123 127
19.478 27.731 988.264 119 115 117
19.478 28.231 987.908 119 116 116
19.478 28.731 987.559 117 110 111
19.478 29.231 987.190 122 117 116
19.478 29.731 986.776 128 119 118
19.478 30.231 986.530 127 118 116
19.478 30.731 986.374 149 138 132
19.478 31.231 986.232 186 176 167
19.478 31.731 986.197 201 190 180
19.478 32.231 986.123 213 201 189
19.478 32.731 986.030 212 200 188
19.478 33.231 985.974 199 187 174
