43.978 -136.769 979.962 197 184 170
43.978 -136.269 979.836 205 191 178
43.978 -135.769 979.749 204 190 177
43.978 -135.269 979.663 196 183 170
43.978 -134.769 979.559 184 170 157
43.978 -134.269 979.492 183 168 155
43.978 -133.769 979.474 179 166 152
43.978 -133.269 979.472 207 193 180
43.978 -132.769 979.494 216 202 189
43.978 -132.269 979.567 226 212 199
44.478 -141.269 980.063 216 203 187
44.478 -140.769 980.142 215 202 186
44.478 -140.269 980.209 214 201 185
44.478 -139.769 980.220 217 201 186
44.478 -139.269 980.231 215 199 184
44.478 -138.769 980.228 210 194 179
44.478 -138.269 980.212 207 191 176
44.478 -137.769 980.200 214 198 183
44.478 -137.269 980.163 205 189 174
44.478 -136.769 980.089 197 183 170
44.478 -136.269 979.963 209 195 182
44.478 -135.769 979.856 214 200 187
44.478 -135.269 979.758 208 194 181
44.478 -134.769 979.658 188 174 161
44.478 -134.269 979.550 181 168 154
44.478 -133.769 979.497 185 171 158
44.478 -133.269 979.485 209 195 182
44.478 -132.769 979.496 216 202 189
44.478 -132.269 979.558 225 211 198
44.978 -141.269 980.258 220 207 191
44.978 -140.769 980.330 218 205 189
44.978 -140.269 980.398 213 200 184
44.978 -139.769 980.420 217 201 186
44.978 -139.269 980.423 215 199 184
44.978 -138.769 980.402 212 196 181
44.978 -138.269 980.347 206 190 175
44.978 -137.769 980.314 204 188 173
44.978 -137.269 980.251 196 180 165
44.978 -136.769 980.174 202 188 175
44.978 -136.269 980.086 213 199 186
44.978 -135.769 979.975 218 204 191
44.978 -135.269 979.838 214 200 187
44.978 -134.769 979.728 189 175 162
44.978 -134.269 979.629 187 173 160
44.978 -133.769 979.538 177 163 150
44.978 -133.269 979.494 207 193 180
44.978 -132.769 979.492 211 197 184
44.978 -132.269 979.528 217 203 190
45.478 -141.269 980.440 222 209 193
45.478 -140.769 980.510 220 207 191
45.478 -140.269 980.608 217 204 188
45.478 -139.769 980.652 214 198 183
45.478 -139.269 980.666 213 197 182
45.478 -138.769 980.614 210 194 179
45.478 -138.269 980.508 209 193 178
45.478 -137.769 980.431 202 186 171
45.478 -137.269 980.355 195 179 164
45.478 -136.769 980.247 211 196 183
45.478 -136.269 980.162 216 202 189
45.478 -135.769 980.060 216 202 189
45.478 -135.269 979.917 212 198 185
45.478 -134.769 979.790 191 177 164
45.478 -134.269 979.705 200 186 173
45.478 -133.769 979.584 192 179 165
45.478 -133.269 979.515 186 174 160
45.478 -132.769 979.495 186 174 160
45.478 -132.269 979.514 179 167 152
45.978 -141.269 980.606 222 209 193
45.978 -140.769 980.700 218 205 189
45.978 -140.269 980.838 215 202 186
45.978 -139.769 980.881 213 197 182
45.978 -139.269 980.858 207 191 176
45.978 -138.769 980.766 208 192 177
45.978 -138.269 980.661 205 189 174
45.978 -137.769 980.553 199 184 168
45.978 -137.269 980.450 191 175 160
45.978 -136.769 980.310 204 190 177
45.978 -136.269 980.198 214 200 187
45.978 -135.769 980.108 209 195 182
45.978 -135.269 979.976 199 185 172
45.978 -134.769 979.832 193 179 166
45.978 -134.269 979.741 208 194 181
45.978 -133.769 979.628 203 189 176
45.978 -133.269 979.547 212 200 186
45.978 -132.769 979.504 209 197 183
45.978 -132.269 979.509 187 175 161
46.478 -141.269 980.921 218 205 189
46.478 -140.769 981.008 212 199 183
46.478 -140.269 981.093 212 199 183
46.478 -139.769 981.091 213 197 182
46.478 -139.269 981.029 207 191 176
46.478 -138.769 980.905 206 190 175
46.478 -138.269 980.777 200 184 170
46.478 -137.769 980.667 194 179 163
46.478 -137.269 980.512 189 173 158
46.478 -136.769 980.331 193 179 165
46.478 -136.269 980.216 207 193 180
46.478 -135.769 980.140 184 169 156
46.478 -135.269 980.002 195 181 168
46.478 -134.769 979.843 209 195 182
46.478 -134.269 979.736 213 199 186
46.478 -133.769 979.656 206 192 179
46.478 -133.269 979.567 209 197 185
46.478 -132.769 979.509 213 201 188
46.478 -132.269 979.509 202 190 178
46.978 -141.269 981.256 220 207 191
46.978 -140.769 981.292 216 203 187
46.978 -140.269 981.305 215 202 186
46.978 -139.769 981.299 215 199 184
46.978 -139.269 981.256 211 195 180
46.978 -138.769 981.111 205 189 174
46.978 -138.269 980.908 196 180 165
46.978 -137.769 980.744 190 174 159
46.978 -137.269 980.538 188 172 157
46.978 -136.769 980.330 168 154 141
46.978 -136.269 980.224 174 160 147
46.978 -135.769 980.153 168 154 141
46.978 -135.269 980.028 197 184 171
46.978 -134.769 979.859 217 203 190
46.978 -134.269 979.723 214 200 187
46.978 -133.769 979.659 208 194 181
46.978 -133.269 979.601 208 196 184
46.978 -132.769 979.534 211 199 187
46.978 -132.269 979.513 194 183 171
47.478 -141.269 981.479 220 207 191
47.478 -140.769 981.499 222 209 193
47.478 -140.269 981.525 218 205 189
47.478 -139.769 981.530 218 202 189
47.478 -139.269 981.466 217 201 188
47.478 -138.769 981.307 208 192 179
47.478 -138.269 981.057 195 179 166
47.478 -137.769 980.786 187 171 158
47.478 -137.269 980.574 180 164 151
47.478 -136.769 980.363 183 168 154
47.478 -136.269 980.235 173 159 146
47.478 -135.769 980.160 174 160 147
47.478 -135.269 980.050 208 194 181
47.478 -134.769 979.875 216 202 189
47.478 -134.269 979.723 216 202 189
47.478 -133.769 979.662 207 193 180
47.478 -133.269 979.628 204 192 180
47.478 -132.769 979.557 202 190 178
47.478 -132.269 979.528 176 164 152
47.978 -141.269 981.665 217 204 188
47.978 -140.769 981.687 214 201 185
47.978 -140.269 981.700 216 203 187
47.978 -139.769 981.689 218 202 189
47.978 -139.269 981.625 216 200 187
47.978 -138.769 981.511 204 188 175
47.978 -138.269 981.240 189 173 160
47.978 -137.769 980.884 191 175 162
47.978 -137.269 980.658 193 177 164
47.978 -136.769 980.428 188 174 161
47.978 -136.269 980.268 179 166 152
47.978 -135.769 980.190 181 168 154
47.978 -135.269 980.068 196 183 170
47.978 -134.769 979.894 217 203 190
47.978 -134.269 979.751 218 204 191
47.978 -133.769 979.677 214 200 187
47.978 -133.269 979.636 206 194 182
47.978 -132.769 979.585 203 191 179
47.978 -132.269 979.571 171 159 147
48.478 -141.269 981.862 214 201 187
48.478 -140.769 981.870 213 200 186
48.478 -140.269 981.847 214 200 187
48.478 -139.769 981.806 220 206 193
48.478 -139.269 981.750 214 199 186
48.478 -138.769 981.654 195 180 167
48.478 -138.269 981.383 184 170 157
48.478 -137.769 981.034 194 180 167
48.478 -137.269 980.776 193 179 166
48.478 -136.769 980.526 190 175 161
48.478 -136.269 980.325 184 171 156
48.478 -135.769 980.219 184 169 154
48.478 -135.269 980.083 176 162 149
48.478 -134.769 979.910 209 196 183
48.478 -134.269 979.789 215 202 190
48.478 -133.769 979.719 212 200 188
48.478 -133.269 979.662 197 186 175
48.478 -132.769 979.616 199 186 176
48.478 -132.269 979.601 183 170 158
48.978 -141.269 981.973 214 200 187
48.978 -140.769 981.981 219 205 192
48.978 -140.269 981.978 217 203 190
48.978 -139.769 981.943 216 202 189
48.978 -139.269 981.835 208 194 181
48.978 -138.769 981.717 187 173 160
48.978 -138.269 981.553 205 191 178
48.978 -137.769 981.232 195 181 168
48.978 -137.269 980.918 192 179 165
48.978 -136.769 980.683 190 175 160
48.978 -136.269 980.412 187 174 158
48.978 -135.769 980.237 184 170 157
48.978 -135.269 980.088 177 163 150
48.978 -134.769 979.917 191 179 165
48.978 -134.269 979.810 207 195 183
48.978 -133.769 979.752 201 189 177
48.978 -133.269 979.685 194 184 174
48.978 -132.769 979.632 202 189 180
48.978 -132.269 979.617 197 185 173
49.478 -141.269 982.043 217 203 190
49.478 -140.769 982.047 217 203 190
49.478 -140.269 982.078 216 202 189
49.478 -139.769 982.078 213 199 186
49.478 -139.269 981.984 187 173 160
49.478 -138.769 981.869 198 184 171
49.478 -138.269 981.778 205 191 178
49.478 -137.769 981.508 192 179 165
49.478 -137.269 981.146 189 175 162
49.478 -136.769 980.867 191 175 160
49.478 -136.269 980.547 186 172 159
49.478 -135.769 980.285 179 166 152
49.478 -135.269 980.144 174 160 147
49.478 -134.769 979.978 177 164 150
49.478 -134.269 979.844 186 174 160
49.478 -133.769 979.779 176 164 152
49.478 -133.269 979.695 168 156 146
49.478 -132.769 979.639 177 166 154
49.478 -132.269 979.637 200 188 176
49.978 -141.269 982.129 214 200 187
49.978 -140.769 982.132 216 202 189
49.978 -140.269 982.153 211 197 184
49.978 -139.769 982.161 197 184 171
49.978 -139.269 982.128 198 184 171
49.978 -138.769 982.033 217 203 190
49.978 -138.269 981.927 210 196 183
49.978 -137.769 981.729 198 184 171
49.978 -137.269 981.374 184 169 156
49.978 -136.769 981.030 193 177 164
49.978 -136.269 980.707 189 175 162
49.978 -135.769 980.435 184 170 157
49.978 -135.269 980.328 185 171 158
49.978 -134.769 980.157 181 169 155
49.978 -134.269 979.936 198 186 172
49.978 -133.769 979.825 201 189 175
49.978 -133.269 979.722 188 177 165
49.978 -132.769 979.654 199 187 175
49.978 -132.269 979.648 187 175 163
50.478 -141.269 982.174 199 185 172
50.478 -140.769 982.178 211 197 184
50.478 -140.269 982.181 208 194 181
50.478 -139.769 982.183 201 187 174
50.478 -139.269 982.176 213 199 186
50.478 -138.769 982.135 219 205 192
50.478 -138.269 982.042 215 201 188
50.478 -137.769 981.881 203 189 176
50.478 -137.269 981.577 185 171 158
50.478 -136.769 981.246 191 174 163
50.478 -136.269 980.915 191 177 164
50.478 -135.769 980.638 188 174 161
50.478 -135.269 980.479 187 173 160
50.478 -134.769 980.254 183 169 155
50.478 -134.269 979.989 197 185 171
50.478 -133.769 979.851 218 206 192
50.478 -133.269 979.776 215 204 192
50.478 -132.769 979.703 213 201 189
50.478 -132.269 979.675 208 196 184
50.978 -141.269 982.210 206 192 179
50.978 -140.769 982.211 212 198 185
50.978 -140.269 982.210 213 199 186
50.978 -139.769 982.209 194 180 167
50.978 -139.269 982.209 217 203 190
50.978 -138.769 982.201 220 206 193
50.978 -138.269 982.152 220 206 193
50.978 -137.769 981.991 208 194 181
50.978 -137.269 981.731 193 179 166
50.978 -136.769 981.470 190 173 163
50.978 -136.269 981.130 186 172 161
50.978 -135.769 980.775 184 169 156
50.978 -135.269 980.580 183 168 155
50.978 -134.769 980.320 186 173 160
50.978 -134.269 980.062 193 181 165
50.978 -133.769 979.903 209 197 181
50.978 -133.269 979.826 214 203 189
50.978 -132.769 979.760 209 197 185
50.978 -132.269 979.736 215 203 191
42.478 -140.769 979.167 214 201 185
42.478 -140.269 979.228 216 203 187
42.478 -139.769 979.276 216 203 187
42.478 -139.269 979.369 219 206 190
42.478 -138.769 979.384 218 205 189
42.478 -138.269 979.361 213 200 184
42.478 -137.769 979.409 210 197 181
42.478 -137.269 979.424 208 195 179
42.478 -136.769 979.332 210 196 183
42.478 -136.269 979.242 206 192 179
42.478 -135.769 979.214 204 190 177
42.478 -135.269 979.198 181 168 154
42.478 -134.769 979.209 202 188 175
42.478 -134.269 979.258 217 203 190
42.478 -133.769 979.324 223 209 196
42.478 -133.269 979.387 227 213 200
42.478 -132.769 979.464 221 207 194
42.478 -132.269 979.520 219 205 192
51.478 -141.269 982.241 208 194 181
51.978 -141.269 982.251 219 207 193
51.978 -140.769 982.254 201 189 175
51.978 -140.269 982.278 200 188 174
51.978 -139.769 982.296 213 204 189
51.978 -139.269 982.282 214 202 188
51.978 -138.769 982.263 212 200 186
51.978 -138.269 982.240 220 208 194
51.978 -137.769 982.141 213 199 186
51.978 -137.269 981.983 200 186 173
51.978 -136.769 981.756 188 176 162
51.978 -136.269 981.441 190 179 164
51.978 -135.769 981.117 189 177 163
51.978 -135.269 980.864 187 175 161
51.978 -134.769 980.659 189 177 163
51.978 -134.269 980.389 198 186 172
51.978 -133.769 980.191 205 193 179
51.978 -133.269 980.081 204 194 180
51.978 -132.769 979.947 192 183 171
51.978 -132.269 979.860 190 180 168
52.478 -141.269 982.259 216 204 190
52.478 -140.769 982.273 201 189 175
52.478 -140.269 982.296 185 173 159
52.478 -139.769 982.320 209 200 185
52.478 -139.269 982.317 217 205 191
52.478 -138.769 982.302 212 200 186
52.478 -138.269 982.272 219 207 193
52.478 -137.769 982.188 214 200 187
52.478 -137.269 982.071 201 187 174
52.478 -136.769 981.853 195 183 168
52.478 -136.269 981.587 195 184 170
52.478 -135.769 981.334 186 174 160
52.478 -135.269 981.049 189 177 163
52.478 -134.769 980.803 194 183 168
52.478 -134.269 980.596 200 188 174
52.478 -133.769 980.362 201 189 175
52.478 -133.269 980.215 204 192 180
52.478 -132.769 980.073 191 179 167
52.478 -132.269 979.946 212 200 188
52.978 -141.269 982.252 214 202 188
52.978 -140.769 982.268 198 186 172
52.978 -140.269 982.287 190 179 164
52.978 -139.769 982.309 214 205 190
52.978 -139.269 982.331 217 205 191
52.978 -138.769 982.337 221 209 195
52.978 -138.269 982.310 220 208 194
52.978 -137.769 982.224 214 200 187
52.978 -137.269 982.129 204 190 177
52.978 -136.769 981.937 203 191 177
52.978 -136.269 981.695 196 184 171
52.978 -135.769 981.497 185 173 159
52.978 -135.269 981.227 194 183 168
52.978 -134.769 980.881 197 185 171
52.978 -134.269 980.713 197 185 171
52.978 -133.769 980.485 203 191 177
52.978 -133.269 980.312 208 196 184
52.978 -132.769 980.205 186 174 162
52.978 -132.269 980.119 214 202 190
53.478 -141.269 982.212 192 180 166
53.478 -140.769 982.232 206 194 180
53.478 -140.269 982.247 217 205 191
53.478 -139.769 982.273 217 208 193
53.478 -139.269 982.315 217 205 191
53.478 -138.769 982.338 220 208 194
53.478 -138.269 982.324 221 209 195
53.478 -137.769 982.242 217 203 190
53.478 -137.269 982.143 211 197 184
53.478 -136.769 982.011 208 196 182
53.478 -136.269 981.767 199 187 173
53.478 -135.769 981.598 200 188 174
53.478 -135.269 981.352 194 183 168
53.478 -134.769 981.034 198 186 172
53.478 -134.269 980.816 191 179 165
53.478 -133.769 980.607 189 177 163
53.478 -133.269 980.423 188 176 164
53.478 -132.769 980.323 184 171 159
53.478 -132.269 980.261 211 199 187
53.978 -141.269 982.162 208 196 182
53.978 -140.769 982.181 216 204 190
53.978 -140.269 982.191 215 203 189
53.978 -139.769 982.221 214 205 190
53.978 -139.269 982.281 216 204 190
53.978 -138.769 982.316 214 202 188
53.978 -138.269 982.317 215 203 189
53.978 -137.769 982.267 218 204 191
53.978 -137.269 982.183 216 202 189
53.978 -136.769 982.068 210 198 184
53.978 -136.269 981.817 206 194 180
53.978 -135.769 981.645 205 193 179
53.978 -135.269 981.409 195 184 170
53.978 -134.769 981.189 192 180 166
53.978 -134.269 981.001 183 170 156
53.978 -133.769 980.780 169 157 143
53.978 -133.269 980.585 158 144 133
53.978 -132.769 980.448 190 176 165
53.978 -132.269 980.386 214 200 187
54.478 -141.269 982.092 210 198 184
54.478 -140.769 982.109 218 206 192
54.478 -140.269 982.134 219 207 193
54.478 -139.769 982.164 220 211 196
54.478 -139.269 982.220 219 207 193
54.478 -138.769 982.271 214 202 188
54.478 -138.269 982.286 217 205 191
54.478 -137.769 982.272 220 206 193
54.478 -137.269 982.208 217 203 190
54.478 -136.769 982.078 210 198 184
54.478 -136.269 981.842 206 194 180
54.478 -135.769 981.679 203 191 177
54.478 -135.269 981.494 187 175 161
54.478 -134.769 981.297 179 167 152
54.478 -134.269 981.116 179 167 152
54.478 -133.769 980.910 179 167 152
54.478 -133.269 980.755 173 159 148
54.478 -132.769 980.640 207 193 182
54.478 -132.269 980.559 217 203 190
54.978 -141.269 981.928 212 199 186
54.978 -140.769 981.970 217 205 191
54.978 -140.269 982.048 222 210 196
54.978 -139.769 982.103 224 212 198
54.978 -139.269 982.149 222 210 196
54.978 -138.769 982.210 222 210 196
54.978 -138.269 982.247 222 210 196
54.978 -137.769 982.243 222 210 196
54.978 -137.269 982.190 217 205 191
54.978 -136.769 982.080 209 197 185
54.978 -136.269 981.910 205 193 181
54.978 -135.769 981.759 210 198 186
54.978 -135.269 981.625 196 184 171
54.978 -134.769 981.445 174 160 149
54.978 -134.269 981.218 183 168 157
54.978 -133.769 981.042 188 174 163
54.978 -133.269 980.896 192 179 165
54.978 -132.769 980.795 209 195 182
54.978 -132.269 980.699 216 202 189
55.478 -141.269 981.662 214 202 186
55.478 -140.769 981.736 219 207 191
55.478 -140.269 981.842 222 210 194
55.478 -139.769 981.938 223 211 197
55.478 -139.269 982.044 223 211 197
55.478 -138.769 982.122 225 213 199
55.478 -138.269 982.167 225 213 199
55.478 -137.769 982.178 222 210 196
55.478 -137.269 982.132 218 206 192
55.478 -136.769 982.057 205 193 181
55.478 -136.269 981.955 211 199 187
55.478 -135.769 981.850 220 208 196
55.478 -135.269 981.744 203 191 179
55.478 -134.769 981.606 179 164 153
55.478 -134.269 981.410 191 177 166
55.478 -133.769 981.243 200 186 175
55.478 -133.269 981.078 195 181 168
55.478 -132.769 980.954 211 197 184
55.478 -132.269 980.824 217 203 190
55.978 -141.269 981.312 224 211 195
55.978 -140.769 981.441 219 207 191
55.978 -140.269 981.542 219 207 191
55.978 -139.769 981.679 223 211 197
55.978 -139.269 981.818 225 213 199
55.978 -138.769 981.909 225 213 199
55.978 -138.269 981.988 222 210 196
55.978 -137.769 982.042 222 210 196
55.978 -137.269 982.050 210 198 184
55.978 -136.769 982.026 204 192 178
55.978 -136.269 981.970 220 208 194
55.978 -135.769 981.911 220 208 194
55.978 -135.269 981.848 212 200 186
55.978 -134.769 981.737 200 186 173
55.978 -134.269 981.572 195 181 168
55.978 -133.769 981.422 201 187 174
55.978 -133.269 981.269 195 181 168
55.978 -132.769 981.118 207 193 180
55.978 -132.269 980.976 215 201 188
56.478 -141.269 980.958 226 213 197
56.478 -140.769 981.088 219 207 191
56.478 -140.269 981.239 224 212 196
56.478 -139.769 981.442 227 215 199
56.478 -139.269 981.571 225 213 197
56.478 -138.769 981.687 222 210 195
56.478 -138.269 981.817 222 210 194
56.478 -137.769 981.912 215 203 188
56.478 -137.269 981.968 205 193 177
56.478 -136.769 981.999 213 201 187
56.478 -136.269 981.997 222 210 196
56.478 -135.769 981.963 219 207 193
56.478 -135.269 981.932 217 204 190
56.478 -134.769 981.857 213 199 186
56.478 -134.269 981.695 192 179 165
56.478 -133.769 981.552 189 175 162
56.478 -133.269 981.422 198 184 171
56.478 -132.769 981.267 202 188 175
56.478 -132.269 981.114 207 193 180
56.978 -141.269 980.619 227 215 198
56.978 -140.769 980.727 228 217 199
56.978 -140.269 980.896 228 217 199
56.978 -139.769 981.136 231 218 202
56.978 -139.269 981.283 228 216 200
56.978 -138.769 981.455 222 210 194
56.978 -138.269 981.638 217 205 189
56.978 -137.769 981.762 212 200 184
56.978 -137.269 981.852 215 203 187
56.978 -136.769 981.938 219 207 193
56.978 -136.269 982.000 219 207 193
56.978 -135.769 982.006 220 208 194
56.978 -135.269 981.990 221 208 195
56.978 -134.769 981.958 221 207 194
56.978 -134.269 981.854 187 173 160
56.978 -133.769 981.708 194 180 167
56.978 -133.269 981.554 202 188 175
56.978 -132.769 981.418 203 189 176
56.978 -132.269 981.271 207 193 180
57.478 -141.269 980.255 222 210 193
57.478 -140.769 980.392 226 215 197
57.478 -140.269 980.542 230 218 200
57.478 -139.769 980.772 230 217 201
57.478 -139.269 980.957 228 216 200
57.478 -138.769 981.161 225 213 197
57.478 -138.269 981.339 219 207 191
57.478 -137.769 981.531 219 207 191
57.478 -137.269 981.709 224 212 196
57.478 -136.769 981.830 213 201 185
57.478 -136.269 981.951 213 201 185
57.478 -135.769 982.022 221 209 193
57.478 -135.269 982.034 221 209 193
57.478 -134.769 982.030 221 208 192
57.478 -134.269 981.984 190 177 161
57.478 -133.769 981.871 204 191 175
57.478 -133.269 981.692 206 192 179
57.478 -132.769 981.547 208 194 181
57.478 -132.269 981.447 212 198 185
57.978 -141.269 979.950 222 210 192
57.978 -140.769 980.080 224 212 195
57.978 -140.269 980.238 222 210 193
57.978 -139.769 980.455 227 215 199
57.978 -139.269 980.664 226 214 198
57.978 -138.769 980.887 227 215 199
57.978 -138.269 981.076 227 215 199
57.978 -137.769 981.291 224 212 196
57.978 -137.269 981.526 226 214 199
57.978 -136.769 981.703 222 210 194
57.978 -136.269 981.871 215 203 188
57.978 -135.769 982.007 218 206 190
57.978 -135.269 982.070 223 210 194
57.978 -134.769 982.089 220 207 191
57.978 -134.269 982.066 200 187 171
57.978 -133.769 981.990 210 197 181
57.978 -133.269 981.849 208 194 181
57.978 -132.769 981.676 208 194 181
57.978 -132.269 981.565 209 195 182
58.478 -141.269 979.679 224 211 194
58.478 -140.769 979.795 224 211 195
58.478 -140.269 979.972 221 208 192
58.478 -139.769 980.149 223 210 194
58.478 -139.269 980.333 228 215 199
58.478 -138.769 980.559 228 215 199
58.478 -138.269 980.804 228 216 200
58.478 -137.769 981.012 226 214 200
58.478 -137.269 981.241 224 213 199
58.478 -136.769 981.491 221 210 196
58.478 -136.269 981.721 211 199 185
58.478 -135.769 981.901 202 190 176
58.478 -135.269 982.037 217 203 190
58.478 -134.769 982.104 224 210 195
58.478 -134.269 982.104 208 195 179
58.478 -133.769 982.050 211 197 182
58.478 -133.269 981.945 207 193 180
58.478 -132.769 981.795 204 190 177
58.478 -132.269 981.650 209 195 182
58.978 -141.269 979.419 224 211 194
58.978 -140.769 979.530 222 209 193
58.978 -140.269 979.694 216 203 187
58.978 -139.769 979.852 222 209 193
58.978 -139.269 980.010 227 214 198
58.978 -138.769 980.174 226 213 197
58.978 -138.269 980.458 227 215 199
58.978 -137.769 980.733 230 217 204
58.978 -137.269 980.942 228 218 204
58.978 -136.769 981.181 226 214 200
58.978 -136.269 981.481 214 202 188
58.978 -135.769 981.710 186 174 160
58.978 -135.269 981.893 200 187 173
58.978 -134.769 982.006 224 211 195
58.978 -134.269 982.056 218 205 189
58.978 -133.769 982.025 214 201 185
58.978 -133.269 981.931 214 200 187
58.978 -132.769 981.828 213 199 186
58.978 -132.269 981.705 214 200 187
59.478 -141.269 979.241 223 210 193
59.478 -140.769 979.321 223 210 194
59.478 -140.269 979.441 221 208 192
59.478 -139.769 979.592 219 206 190
59.478 -139.269 979.712 227 214 198
59.478 -138.769 979.824 226 214 198
59.478 -138.269 980.088 228 216 200
59.478 -137.769 980.411 231 218 205
59.478 -137.269 980.637 233 222 207
59.478 -136.769 980.883 234 222 208
59.478 -136.269 981.209 225 213 199
59.478 -135.769 981.498 205 193 179
59.478 -133.769 981.907 219 206 190
59.478 -133.269 981.833 221 208 192
59.478 -132.769 981.772 221 208 192
59.478 -132.269 981.677 219 206 190
59.978 -141.269 979.091 226 213 196
59.978 -140.769 979.162 226 213 197
59.978 -140.269 979.245 224 211 195
59.978 -139.769 979.348 220 207 191
59.978 -139.269 979.425 224 211 195
59.978 -138.769 979.548 226 214 198
59.978 -138.269 979.760 228 216 200
59.978 -137.769 980.016 233 221 207
59.978 -137.269 980.273 235 224 210
51.478 -140.769 982.240 208 194 181
51.478 -140.269 982.247 209 195 182
51.478 -139.769 982.256 204 190 177
51.478 -139.269 982.251 216 202 189
51.478 -138.769 982.241 222 208 195
51.478 -138.269 982.214 220 206 193
51.478 -137.769 982.073 212 198 185
51.478 -137.269 981.870 196 183 170
51.478 -136.769 981.651 187 172 161
51.478 -136.269 981.311 184 169 158
51.478 -135.769 980.917 186 172 161
51.478 -135.269 980.709 187 173 160
51.478 -134.769 980.470 186 174 158
51.478 -134.269 980.219 195 184 167
51.478 -133.769 980.030 204 192 176
51.478 -133.269 979.916 198 188 173
51.478 -132.769 979.824 193 181 170
51.478 -132.269 979.797 193 181 170
60.478 -141.269 978.925 227 214 198
60.978 -140.769 978.851 230 216 200
60.478 -140.769 978.985 231 217 201
60.478 -140.269 979.068 228 215 199
60.478 -139.769 979.146 223 210 194
60.478 -139.269 979.206 219 206 190
60.478 -138.769 979.316 226 214 198
60.478 -138.269 979.501 232 219 204
17.978 -131.769 977.257 227 215 201
17.978 -131.269 977.260 226 214 200
17.978 -130.769 977.267 225 213 199
17.978 -130.269 977.277 222 210 196
17.978 -129.769 977.262 225 213 199
17.978 -129.269 977.253 224 212 198
17.978 -128.769 977.271 219 207 193
17.978 -128.269 977.282 223 211 197
17.978 -127.769 977.249 224 212 198
17.978 -127.269 977.244 228 216 202
17.978 -126.769 977.257 231 218 205
17.978 -126.269 977.285 230 217 202
17.978 -125.769 977.279 224 212 197
17.978 -125.269 977.282 225 213 198
17.978 -124.769 977.281 231 218 204
18.478 -131.769 977.247 224 212 198
18.478 -131.269 977.258 221 209 195
18.478 -130.769 977.264 223 211 197
18.478 -130.269 977.272 220 208 194
18.478 -129.769 977.262 219 207 193
18.478 -129.269 977.255 224 212 198
18.478 -128.769 977.260 222 210 196
18.478 -128.269 977.275 227 215 201
18.478 -127.769 977.246 228 216 202
18.478 -127.269 977.250 231 218 205
18.478 -126.769 977.249 231 218 202
18.478 -126.269 977.274 228 216 200
18.478 -125.769 977.270 226 214 198
18.478 -125.269 977.269 224 212 196
18.478 -124.769 977.258 230 217 201
18.478 -124.269 977.253 231 218 202
18.478 -123.769 977.267 231 218 205
18.478 -123.269 977.254 230 217 204
18.978 -131.769 977.218 221 209 195
18.978 -131.269 977.251 212 200 186
18.978 -130.769 977.260 222 210 196
18.978 -130.269 977.255 225 213 199
18.978 -129.769 977.258 227 215 201
18.978 -129.269 977.259 231 218 205
18.978 -128.769 977.268 230 217 204
18.978 -128.269 977.272 232 219 205
18.978 -127.769 977.247 232 219 205
18.978 -127.269 977.258 232 219 205
18.978 -126.769 977.246 232 219 204
18.978 -126.269 977.264 231 218 202
18.978 -125.769 977.268 231 218 202
18.978 -125.269 977.265 228 216 200
18.978 -124.769 977.241 230 217 201
18.978 -124.269 977.231 233 220 205
18.978 -123.769 977.239 233 220 205
18.978 -123.269 977.236 232 219 204
19.478 -131.769 977.172 222 210 196
19.478 -131.269 977.219 219 207 193
19.478 -130.769 977.244 227 215 201
19.478 -130.269 977.240 227 215 201
19.478 -129.769 977.255 231 218 205
19.478 -129.269 977.264 233 220 206
19.478 -128.269 977.270 233 220 206
19.478 -127.769 977.251 233 220 206
19.478 -127.269 977.257 232 219 205
19.478 -126.769 977.244 233 220 205
19.478 -126.269 977.253 233 220 205
19.478 -125.769 977.256 231 218 202
19.478 -125.269 977.258 232 219 204
19.478 -124.769 977.237 232 219 204
19.478 -124.269 977.212 233 220 205
19.478 -123.769 977.211 233 220 205
19.478 -123.269 977.219 232 219 204
19.978 -150.269 976.218 210 197 181
19.978 -144.269 976.814 214 202 188
19.978 -131.769 977.140 224 212 196
19.978 -131.269 977.172 226 214 198
19.978 -130.769 977.209 227 215 199
19.978 -130.269 977.218 228 216 202
19.978 -129.769 977.242 231 218 205
19.978 -129.269 977.253 233 220 205
19.978 -128.769 977.255 233 221 205
19.978 -128.269 977.253 233 220 205
19.978 -127.769 977.241 232 219 204
19.978 -127.269 977.226 232 219 204
19.978 -126.769 977.228 232 219 205
19.978 -126.269 977.221 233 221 205
19.978 -125.269 977.233 233 221 205
19.978 -124.769 977.224 234 222 206
19.978 -124.269 977.201 234 222 206
19.978 -123.269 977.199 230 217 205
20.478 -131.769 977.132 222 210 196
20.478 -131.269 977.146 223 211 197
20.478 -130.769 977.171 227 215 201
20.478 -130.269 977.189 231 218 205
20.478 -129.769 977.213 232 219 205
20.478 -129.269 977.233 231 218 204
20.478 -128.769 977.235 233 220 205
20.478 -128.269 977.218 233 220 205
20.478 -127.769 977.209 231 218 202
20.478 -127.269 977.189 230 217 201
20.478 -126.769 977.202 231 218 202
20.478 -126.269 977.195 233 221 205
20.478 -125.769 977.210 233 221 205
20.478 -125.269 977.207 233 221 205
20.478 -124.769 977.201 233 220 205
20.478 -124.269 977.169 233 220 205
20.478 -123.769 977.170 224 210 197
20.478 -123.269 977.186 223 210 196
20.978 -131.769 977.116 220 208 194
20.978 -131.269 977.127 224 212 198
20.978 -130.769 977.135 226 214 200
20.978 -130.269 977.153 228 216 202
20.978 -129.769 977.174 230 217 204
20.978 -129.269 977.197 232 219 205
20.978 -128.769 977.207 233 220 205
20.978 -128.269 977.187 233 220 205
20.978 -127.769 977.182 230 217 201
20.978 -127.269 977.170 227 215 199
20.978 -126.769 977.175 231 218 202
20.978 -126.269 977.170 233 220 205
20.978 -125.769 977.178 232 219 204
20.978 -125.269 977.186 234 222 206
20.978 -124.769 977.188 232 219 205
20.978 -124.269 977.161 224 212 198
20.978 -123.769 977.167 211 196 181
20.978 -123.269 977.183 209 196 181
21.478 -147.269 976.433 210 198 186
21.478 -131.769 977.076 219 207 193
21.478 -131.269 977.098 223 211 197
21.478 -130.769 977.117 223 211 197
21.478 -130.269 977.129 224 212 198
21.478 -129.769 977.150 230 217 204
21.478 -129.269 977.157 231 218 205
21.478 -128.769 977.168 228 216 200
21.478 -128.269 977.163 231 218 202
21.478 -127.769 977.156 231 218 202
21.478 -127.269 977.149 228 216 200
21.478 -126.769 977.143 232 218 201
21.478 -126.269 977.141 233 220 205
21.478 -125.769 977.148 231 217 201
21.478 -125.269 977.159 228 215 200
21.478 -124.769 977.164 227 213 200
21.478 -124.269 977.158 207 193 180
21.478 -123.769 977.162 192 179 163
21.478 -123.269 977.170 195 181 168
21.978 -131.769 977.032 226 214 200
21.978 -131.269 977.068 226 214 201
21.978 -130.769 977.104 227 215 202
21.978 -130.269 977.120 227 215 201
21.978 -129.769 977.146 231 218 205
21.978 -129.269 977.149 231 218 205
21.978 -128.769 977.152 230 217 201
21.978 -128.269 977.149 228 216 200
21.978 -127.769 977.124 228 216 200
21.978 -127.269 977.115 227 215 198
21.978 -126.769 977.109 225 212 195
21.978 -126.269 977.112 221 208 192
21.978 -125.769 977.120 219 206 190
21.978 -125.269 977.144 213 200 185
21.978 -124.769 977.145 208 194 181
21.978 -124.269 977.150 196 183 171
21.978 -123.769 977.150 197 185 172
21.978 -123.269 977.162 205 194 180
22.478 -131.769 977.001 227 215 204
22.478 -131.269 977.035 224 212 200
22.478 -130.769 977.083 227 215 204
22.478 -130.269 977.105 231 218 205
22.478 -129.769 977.134 230 217 204
22.478 -129.269 977.146 228 216 201
22.478 -128.769 977.147 226 214 198
22.478 -128.269 977.140 223 211 195
22.478 -127.769 977.102 225 213 197
22.478 -127.269 977.086 225 213 197
22.478 -126.769 977.079 212 199 182
22.478 -126.269 977.085 193 180 163
22.478 -125.769 977.087 194 181 165
22.478 -125.269 977.123 194 180 167
22.478 -124.769 977.135 196 183 171
22.478 -124.269 977.135 206 193 182
22.478 -123.769 977.147 206 196 185
22.478 -123.269 977.167 200 190 179
22.978 -131.769 976.986 217 205 190
22.978 -131.269 977.021 222 210 196
22.978 -130.769 977.064 225 213 199
22.978 -130.269 977.089 226 213 197
22.978 -129.769 977.117 224 211 195
22.978 -129.269 977.139 225 212 196
22.978 -128.769 977.142 222 209 193
22.978 -128.269 977.129 209 196 179
22.978 -127.769 977.096 217 204 187
22.978 -127.269 977.084 221 207 191
22.978 -126.769 977.071 210 194 178
22.978 -126.269 977.062 190 177 161
22.978 -125.769 977.053 193 179 166
22.978 -125.269 977.083 188 177 165
22.978 -124.769 977.109 202 190 181
22.978 -124.269 977.126 202 191 182
22.978 -123.769 977.156 212 204 193
22.978 -123.269 977.167 208 199 188
23.478 -131.769 976.975 219 207 191
23.478 -131.269 977.011 216 204 188
23.478 -130.769 977.040 218 206 190
23.478 -130.269 977.074 223 210 194
23.478 -129.769 977.102 222 209 193
23.478 -129.269 977.123 220 207 191
23.478 -128.769 977.126 222 209 193
23.478 -128.269 977.123 200 187 171
23.478 -127.769 977.096 205 192 176
23.478 -127.269 977.090 204 191 175
23.478 -126.769 977.063 203 190 174
23.478 -126.269 977.050 203 189 176
23.478 -125.769 977.049 198 186 174
23.478 -125.269 977.063 202 191 180
23.478 -124.769 977.093 190 180 171
23.478 -124.269 977.131 206 197 187
23.478 -123.769 977.159 209 201 188
23.478 -123.269 977.159 216 206 194
14.978 -131.269 977.298 230 220 205
14.978 -130.269 977.355 231 221 206
14.978 -129.769 977.373 234 225 210
14.978 -129.269 977.391 235 226 211
14.978 -128.769 977.429 233 221 207
14.978 -128.269 977.435 230 217 204
14.978 -127.269 977.469 209 197 183
14.978 -126.769 977.477 202 190 176
14.978 -126.269 977.506 203 191 177
14.978 -125.769 977.480 211 199 185
14.978 -124.769 977.424 222 210 196
14.978 -124.269 977.408 226 214 200
14.978 -123.769 977.379 221 211 200
14.978 -123.269 977.368 215 205 196
15.478 -137.769 977.100 223 214 199
15.478 -131.769 977.271 228 219 205
15.478 -131.269 977.290 228 219 205
15.478 -130.769 977.294 219 210 195
15.478 -129.769 977.347 231 221 206
15.478 -129.269 977.365 231 221 206
15.478 -128.769 977.388 227 218 204
15.478 -128.269 977.392 230 217 204
15.478 -126.769 977.431 204 192 178
15.478 -124.269 977.390 227 215 201
15.478 -123.269 977.353 222 210 199
15.478 -106.269 977.826 214 201 185
15.978 -131.769 977.268 221 212 197
15.978 -131.269 977.287 217 208 193
15.978 -130.769 977.286 219 210 195
15.978 -130.269 977.294 230 222 206
15.978 -129.769 977.323 226 218 204
15.978 -129.269 977.344 224 215 200
15.978 -128.769 977.353 220 211 196
15.978 -128.269 977.349 225 214 200
15.978 -127.769 977.352 222 210 196
15.978 -127.269 977.369 204 192 179
15.978 -126.769 977.370 198 186 174
15.978 -126.269 977.386 224 213 201
15.978 -125.769 977.372 233 221 209
15.978 -125.269 977.373 225 214 202
15.978 -124.769 977.367 223 212 200
15.978 -124.269 977.361 226 215 202
15.978 -123.769 977.329 225 213 197
15.978 -123.269 977.332 223 211 197
16.478 -147.769 976.830 221 206 192
16.478 -130.769 977.274 223 212 198
16.478 -130.269 977.281 228 217 204
16.478 -129.769 977.300 227 215 201
16.478 -129.269 977.314 228 217 204
16.478 -128.769 977.326 220 209 195
16.478 -128.269 977.322 223 212 197
16.478 -127.769 977.318 221 209 195
16.478 -127.269 977.310 206 194 181
16.478 -125.269 977.352 230 217 205
16.478 -124.769 977.338 226 214 201
16.478 -123.769 977.309 218 206 193
16.478 -123.269 977.314 211 199 186
16.978 -150.269 976.320 212 202 190
16.978 -131.769 977.264 221 209 195
16.978 -131.269 977.271 221 209 195
16.978 -130.769 977.273 218 206 192
16.978 -130.269 977.277 225 213 199
16.978 -129.769 977.274 227 215 201
16.978 -129.269 977.280 225 213 199
16.978 -128.769 977.301 225 213 199
16.978 -128.269 977.304 222 210 196
16.978 -127.769 977.295 217 205 191
16.978 -127.269 977.270 217 205 191
16.978 -126.769 977.290 212 200 186
16.978 -126.269 977.304 224 212 198
16.978 -125.769 977.308 231 218 205
16.978 -125.269 977.332 228 216 202
16.978 -124.769 977.318 228 216 202
16.978 -123.769 977.304 222 210 198
16.978 -123.269 977.301 215 203 191
17.478 -131.769 977.261 225 213 199
17.478 -131.269 977.268 222 210 196
17.478 -130.269 977.276 227 215 201
17.478 -129.769 977.262 228 216 202
17.478 -129.269 977.258 219 207 193
17.478 -128.769 977.285 221 209 195
17.478 -128.269 977.289 224 212 198
17.478 -127.769 977.266 219 207 193
17.478 -127.269 977.249 224 212 198
17.478 -126.769 977.269 225 213 199
17.478 -126.269 977.289 224 212 198
17.478 -125.769 977.291 224 212 198
17.478 -125.269 977.305 225 213 199
17.478 -124.769 977.301 228 216 202
17.478 -124.269 977.298 226 214 200
17.478 -123.769 977.297 224 212 198
17.478 -123.269 977.291 220 208 194
17.978 -146.269 976.759 212 198 185
17.978 -123.769 977.282 228 216 202
17.978 -123.269 977.273 227 215 201
18.978 -145.769 976.655 207 197 185
18.978 -142.769 976.917 208 196 182
19.478 -95.269 983.502 236 226 210
20.978 -146.269 976.515 216 204 190
24.478 -131.769 976.945 211 199 183
24.478 -131.269 976.973 221 209 192
24.478 -130.769 977.008 217 206 188
24.478 -130.269 977.051 218 205 189
24.478 -129.769 977.078 218 205 189
24.478 -129.269 977.108 219 206 190
24.478 -128.769 977.121 209 197 182
24.478 -128.269 977.095 198 186 172
24.478 -127.769 977.079 184 170 157
24.478 -127.269 977.069 192 180 167
24.478 -126.769 977.051 202 190 178
24.478 -126.269 977.044 214 202 190
24.478 -125.769 977.047 190 179 167
24.478 -125.269 977.071 175 166 154
24.478 -124.769 977.102 184 174 165
24.478 -124.269 977.156 199 190 180
24.478 -123.769 977.176 219 207 194
24.478 -123.269 977.169 219 207 193
24.978 -131.769 976.945 211 200 182
24.978 -131.269 976.982 224 213 195
24.978 -130.769 977.005 220 209 191
24.978 -130.269 977.044 221 210 192
24.978 -129.769 977.074 226 214 198
24.978 -129.269 977.095 228 216 200
24.978 -128.769 977.112 205 193 179
24.978 -128.269 977.087 192 180 166
24.978 -127.769 977.073 192 180 168
24.978 -127.269 977.067 196 184 172
24.978 -126.769 977.073 219 207 195
24.978 -126.269 977.073 217 205 193
24.978 -125.769 977.081 210 198 186
24.978 -125.269 977.099 214 202 190
24.978 -124.769 977.129 214 202 190
24.978 -124.269 977.188 214 202 189
24.978 -123.769 977.218 217 203 190
24.978 -123.269 977.208 218 205 189
25.478 -131.769 976.944 227 216 198
25.478 -131.269 976.990 221 210 192
25.478 -130.769 977.005 221 210 192
25.478 -130.269 977.033 224 213 195
25.478 -129.769 977.066 226 214 198
25.478 -129.269 977.085 220 208 193
25.478 -128.769 977.106 188 176 162
25.478 -128.269 977.081 188 176 164
25.478 -127.769 977.072 203 191 179
25.478 -127.269 977.075 209 197 185
25.478 -126.769 977.097 213 199 188
25.478 -126.269 977.100 219 205 192
25.478 -125.769 977.107 210 196 183
25.478 -125.269 977.128 211 197 184
25.478 -124.769 977.173 219 206 190
25.478 -124.269 977.221 218 205 189
25.478 -123.769 977.242 217 204 188
25.478 -123.269 977.238 215 202 186
25.978 -131.769 976.955 224 212 195
25.978 -131.269 976.989 226 215 197
25.978 -130.769 977.008 227 216 198
25.978 -130.269 977.029 227 215 198
25.978 -129.769 977.066 222 210 194
25.978 -129.269 977.089 211 199 183
25.978 -128.769 977.101 190 177 163
25.978 -128.269 977.080 203 190 178
25.978 -127.769 977.074 198 185 173
25.978 -127.269 977.089 200 186 174
25.978 -126.769 977.119 202 188 172
25.978 -126.269 977.125 192 179 163
25.978 -125.769 977.156 192 176 161
25.978 -125.269 977.173 196 180 165
25.978 -124.769 977.216 220 204 188
25.978 -124.269 977.231 220 205 189
25.978 -123.769 977.255 219 206 190
25.978 -123.269 977.245 218 205 189
26.478 -131.769 976.950 219 206 190
26.478 -131.269 976.979 233 219 204
26.478 -130.769 977.006 223 211 195
26.478 -130.269 977.025 220 208 193
26.478 -129.769 977.060 210 198 184
26.478 -129.269 977.080 200 188 173
26.478 -128.769 977.094 199 185 172
26.478 -128.269 977.077 196 183 170
26.478 -127.769 977.085 194 180 167
26.478 -127.269 977.098 197 181 166
26.478 -126.769 977.131 206 190 174
26.478 -126.269 977.141 205 189 173
26.478 -125.769 977.192 207 191 175
26.478 -125.269 977.216 212 197 181
26.478 -124.769 977.241 219 206 189
26.478 -124.269 977.244 212 199 182
26.478 -123.769 977.269 217 204 188
26.478 -123.269 977.264 219 205 189
26.978 -131.769 976.945 200 188 174
26.978 -131.269 976.977 209 197 183
26.978 -130.769 977.002 207 195 181
26.978 -130.269 977.030 202 190 176
26.978 -129.769 977.059 194 183 168
26.978 -129.269 977.059 196 184 171
26.978 -128.769 977.078 199 185 172
26.978 -128.269 977.075 196 183 170
26.978 -127.769 977.091 189 176 160
26.978 -127.269 977.102 197 184 167
26.978 -126.769 977.133 214 198 182
26.978 -126.269 977.156 220 204 188
26.978 -125.769 977.191 220 204 188
26.978 -125.269 977.228 215 200 184
26.978 -124.769 977.244 213 200 183
26.978 -124.269 977.247 198 185 168
26.978 -123.769 977.263 210 197 181
26.978 -123.269 977.268 221 208 192
27.478 -131.769 976.929 197 185 173
27.478 -131.269 976.965 191 180 168
27.478 -130.769 977.000 184 173 161
27.478 -130.269 977.027 191 179 165
27.478 -129.769 977.047 197 185 171
27.478 -129.269 977.048 199 187 173
27.478 -128.769 977.070 194 180 167
27.478 -128.269 977.088 197 184 168
27.478 -127.769 977.111 206 193 177
27.478 -127.269 977.120 215 201 185
27.478 -126.769 977.141 218 202 187
27.478 -126.269 977.160 218 202 187
27.478 -125.769 977.184 217 201 186
27.478 -125.269 977.232 213 200 184
27.478 -124.769 977.238 209 196 180
27.478 -124.269 977.247 202 189 173
27.478 -123.769 977.259 211 198 182
27.478 -123.269 977.272 220 207 191
27.978 -131.769 976.915 175 166 155
27.978 -131.269 976.965 175 166 155
27.978 -130.769 977.010 179 170 159
27.978 -130.269 977.031 194 183 171
27.978 -129.769 977.050 199 187 173
27.978 -129.269 977.049 200 188 174
27.978 -128.769 977.071 201 188 172
27.978 -128.269 977.098 208 195 179
27.978 -127.769 977.126 219 206 190
27.978 -127.269 977.137 221 207 192
27.978 -126.769 977.162 219 203 188
27.978 -126.269 977.177 219 204 189
27.978 -125.769 977.193 217 204 188
27.978 -125.269 977.230 216 203 187
27.978 -124.769 977.232 214 201 185
27.978 -124.269 977.253 211 199 183
27.978 -123.769 977.268 216 203 187
27.978 -123.269 977.285 220 208 192
28.478 -131.769 976.913 191 183 173
28.478 -131.269 976.974 192 184 174
28.478 -130.769 977.016 189 180 171
28.478 -130.269 977.038 205 193 181
28.478 -129.769 977.059 217 205 193
28.478 -129.269 977.056 216 204 191
28.478 -128.769 977.065 216 203 187
28.478 -128.269 977.090 218 205 189
28.478 -127.769 977.127 219 206 189
28.478 -127.269 977.162 223 210 193
28.478 -126.769 977.182 219 206 190
28.478 -126.269 977.202 219 206 190
28.478 -125.769 977.218 221 208 192
28.478 -125.269 977.236 221 208 192
28.478 -124.769 977.243 222 210 194
28.478 -124.269 977.273 224 212 196
28.478 -123.769 977.288 227 215 199
28.478 -123.269 977.307 230 217 201
28.978 -131.769 976.924 213 204 194
28.978 -131.269 976.980 224 216 206
28.978 -130.769 977.019 216 207 198
28.978 -130.269 977.049 222 210 199
28.978 -129.769 977.059 220 208 196
28.978 -129.269 977.062 220 208 195
28.978 -128.769 977.062 220 207 191
28.978 -128.269 977.081 223 210 194
28.978 -127.769 977.130 224 211 194
28.978 -127.269 977.179 221 208 192
28.978 -126.769 977.195 222 208 195
28.978 -126.269 977.221 225 211 198
28.978 -125.769 977.247 228 214 201
28.978 -125.269 977.274 230 217 204
28.978 -124.769 977.304 228 216 202
28.978 -124.269 977.352 226 214 200
28.978 -123.769 977.337 224 213 197
28.978 -123.269 977.370 226 214 198
29.478 -131.769 976.946 222 212 200
29.478 -131.269 976.999 219 209 198
29.478 -130.769 977.023 216 206 195
29.478 -130.269 977.056 222 210 196
29.478 -129.769 977.061 222 210 194
29.478 -129.269 977.073 224 213 196
29.478 -128.769 977.069 223 212 193
29.478 -128.269 977.083 223 212 192
29.478 -127.769 977.141 224 213 195
29.478 -127.269 977.182 219 208 191
29.478 -126.769 977.203 225 213 197
29.478 -126.269 977.238 230 217 201
29.478 -125.769 977.280 232 219 205
29.478 -125.269 977.347 230 218 205
29.478 -124.769 977.400 230 219 207
29.478 -124.269 977.437 201 191 179
29.478 -123.769 977.429 214 207 191
29.478 -123.269 977.447 220 211 197
29.978 -131.769 976.955 216 206 194
29.978 -131.269 977.011 215 205 193
29.978 -130.769 977.027 220 210 198
29.978 -130.269 977.053 221 209 195
29.978 -129.769 977.062 223 211 195
29.978 -129.269 977.082 224 213 195
29.978 -128.769 977.081 222 211 192
29.978 -128.269 977.110 222 211 191
29.978 -127.769 977.156 221 210 192
29.978 -127.269 977.195 223 211 194
29.978 -126.769 977.223 227 215 201
29.978 -126.269 977.255 222 211 197
29.978 -125.769 977.324 226 214 204
29.978 -125.269 977.429 230 219 208
29.978 -124.769 977.477 237 227 218
29.978 -124.269 977.520 217 207 197
29.978 -123.769 977.529 194 186 174
29.978 -123.269 977.537 201 193 181
30.478 -131.769 976.957 213 201 189
30.478 -131.269 977.006 221 210 198
30.478 -130.769 977.029 222 211 199
30.478 -130.269 977.054 224 212 198
30.478 -129.769 977.067 221 209 193
30.478 -129.269 977.090 224 213 195
30.478 -128.769 977.104 222 211 193
30.478 -128.269 977.144 222 211 193
30.478 -127.769 977.176 225 213 196
30.478 -127.269 977.224 223 212 196
30.478 -126.769 977.252 223 212 202
30.478 -126.269 977.290 208 198 188
30.478 -125.769 977.384 209 199 190
30.478 -125.269 977.505 212 203 194
30.478 -124.769 977.549 211 202 194
30.478 -124.269 977.619 220 211 204
30.478 -123.769 977.654 217 208 198
30.478 -123.269 977.702 227 218 209
30.978 -131.769 976.952 220 208 194
30.978 -131.269 976.991 224 212 198
30.978 -130.769 977.027 222 210 196
30.978 -130.269 977.055 232 219 205
30.978 -129.769 977.077 230 217 201
30.978 -129.269 977.098 226 215 198
30.978 -128.769 977.129 224 213 195
30.978 -128.269 977.173 221 209 193
30.978 -127.769 977.205 227 215 201
30.978 -127.269 977.271 228 217 205
30.978 -126.769 977.295 219 209 199
30.978 -126.269 977.363 193 184 175
30.978 -125.769 977.483 200 191 182
30.978 -125.269 977.584 185 176 170
30.978 -124.769 977.655 190 184 177
30.978 -124.269 977.696 216 209 204
30.978 -123.769 977.750 238 232 223
30.978 -123.269 977.816 241 233 225
31.478 -131.769 976.952 228 216 202
31.478 -131.269 976.984 225 213 199
31.478 -130.769 977.030 222 210 196
31.478 -130.269 977.071 230 217 204
31.478 -129.769 977.110 231 218 202
31.478 -129.269 977.125 227 215 198
31.478 -128.769 977.158 228 216 200
31.478 -128.269 977.217 216 204 188
31.478 -127.769 977.258 230 217 204
31.478 -127.269 977.353 230 219 208
31.478 -126.769 977.386 237 230 218
31.478 -126.269 977.493 210 201 192
31.478 -125.769 977.592 199 190 181
31.478 -125.269 977.679 225 218 210
31.478 -124.769 977.745 211 204 198
31.478 -124.269 977.785 239 233 226
31.478 -123.769 977.827 234 227 221
31.478 -123.269 977.904 210 203 195
31.978 -131.769 976.984 231 218 205
31.978 -131.269 977.005 225 213 199
31.978 -130.769 977.052 222 210 196
31.978 -130.269 977.115 227 215 199
31.978 -129.769 977.158 230 217 201
31.978 -129.269 977.171 227 215 199
31.978 -128.769 977.195 226 214 198
31.978 -128.269 977.307 226 214 200
31.978 -127.769 977.391 232 219 207
31.978 -127.269 977.511 232 221 209
31.978 -126.769 977.592 233 225 214
31.978 -126.269 977.662 228 222 210
31.978 -125.769 977.743 223 216 206
31.978 -125.269 977.816 219 212 204
31.978 -124.769 977.862 213 209 200
31.978 -124.269 977.976 227 223 214
31.978 -123.769 978.046 202 195 189
31.978 -123.269 978.118 194 187 178
32.478 -131.769 977.056 225 212 197
32.478 -131.269 977.072 224 212 196
32.478 -130.769 977.115 222 209 193
32.478 -130.269 977.174 224 211 197
32.478 -129.769 977.202 227 213 200
32.478 -129.269 977.241 230 216 202
32.478 -128.769 977.272 228 214 200
32.478 -128.269 977.418 226 212 199
32.478 -127.769 977.569 228 216 204
32.478 -127.269 977.686 224 213 201
32.478 -126.769 977.843 225 218 205
32.478 -126.269 977.905 227 219 208
32.478 -125.769 977.978 226 219 208
32.478 -125.269 978.066 218 210 201
32.478 -124.769 978.100 207 199 191
32.478 -124.269 978.228 213 205 197
32.478 -123.769 978.387 217 208 201
32.478 -123.269 978.389 191 183 174
32.978 -131.769 977.128 220 207 191
32.978 -131.269 977.153 220 207 191
32.978 -130.769 977.212 220 207 191
32.978 -130.269 977.278 220 207 191
32.978 -129.769 977.290 221 208 192
32.978 -129.269 977.381 223 210 195
32.978 -128.769 977.451 226 212 199
32.978 -128.269 977.582 225 213 199
32.978 -127.769 977.744 226 214 200
32.978 -127.269 977.885 224 213 199
32.978 -126.769 978.016 221 213 200
32.978 -126.269 978.162 225 217 206
32.978 -125.769 978.233 211 203 192
32.978 -125.269 978.313 232 222 214
32.978 -124.769 978.359 217 208 201
32.978 -124.269 978.488 207 198 191
32.978 -123.769 978.611 222 213 206
32.978 -123.269 978.592 183 173 166
23.978 -131.769 976.957 217 205 189
23.978 -131.269 976.985 216 205 188
23.978 -130.769 977.020 213 201 185
23.978 -130.269 977.059 218 205 189
23.978 -129.769 977.083 219 206 190
23.978 -129.269 977.109 220 207 191
23.978 -128.769 977.119 218 205 189
23.978 -128.269 977.108 206 193 177
23.978 -127.769 977.095 202 189 173
23.978 -127.269 977.090 206 193 178
23.978 -126.769 977.051 202 190 177
23.978 -126.269 977.042 202 190 176
23.978 -125.769 977.040 208 196 185
23.978 -125.269 977.062 186 176 166
23.978 -124.769 977.087 187 179 170
23.978 -124.269 977.143 203 194 184
23.978 -123.769 977.153 217 207 195
23.978 -123.269 977.153 217 207 194
33.478 -131.769 977.209 206 193 177
33.478 -131.269 977.259 212 199 183
33.478 -130.769 977.369 209 196 180
33.478 -130.269 977.483 203 190 173
33.478 -129.769 977.484 211 198 182
33.478 -129.269 977.575 217 204 188
33.478 -128.769 977.670 224 211 195
33.478 -128.269 977.801 225 213 199
33.478 -127.769 977.955 225 213 199
33.478 -127.269 978.090 228 219 205
33.478 -126.769 978.189 232 223 212
33.478 -126.269 978.371 222 214 204
33.478 -125.769 978.479 215 207 196
33.478 -125.269 978.584 224 215 206
33.478 -124.769 978.626 218 209 202
33.478 -124.269 978.717 200 191 184
33.478 -123.769 978.758 197 188 179
33.478 -123.269 978.757 208 199 190
33.978 -131.769 977.310 208 195 179
33.978 -131.269 977.397 209 196 180
33.978 -130.769 977.536 209 196 180
33.978 -130.269 977.648 205 192 175
33.978 -129.769 977.699 212 199 182
33.978 -129.269 977.744 214 202 185
33.978 -128.769 977.843 217 205 189
33.978 -128.269 978.003 219 208 193
33.978 -127.769 978.149 217 208 194
33.978 -127.269 978.274 232 222 210
33.978 -126.769 978.398 228 220 209
33.978 -126.269 978.589 214 206 195
33.978 -125.769 978.697 211 203 192
33.978 -125.269 978.857 205 196 187
33.978 -124.769 978.884 212 203 194
33.978 -124.269 978.929 201 192 185
33.978 -123.769 978.935 176 168 158
33.978 -123.269 978.925 202 193 184
34.478 -131.769 977.447 213 200 184
34.478 -131.269 977.572 211 198 182
34.478 -130.769 977.701 210 197 181
34.478 -130.269 977.773 206 190 174
34.478 -129.769 977.867 209 196 179
34.478 -129.269 977.902 210 197 182
34.478 -128.769 978.014 209 199 184
34.478 -128.269 978.186 214 205 192
34.478 -127.769 978.312 222 214 204
34.478 -127.269 978.447 233 224 213
34.478 -126.769 978.616 217 209 198
34.478 -126.269 978.754 220 211 201
