213.478 -1.769 1022.361 168 161 155
213.978 -2.769 1021.565 190 181 172
213.978 -2.269 1021.934 186 179 171
213.978 -1.769 1022.362 176 169 163
214.478 -2.769 1021.610 194 185 176
214.478 -2.269 1021.984 189 183 174
214.978 -2.769 1021.597 190 184 175
214.978 -2.269 1022.007 183 175 167
166.478 14.731 1013.025 206 199 189
166.978 14.231 1013.093 214 208 196
166.978 14.731 1013.497 202 195 185
167.478 14.231 1013.435 203 196 186
167.478 14.731 1013.963 206 199 189
167.978 13.731 1013.248 200 193 183
167.978 14.231 1013.782 201 194 184
167.978 14.731 1014.364 217 210 200
168.478 13.231 1013.233 208 200 190
168.478 13.731 1013.721 199 192 182
168.478 14.231 1014.285 216 209 199
168.478 14.731 1014.767 231 223 213
168.978 12.731 1013.059 212 203 194
168.978 13.231 1013.662 205 196 187
168.978 13.731 1014.188 208 201 191
168.978 14.231 1014.754 228 221 213
168.978 14.731 1015.186 222 215 207
169.478 12.731 1013.356 209 200 191
169.478 13.231 1014.043 203 194 185
169.478 13.731 1014.563 221 214 206
169.478 14.231 1015.133 231 223 215
169.478 14.731 1015.577 217 210 202
170.478 12.231 1013.316 208 199 190
170.478 12.731 1014.201 202 193 184
170.478 13.231 1014.873 202 192 183
170.978 12.231 1013.671 206 197 188
170.978 12.731 1014.566 200 191 182
170.978 13.231 1015.243 199 190 181
170.978 13.731 1015.908 212 204 193
170.978 14.231 1016.347 202 193 184
170.978 14.731 1016.740 174 166 159
171.478 11.731 1013.169 199 190 181
171.478 12.231 1013.944 208 199 190
171.478 12.731 1014.876 209 200 191
171.478 13.231 1015.536 203 194 185
171.478 13.731 1016.227 211 202 193
171.478 14.231 1016.685 196 187 178
171.478 14.731 1017.053 168 158 152
171.978 11.731 1013.534 194 185 176
171.978 12.231 1014.299 206 197 188
171.978 12.731 1015.198 202 193 184
171.978 13.231 1015.754 204 195 186
171.978 13.731 1016.442 209 200 192
171.978 14.231 1016.957 159 150 143
171.978 14.731 1017.321 151 143 138
172.478 11.231 1013.227 210 203 193
172.478 11.731 1013.988 209 200 191
172.478 12.231 1014.740 202 193 184
172.478 12.731 1015.544 196 187 178
172.478 13.231 1016.047 209 199 190
172.478 13.731 1016.671 195 186 179
172.478 14.231 1017.203 153 144 138
172.478 14.731 1017.558 174 166 162
172.978 11.231 1013.541 211 204 194
172.978 11.731 1014.361 211 202 193
172.978 12.231 1015.129 209 200 191
172.978 12.731 1015.839 206 197 188
172.978 13.231 1016.498 208 199 190
172.978 13.731 1017.036 170 161 155
172.978 14.231 1017.473 177 168 163
172.978 14.731 1017.789 188 179 176
173.478 10.731 1013.249 210 200 190
173.478 11.231 1013.858 211 201 191
173.478 11.731 1014.689 214 206 195
173.478 12.231 1015.468 214 206 195
173.478 12.731 1016.092 215 207 196
173.478 13.231 1016.867 208 200 189
173.478 13.731 1017.455 184 177 170
173.478 14.231 1017.802 206 199 192
173.478 14.731 1018.015 179 172 166
173.978 10.231 1012.987 212 204 193
173.978 10.731 1013.612 205 196 186
173.978 11.231 1014.366 212 204 193
173.978 11.731 1015.071 216 208 197
173.978 12.231 1015.775 214 206 196
173.978 12.731 1016.350 220 212 202
173.978 13.231 1017.128 202 195 185
173.978 13.731 1017.715 181 174 167
173.978 14.231 1018.054 181 174 168
173.978 14.731 1018.227 179 171 165
174.478 10.231 1013.422 209 201 190
174.478 10.731 1014.144 206 198 187
174.478 11.231 1014.904 208 200 189
174.478 11.731 1015.502 215 207 197
174.478 12.231 1016.139 211 202 193
174.478 12.731 1016.699 194 187 178
174.478 13.231 1017.300 168 161 153
174.478 13.731 1017.781 179 172 167
174.478 14.231 1018.178 169 161 157
174.478 14.731 1018.439 172 167 162
174.978 9.731 1013.169 207 199 188
174.978 10.231 1013.792 210 202 191
174.978 10.731 1014.706 209 201 190
174.978 11.231 1015.321 208 200 190
174.978 11.731 1015.870 212 205 195
174.978 12.231 1016.465 201 194 186
174.978 12.731 1017.015 174 168 161
174.978 13.231 1017.442 162 155 149
174.978 13.731 1017.938 172 168 163
174.978 14.231 1018.367 168 163 159
174.978 14.731 1018.618 176 171 167
175.478 9.231 1013.061 210 202 191
175.478 9.731 1013.485 210 202 191
175.478 10.231 1014.249 207 199 188
175.478 10.731 1015.068 209 201 191
175.478 11.231 1015.662 210 201 192
175.478 11.731 1016.206 211 204 196
175.478 12.231 1016.724 183 175 170
175.478 12.731 1017.195 166 158 153
175.478 13.231 1017.583 179 172 168
175.478 13.731 1018.123 166 160 157
175.478 14.231 1018.501 176 171 168
175.478 14.731 1018.735 181 176 172
175.978 9.231 1013.261 207 199 188
175.978 9.731 1013.878 209 201 190
175.978 10.231 1014.656 210 202 191
175.978 10.731 1015.268 211 203 193
175.978 11.231 1015.862 216 209 199
175.978 11.731 1016.460 198 191 183
175.978 12.231 1016.912 137 130 124
175.978 12.731 1017.319 156 150 147
175.978 13.231 1017.694 160 155 152
175.978 13.731 1018.176 148 143 141
175.978 14.231 1018.518 153 148 146
175.978 14.731 1018.822 157 152 149
176.478 8.731 1013.017 209 201 190
176.478 9.231 1013.645 208 200 189
176.478 9.731 1014.296 207 197 187
176.478 10.231 1014.800 211 202 191
176.478 10.731 1015.446 215 206 195
176.478 11.231 1015.974 226 218 208
176.478 11.731 1016.574 181 172 165
176.478 12.231 1017.042 161 154 148
176.478 12.731 1017.436 155 148 145
176.478 13.231 1017.781 152 147 144
176.478 13.731 1018.229 158 153 151
176.478 14.231 1018.538 144 138 136
176.478 14.731 1018.886 166 160 157
176.978 8.731 1013.371 207 199 188
176.978 9.231 1014.010 206 196 186
176.978 9.731 1014.591 206 196 186
176.978 10.231 1015.034 204 194 184
176.978 10.731 1015.693 202 192 182
176.978 11.231 1016.174 191 183 173
176.978 11.731 1016.694 168 158 151
176.978 12.231 1017.144 179 171 165
176.978 12.731 1017.513 154 147 144
176.978 13.231 1017.840 184 179 175
176.978 13.731 1018.314 189 184 181
176.978 14.231 1018.589 158 153 150
176.978 14.731 1018.908 167 161 158
177.478 8.231 1013.173 208 200 189
177.478 8.731 1013.664 211 201 191
177.478 9.231 1014.214 209 199 189
177.478 9.731 1014.747 204 194 184
177.478 10.231 1015.286 201 191 181
177.478 10.731 1015.869 188 179 170
177.478 11.231 1016.340 168 158 149
177.478 11.731 1016.790 158 149 142
177.478 12.231 1017.206 158 151 145
177.478 12.731 1017.533 161 154 151
177.478 13.231 1017.869 190 185 181
177.478 13.731 1018.361 175 170 166
177.478 14.231 1018.640 166 160 156
177.478 14.731 1018.931 167 161 157
177.978 7.731 1012.995 207 197 186
177.978 8.231 1013.465 208 198 188
177.978 8.731 1014.020 213 203 193
177.978 9.231 1014.459 202 192 182
177.978 9.731 1014.896 196 186 177
177.978 10.231 1015.380 183 172 163
177.978 10.731 1015.926 156 147 141
177.978 11.231 1016.398 180 171 165
177.978 11.731 1016.807 151 142 137
177.978 12.231 1017.230 159 152 146
177.978 12.731 1017.538 174 168 162
177.978 13.231 1017.933 161 153 149
177.978 13.731 1018.375 140 135 131
177.978 14.231 1018.700 147 142 138
177.978 14.731 1019.047 176 171 167
178.478 7.231 1012.987 197 188 178
178.478 7.731 1013.419 209 201 190
178.478 8.231 1013.818 211 202 192
178.478 8.731 1014.341 205 196 187
178.478 9.231 1014.690 187 179 171
178.478 9.731 1015.107 157 150 142
178.478 10.231 1015.432 157 150 143
178.478 10.731 1015.963 162 152 149
178.478 11.231 1016.435 173 164 159
178.478 11.731 1016.799 149 140 135
178.478 12.231 1017.225 158 151 145
178.478 12.731 1017.561 176 169 163
178.478 13.231 1018.006 172 166 159
178.478 13.731 1018.418 155 150 146
178.478 14.231 1018.782 152 147 143
178.478 14.731 1019.189 166 160 156
205.978 -1.269 1021.227 166 158 152
205.978 -0.769 1021.604 183 175 170
205.978 -0.269 1021.920 171 167 162
205.978 0.231 1022.203 183 177 173
215.478 -2.769 1021.611 186 179 171
215.478 -2.269 1022.021 185 179 171
215.978 -2.769 1021.690 183 175 170
215.978 -2.269 1022.064 181 174 167
216.478 -2.769 1021.720 184 177 171
216.478 -2.269 1022.070 184 177 171
216.978 -2.769 1021.667 168 159 156
216.978 -2.269 1022.007 179 171 165
217.478 -2.769 1021.646 161 153 150
217.478 -2.269 1021.990 155 147 144
217.978 -2.769 1021.696 177 169 165
217.978 -2.269 1022.054 155 147 144
218.478 -2.769 1021.721 184 177 171
218.478 -2.269 1022.090 170 162 159
218.978 -2.769 1021.671 179 170 167
218.978 -2.269 1022.066 177 169 166
219.478 -2.769 1021.572 156 148 145
219.478 -2.269 1021.999 168 160 157
219.978 -2.769 1021.482 168 163 159
219.978 -2.269 1021.933 157 149 146
219.978 -1.769 1022.364 152 144 141
220.478 -2.769 1021.420 174 169 165
220.478 -2.269 1021.884 168 160 157
220.478 -1.769 1022.266 138 130 127
220.978 -2.769 1021.361 169 164 161
220.978 -2.269 1021.815 156 148 145
220.978 -1.769 1022.155 156 148 145
221.478 -2.769 1021.293 166 160 156
221.478 -2.269 1021.759 162 154 151
221.478 -1.769 1022.108 181 173 171
221.978 -2.769 1021.162 156 151 147
221.978 -2.269 1021.670 147 139 136
221.978 -1.769 1022.045 184 175 172
221.978 -1.269 1022.405 191 184 180
222.478 -2.769 1020.988 159 154 150
222.478 -2.269 1021.510 156 148 145
222.478 -1.769 1021.902 176 168 165
222.478 -1.269 1022.236 167 158 155
222.978 -2.769 1020.903 150 145 141
222.978 -2.269 1021.390 166 157 154
222.978 -1.769 1021.774 171 163 160
222.978 -1.269 1022.136 148 140 137
223.478 -2.769 1020.831 177 172 168
223.478 -2.269 1021.251 168 160 157
223.478 -1.769 1021.649 167 158 155
223.478 -1.269 1022.079 164 156 153
169.978 12.231 1013.000 214 205 196
169.978 12.731 1013.758 206 197 188
169.978 13.231 1014.433 205 196 189
169.978 13.731 1015.017 219 212 201
169.978 14.231 1015.541 214 207 198
169.978 14.731 1015.959 191 184 176
170.478 13.731 1015.507 211 203 192
170.478 14.231 1015.955 210 202 191
170.478 14.731 1016.366 171 163 155
185.978 6.231 1015.066 158 153 150
185.978 6.731 1015.287 158 153 150
185.978 7.231 1015.549 162 155 151
185.978 7.731 1015.947 167 159 154
185.978 8.231 1016.197 174 168 162
185.978 8.731 1016.621 174 168 162
185.978 9.231 1016.916 173 168 161
185.978 9.731 1017.309 162 156 150
185.978 10.231 1017.681 162 156 150
185.978 10.731 1018.191 181 174 171
185.978 11.231 1018.580 184 176 172
185.978 11.731 1019.033 154 146 143
185.978 12.231 1019.351 145 140 135
185.978 12.731 1019.770 145 139 135
185.978 13.231 1020.180 160 154 150
186.478 6.231 1015.235 164 159 156
186.478 6.731 1015.489 148 143 140
186.478 7.231 1015.773 143 138 134
186.478 7.731 1016.133 147 142 138
186.478 8.231 1016.421 158 153 149
186.478 8.731 1016.800 164 159 155
186.478 9.231 1017.125 173 168 164
186.478 9.731 1017.425 157 152 148
186.478 10.231 1017.718 170 166 161
186.478 10.731 1018.218 180 175 171
186.478 11.231 1018.656 185 180 176
186.478 11.731 1019.100 174 168 162
186.478 12.231 1019.484 160 153 147
186.478 12.731 1019.858 162 155 149
186.478 13.231 1020.254 179 171 165
186.478 13.731 1020.696 176 169 161
186.478 14.231 1021.173 185 179 171
186.478 14.731 1021.612 184 177 171
186.978 6.231 1015.488 166 160 157
186.978 6.731 1015.729 146 141 138
186.978 7.231 1015.976 193 188 185
186.978 7.731 1016.287 159 154 150
186.978 8.231 1016.620 160 155 151
186.978 8.731 1016.943 164 159 155
186.978 9.231 1017.292 162 157 153
186.978 9.731 1017.558 161 156 152
186.978 10.231 1017.814 174 169 165
186.978 10.731 1018.360 179 173 170
186.978 11.231 1018.804 192 187 183
186.978 11.731 1019.217 184 179 172
186.978 12.231 1019.557 187 180 174
186.978 12.731 1019.979 184 177 171
186.978 13.231 1020.462 186 179 173
186.978 13.731 1020.788 181 174 168
186.978 14.231 1021.293 183 175 170
186.978 14.731 1021.782 167 159 153
187.478 6.231 1015.755 154 149 146
187.478 6.731 1015.911 159 154 151
187.478 7.231 1016.227 160 155 151
187.478 7.731 1016.504 154 149 145
187.478 8.231 1016.727 171 167 162
187.478 8.731 1017.023 167 161 157
187.478 9.231 1017.342 166 160 156
187.478 9.731 1017.667 168 162 158
187.478 10.231 1017.987 177 172 168
187.478 10.731 1018.486 167 162 158
187.478 11.231 1018.911 171 167 162
187.478 11.731 1019.301 181 176 171
187.478 12.231 1019.618 190 185 179
187.478 12.731 1020.150 184 177 171
187.478 13.231 1020.680 188 181 175
187.478 13.731 1021.016 175 168 162
187.478 14.231 1021.438 174 168 161
187.478 14.731 1021.862 147 141 135
184.478 6.231 1014.512 167 158 155
184.478 6.731 1014.867 161 153 150
184.478 7.231 1015.174 171 163 158
184.478 7.731 1015.585 169 162 156
184.478 8.231 1015.902 168 161 155
184.478 8.731 1016.329 171 164 158
184.478 9.231 1016.661 171 164 158
184.478 9.731 1016.973 181 174 168
184.478 10.231 1017.421 171 164 158
184.478 10.731 1017.751 168 161 155
184.478 11.231 1018.206 170 163 157
184.978 6.231 1014.725 162 157 154
184.978 6.731 1015.065 160 152 150
184.978 7.231 1015.302 175 168 163
184.978 7.731 1015.692 162 155 149
184.978 8.231 1016.009 171 164 158
184.978 8.731 1016.394 170 163 157
184.978 9.231 1016.760 174 168 161
184.978 9.731 1017.138 169 162 156
184.978 10.231 1017.589 170 163 157
184.978 10.731 1018.014 167 158 155
184.978 11.231 1018.411 173 166 162
184.978 11.731 1018.858 187 179 176
184.978 12.231 1019.146 183 177 173
184.978 12.731 1019.345 180 175 171
184.978 13.231 1019.826 188 184 179
184.978 13.731 1020.354 175 170 164
184.978 14.231 1020.838 160 153 147
184.978 14.731 1021.349 161 154 148
185.478 6.231 1014.881 161 156 153
185.478 6.731 1015.200 156 151 148
185.478 7.231 1015.414 171 164 158
185.478 7.731 1015.788 177 170 164
185.478 8.231 1016.114 179 171 165
185.478 8.731 1016.501 168 160 154
185.478 9.231 1016.831 169 162 156
185.478 9.731 1017.242 158 151 145
185.478 10.231 1017.658 170 163 157
185.478 10.731 1018.185 179 171 168
185.478 11.231 1018.514 179 171 168
185.478 11.731 1018.972 157 149 146
185.478 12.231 1019.235 155 150 146
185.478 12.731 1019.575 149 144 140
185.478 13.231 1020.027 179 173 170
185.478 13.731 1020.543 170 167 157
185.478 14.231 1020.987 172 166 157
185.478 14.731 1021.389 175 168 162
185.978 13.731 1020.658 170 167 157
185.978 14.231 1021.068 183 175 167
185.978 14.731 1021.456 184 177 171
183.978 6.231 1014.317 162 154 151
183.978 6.731 1014.718 162 154 151
183.978 7.231 1015.130 172 166 159
183.978 7.731 1015.471 168 161 155
183.978 8.231 1015.819 184 176 171
183.978 8.731 1016.234 169 162 156
183.978 9.231 1016.519 149 142 136
183.978 9.731 1016.833 173 167 160
183.978 10.231 1017.131 176 169 163
183.978 10.731 1017.530 179 172 166
183.978 11.231 1017.922 172 166 159
183.978 11.731 1018.223 168 160 154
183.978 12.231 1018.597 156 151 145
183.978 12.731 1019.010 195 190 184
183.978 13.231 1019.392 192 187 181
184.478 11.731 1018.585 177 170 164
184.478 12.231 1018.969 173 168 162
184.478 12.731 1019.232 190 185 179
184.478 13.231 1019.608 191 186 180
184.478 13.731 1020.110 188 184 177
184.478 14.231 1020.583 162 155 149
184.478 14.731 1021.142 143 136 131
178.978 7.231 1013.405 204 195 186
178.978 7.731 1013.773 209 200 191
178.978 8.231 1014.154 203 196 188
178.978 8.731 1014.525 188 181 173
178.978 9.231 1014.896 158 151 145
178.978 9.731 1015.300 139 134 130
178.978 10.231 1015.629 145 138 135
178.978 10.731 1015.966 158 150 147
178.978 11.231 1016.459 150 142 139
178.978 11.731 1016.818 151 143 140
178.978 12.231 1017.232 179 170 165
178.978 12.731 1017.596 181 172 167
178.978 13.231 1017.952 179 169 164
178.978 13.731 1018.407 173 168 162
178.978 14.231 1018.843 174 169 163
178.978 14.731 1019.291 168 162 156
179.478 6.731 1013.302 191 183 173
179.478 7.231 1013.675 195 188 180
179.478 7.731 1014.109 175 168 160
179.478 8.231 1014.410 167 159 152
179.478 8.731 1014.686 148 142 138
179.478 9.231 1015.044 135 130 126
179.478 9.731 1015.404 146 141 138
179.478 10.231 1015.828 142 137 134
179.478 10.731 1016.086 155 147 145
179.478 11.231 1016.570 155 147 145
179.478 11.731 1016.911 161 153 150
179.478 12.231 1017.275 180 172 167
179.478 12.731 1017.600 171 164 158
179.478 13.231 1017.832 159 152 146
179.478 13.731 1018.325 154 148 142
179.478 14.231 1018.883 172 168 161
179.478 14.731 1019.359 195 190 184
179.978 6.231 1013.145 163 156 148
179.978 6.731 1013.589 172 166 159
179.978 7.231 1013.909 167 161 157
179.978 7.731 1014.316 152 147 143
179.978 8.231 1014.622 139 134 130
179.978 8.731 1014.831 132 127 124
179.978 9.231 1015.164 138 133 130
179.978 9.731 1015.456 145 140 137
179.978 10.231 1015.883 142 137 134
179.978 10.731 1016.243 147 142 139
179.978 11.231 1016.689 148 143 140
179.978 11.731 1016.981 160 155 151
179.978 12.231 1017.302 160 155 151
179.978 12.731 1017.581 158 153 149
179.978 13.231 1017.809 161 156 152
179.978 13.731 1018.308 171 167 160
179.978 14.231 1018.967 179 173 167
179.978 14.731 1019.438 210 205 199
180.478 6.231 1013.341 146 139 131
180.478 6.731 1013.731 154 147 141
180.478 7.231 1014.057 169 164 160
180.478 7.731 1014.394 171 167 162
180.478 8.231 1014.734 140 135 131
180.478 8.731 1015.030 141 136 133
180.478 9.231 1015.347 164 159 156
180.478 9.731 1015.634 156 151 148
180.478 10.231 1015.994 156 151 148
180.478 10.731 1016.307 153 148 145
180.478 11.231 1016.730 167 161 158
180.478 11.731 1016.987 151 146 142
180.478 12.231 1017.300 145 140 136
180.478 12.731 1017.601 154 149 145
180.478 13.231 1017.947 187 183 176
180.478 13.731 1018.439 197 192 186
180.478 14.231 1019.110 180 175 170
180.478 14.731 1019.675 187 183 176
180.978 6.231 1013.504 159 152 146
180.978 6.731 1013.820 153 146 140
180.978 7.231 1014.157 154 149 143
180.978 7.731 1014.578 164 159 155
180.978 8.231 1014.852 160 155 151
180.978 8.731 1015.228 168 163 159
180.978 9.231 1015.597 160 155 152
180.978 9.731 1015.892 170 166 162
180.978 10.231 1016.160 162 157 154
180.978 10.731 1016.427 170 166 161
180.978 11.231 1016.785 184 179 175
180.978 11.731 1016.993 184 179 175
180.978 12.231 1017.318 174 169 165
180.978 12.731 1017.697 187 183 176
180.978 13.231 1018.117 217 212 206
180.978 13.731 1018.590 209 204 198
180.978 14.231 1019.240 188 184 177
180.978 14.731 1019.882 187 183 176
181.478 6.231 1013.708 168 160 154
181.478 6.731 1014.009 153 146 140
181.478 7.231 1014.290 149 142 136
181.478 7.731 1014.752 156 149 143
181.478 8.231 1014.968 170 163 157
181.478 8.731 1015.310 179 171 168
181.478 9.231 1015.716 156 148 145
181.478 9.731 1016.010 166 157 154
181.478 10.231 1016.278 163 155 153
181.478 10.731 1016.631 179 174 171
181.478 11.231 1016.901 193 188 184
181.478 11.731 1017.095 194 189 185
181.478 12.231 1017.363 184 179 172
181.478 12.731 1017.792 214 209 204
181.478 13.231 1018.225 219 214 208
181.478 13.731 1018.708 207 202 196
181.478 14.231 1019.413 190 185 181
181.478 14.731 1020.047 174 169 165
181.978 6.231 1013.954 168 159 154
181.978 6.731 1014.242 167 159 154
181.978 7.231 1014.497 168 161 155
181.978 7.731 1014.865 173 167 160
181.978 8.231 1015.168 166 158 152
181.978 8.731 1015.501 164 156 151
181.978 9.231 1015.740 154 146 143
181.978 9.731 1016.101 168 160 157
181.978 10.231 1016.413 164 156 153
181.978 10.731 1016.788 185 180 176
181.978 11.231 1017.012 194 189 184
181.978 11.731 1017.264 190 185 179
181.978 12.231 1017.525 188 184 177
181.978 12.731 1017.957 215 210 205
181.978 13.231 1018.400 209 204 198
181.978 13.731 1018.929 192 187 183
181.978 14.231 1019.648 198 193 189
181.978 14.731 1020.162 170 166 161
182.478 6.231 1014.072 156 148 145
182.478 6.731 1014.426 171 163 160
182.478 7.231 1014.680 171 164 158
182.478 7.731 1015.039 170 163 157
182.478 8.231 1015.457 171 164 158
182.478 8.731 1015.678 153 146 140
182.478 9.231 1015.895 153 145 142
182.478 9.731 1016.227 181 173 171
182.478 10.231 1016.635 181 173 171
182.478 10.731 1016.940 180 175 171
182.478 11.231 1017.162 161 156 150
182.478 11.731 1017.459 169 164 158
182.478 12.231 1017.778 185 180 174
182.478 12.731 1018.210 190 185 178
182.478 13.231 1018.696 195 191 182
182.478 13.731 1019.281 196 191 186
182.478 14.231 1019.820 191 186 182
182.478 14.731 1020.289 163 158 155
182.978 6.231 1014.171 154 146 143
182.978 6.731 1014.516 180 171 166
182.978 7.231 1014.870 181 174 168
182.978 7.731 1015.230 176 169 163
182.978 8.231 1015.648 174 168 161
182.978 8.731 1015.867 161 154 148
182.978 9.231 1016.123 167 159 153
182.978 9.731 1016.401 168 160 154
182.978 10.231 1016.807 179 171 165
182.978 10.731 1017.149 174 168 161
182.978 11.231 1017.415 155 148 142
182.978 11.731 1017.712 172 166 159
182.978 12.231 1018.090 184 179 173
182.978 12.731 1018.508 179 174 168
182.978 13.231 1018.945 184 179 172
182.978 13.731 1019.518 189 184 180
182.978 14.231 1019.967 175 168 164
182.978 14.731 1020.505 168 160 157
183.478 6.231 1014.275 158 150 147
183.478 6.731 1014.609 171 162 159
183.478 7.231 1015.042 172 164 159
183.478 7.731 1015.349 168 161 155
183.478 8.231 1015.734 171 164 158
183.478 8.731 1016.088 173 167 160
183.478 9.231 1016.335 168 160 154
183.478 9.731 1016.650 157 150 144
183.478 10.231 1016.906 170 163 157
183.478 10.731 1017.309 180 173 167
183.478 11.231 1017.664 173 167 160
183.478 11.731 1017.963 163 156 150
183.478 12.231 1018.308 179 174 168
183.478 12.731 1018.757 184 179 173
183.478 13.231 1019.209 194 189 183
183.478 13.731 1019.690 185 180 176
183.478 14.231 1020.140 191 184 180
183.478 14.731 1020.690 192 184 181
183.978 13.731 1019.866 193 188 182
183.978 14.231 1020.333 185 179 172
183.978 14.731 1020.855 172 166 161
196.478 6.231 1021.083 175 170 166
196.478 6.731 1021.451 162 157 153
196.478 7.231 1021.828 154 149 146
155.478 22.731 1013.402 210 200 188
155.478 23.231 1013.766 208 198 187
155.478 23.731 1014.187 204 194 182
155.478 24.231 1014.721 207 195 183
155.978 22.231 1013.267 217 207 195
155.978 22.731 1013.724 213 202 190
155.978 23.231 1014.123 210 200 188
155.978 23.731 1014.617 210 200 188
155.978 24.231 1015.133 207 195 183
156.478 21.731 1013.191 202 192 180
156.478 22.231 1013.575 214 204 192
156.478 22.731 1014.053 216 205 191
156.478 23.231 1014.578 214 202 190
156.478 23.731 1015.080 220 208 196
156.478 24.231 1015.508 221 209 195
156.978 21.231 1013.140 197 188 176
156.978 21.731 1013.572 200 190 178
156.978 22.231 1013.957 206 195 183
156.978 22.731 1014.437 217 205 191
156.978 23.231 1014.999 225 213 201
156.978 23.731 1015.458 230 217 204
156.978 24.231 1015.791 231 218 205
157.478 21.231 1013.525 197 188 179
157.478 21.731 1013.932 196 187 178
157.478 22.231 1014.377 198 189 180
157.478 22.731 1014.862 206 198 187
157.478 23.231 1015.267 219 207 194
157.478 23.731 1015.710 230 217 204
157.478 24.231 1016.068 233 220 208
157.978 20.731 1013.260 205 196 186
157.978 21.231 1013.854 204 195 188
157.978 21.731 1014.319 188 179 172
157.978 22.231 1014.788 195 186 178
157.978 22.731 1015.193 202 194 183
157.978 23.231 1015.480 202 192 180
157.978 23.731 1015.877 219 207 195
157.978 24.231 1016.254 216 205 193
158.478 20.731 1013.584 202 193 186
158.478 21.231 1014.155 175 167 160
158.478 21.731 1014.591 149 140 135
158.478 22.231 1015.018 179 170 163
158.478 22.731 1015.415 192 184 175
158.478 23.231 1015.778 196 186 176
158.478 23.731 1016.144 205 194 184
158.478 24.231 1016.522 200 190 180
158.978 20.231 1013.523 191 184 176
158.978 20.731 1014.000 173 167 160
158.978 21.231 1014.421 140 132 128
158.978 21.731 1014.791 138 130 127
158.978 22.231 1015.205 163 156 150
158.978 22.731 1015.659 184 176 171
158.978 23.231 1016.069 186 176 171
158.978 23.731 1016.436 176 166 159
158.978 24.231 1016.810 184 174 167
159.478 19.731 1013.472 181 172 163
159.478 20.231 1013.977 181 174 168
159.478 20.731 1014.292 160 153 148
159.478 21.231 1014.603 146 138 135
159.478 21.731 1014.961 150 142 139
159.478 22.231 1015.375 157 149 146
159.478 22.731 1015.820 168 161 155
159.478 23.231 1016.213 154 145 140
159.478 23.731 1016.585 169 160 155
159.478 24.231 1016.933 191 183 177
159.978 19.231 1013.413 197 188 181
159.978 19.731 1013.905 170 161 154
159.978 20.231 1014.259 159 151 146
159.978 20.731 1014.512 169 161 159
159.978 21.231 1014.851 151 143 141
159.978 21.731 1015.236 172 164 162
159.978 22.231 1015.567 164 156 154
159.978 22.731 1015.922 167 158 154
159.978 23.231 1016.311 162 153 150
159.978 23.731 1016.672 164 155 152
159.978 24.231 1017.020 184 175 171
187.978 6.231 1016.027 151 146 143
187.978 6.731 1016.203 153 148 145
187.978 7.231 1016.515 149 144 140
187.978 7.731 1016.720 162 157 153
187.978 8.231 1016.933 164 159 155
187.978 8.731 1017.180 180 175 171
187.978 9.231 1017.463 184 179 174
187.978 9.731 1017.754 172 168 163
187.978 10.231 1018.121 177 172 168
187.978 10.731 1018.506 157 154 149
187.978 11.231 1018.912 175 172 167
187.978 11.731 1019.336 183 177 171
187.978 12.231 1019.765 179 174 168
187.978 12.731 1020.297 177 172 166
187.978 13.231 1020.762 180 173 167
187.978 13.731 1021.187 172 164 161
187.978 14.231 1021.538 147 142 138
187.978 14.731 1021.905 143 138 134
188.478 6.231 1016.266 151 146 143
188.478 6.731 1016.564 158 153 150
188.478 7.231 1016.776 164 159 155
188.478 7.731 1016.985 180 175 171
188.478 8.231 1017.167 168 163 159
188.478 8.731 1017.376 195 190 186
188.478 9.231 1017.659 187 183 178
188.478 9.731 1017.903 180 175 171
188.478 10.231 1018.231 180 175 171
188.478 10.731 1018.535 171 168 163
188.478 11.231 1018.930 189 186 181
188.478 11.731 1019.383 173 170 163
188.478 12.231 1019.891 184 179 172
188.478 12.731 1020.349 181 176 171
188.478 13.231 1020.773 172 168 161
188.478 13.731 1021.259 167 161 158
188.478 14.231 1021.631 143 138 135
188.478 14.731 1021.959 146 141 138
188.978 6.231 1016.552 160 155 152
188.978 6.731 1016.852 169 164 161
188.978 7.231 1017.091 185 180 176
188.978 7.731 1017.259 196 191 187
188.978 8.231 1017.373 168 163 159
188.978 8.731 1017.638 184 179 174
188.978 9.231 1017.889 185 180 176
188.978 9.731 1018.167 179 174 171
188.978 10.231 1018.418 181 176 172
188.978 10.731 1018.674 186 184 178
188.978 11.231 1019.030 192 189 184
188.978 11.731 1019.480 185 183 175
188.978 12.231 1019.993 192 189 182
188.978 12.731 1020.381 200 195 189
188.978 13.231 1020.732 175 170 164
188.978 13.731 1021.239 173 168 165
188.978 14.231 1021.726 151 146 143
188.978 14.731 1022.054 158 154 150
189.478 6.231 1016.856 174 169 166
189.478 6.731 1017.133 185 180 176
189.478 7.231 1017.408 201 196 190
189.478 7.731 1017.564 187 183 176
189.478 8.231 1017.680 160 155 149
189.478 8.731 1017.960 161 158 151
189.478 9.231 1018.188 164 161 154
189.478 9.731 1018.460 169 167 161
189.478 10.231 1018.652 173 170 165
189.478 10.731 1018.929 199 196 191
189.478 11.231 1019.281 204 201 196
189.478 11.731 1019.659 203 200 193
189.478 12.231 1020.073 200 197 190
189.478 12.731 1020.420 184 180 173
189.478 13.231 1020.721 180 177 171
189.478 13.731 1021.228 172 169 164
189.478 14.231 1021.780 163 160 155
189.478 14.731 1022.174 173 170 165
189.978 6.231 1017.118 180 175 172
189.978 6.731 1017.415 179 174 171
189.978 7.231 1017.662 177 172 167
189.978 7.731 1017.904 180 175 171
189.978 8.231 1018.105 179 173 170
189.978 8.731 1018.239 159 156 151
189.978 9.231 1018.489 157 153 149
189.978 9.731 1018.723 163 160 155
189.978 10.231 1018.950 164 160 156
189.978 10.731 1019.241 187 184 179
189.978 11.231 1019.592 203 200 195
189.978 11.731 1019.841 204 201 196
189.978 12.231 1020.126 197 194 187
189.978 12.731 1020.473 196 193 186
189.978 13.231 1020.782 194 191 184
189.978 13.731 1021.278 191 188 183
189.978 14.231 1021.847 183 179 174
189.978 14.731 1022.328 184 180 175
190.478 6.231 1017.371 184 179 174
190.478 6.731 1017.664 179 174 171
190.478 7.231 1017.934 161 156 152
190.478 7.731 1018.195 168 163 159
190.478 8.231 1018.475 177 172 170
190.478 8.731 1018.545 164 160 157
190.478 9.231 1018.748 148 144 143
190.478 9.731 1018.995 146 142 140
190.478 10.231 1019.258 143 139 138
190.478 10.731 1019.563 171 168 164
190.478 11.231 1019.818 197 193 190
190.478 11.731 1020.011 202 199 194
190.478 12.231 1020.250 198 195 189
190.478 12.731 1020.576 206 203 196
190.478 13.231 1020.903 209 206 199
190.478 13.731 1021.372 203 200 195
190.478 14.231 1021.971 183 179 174
190.978 6.231 1017.659 175 170 166
190.978 6.731 1017.952 183 177 173
190.978 7.231 1018.257 167 161 157
190.978 7.731 1018.533 164 159 155
190.978 8.231 1018.755 166 160 157
190.978 8.731 1018.937 154 150 148
190.978 9.231 1019.029 142 138 139
190.978 9.731 1019.277 139 135 136
190.978 10.231 1019.596 144 140 141
190.978 10.731 1019.862 155 154 151
190.978 11.231 1020.045 176 175 171
190.978 11.731 1020.251 186 185 180
190.978 12.231 1020.459 193 192 187
190.978 12.731 1020.769 209 209 201
190.978 13.231 1021.129 213 213 205
190.978 13.731 1021.606 204 201 196
190.978 14.231 1022.196 186 184 178
191.478 6.231 1018.003 172 168 163
191.478 6.731 1018.300 179 174 168
191.478 7.231 1018.614 181 176 172
191.478 7.731 1018.911 174 169 165
191.478 8.231 1019.057 167 161 157
191.478 8.731 1019.312 149 145 143
191.478 9.231 1019.380 139 135 135
191.478 9.731 1019.645 141 137 138
191.478 10.231 1019.975 150 146 147
191.478 10.731 1020.223 145 144 142
191.478 11.231 1020.391 143 142 138
191.478 11.731 1020.598 161 160 156
191.478 12.231 1020.736 181 180 175
191.478 12.731 1021.068 204 204 196
191.478 13.231 1021.444 203 203 193
191.478 13.731 1021.916 192 189 183
191.978 6.231 1018.339 176 171 165
191.978 6.731 1018.656 193 188 182
191.978 7.231 1018.956 177 172 166
191.978 7.731 1019.259 181 176 171
191.978 8.231 1019.419 179 173 170
191.978 8.731 1019.688 157 153 149
191.978 9.231 1019.822 144 140 139
191.978 9.731 1020.064 153 149 150
191.978 10.231 1020.320 151 147 148
191.978 10.731 1020.580 137 135 135
191.978 11.231 1020.772 129 128 127
191.978 11.731 1020.961 152 151 147
191.978 12.231 1021.071 169 168 163
191.978 12.731 1021.434 181 181 173
191.978 13.231 1021.816 184 184 174
191.978 13.731 1022.261 177 174 168
192.478 6.231 1018.671 171 167 161
192.478 6.731 1018.999 177 172 168
192.478 7.231 1019.278 171 167 160
192.478 7.731 1019.583 184 179 173
192.478 8.231 1019.826 185 180 174
192.478 8.731 1020.104 163 160 155
192.478 9.231 1020.266 152 148 146
192.478 9.731 1020.387 153 151 150
192.478 10.231 1020.639 140 139 137
192.478 10.731 1020.862 139 136 135
192.478 11.231 1021.114 140 136 134
192.478 11.731 1021.325 147 144 141
192.478 12.231 1021.448 159 156 152
192.478 12.731 1021.858 156 154 148
192.478 13.231 1022.281 177 175 170
192.978 6.231 1018.985 164 159 155
192.978 6.731 1019.293 172 168 163
192.978 7.231 1019.572 156 151 146
192.978 7.731 1019.878 181 176 171
192.978 8.231 1020.190 176 171 165
192.978 8.731 1020.450 185 180 177
192.978 9.231 1020.614 152 148 145
192.978 9.731 1020.691 154 150 149
192.978 10.231 1020.943 142 138 137
192.978 10.731 1021.180 144 140 137
192.978 11.231 1021.448 153 149 146
192.978 11.731 1021.715 148 144 141
192.978 12.231 1021.904 143 139 136
192.978 12.731 1022.313 157 154 149
193.478 6.231 1019.274 173 168 164
193.478 6.731 1019.620 171 167 162
193.478 7.231 1019.841 172 168 161
193.478 7.731 1020.150 179 174 168
193.478 8.231 1020.456 177 172 168
193.478 8.731 1020.709 184 179 175
193.478 9.231 1020.883 161 157 154
193.478 9.731 1021.005 163 159 156
193.478 10.231 1021.264 153 149 148
193.478 10.731 1021.561 154 150 147
193.478 11.231 1021.795 159 155 152
193.478 11.731 1022.147 141 137 134
193.978 6.231 1019.651 163 158 154
193.978 6.731 1019.986 168 162 158
193.978 7.231 1020.161 166 160 155
193.978 7.731 1020.402 168 163 159
193.978 8.231 1020.738 160 155 151
193.978 8.731 1021.039 167 161 157
193.978 9.231 1021.216 164 159 156
193.978 9.731 1021.377 172 168 164
193.978 10.231 1021.667 169 164 161
193.978 10.731 1021.911 166 161 158
193.978 11.231 1022.207 148 144 141
194.478 6.231 1020.014 160 155 151
194.478 6.731 1020.254 159 154 150
194.478 7.231 1020.474 163 158 154
194.478 7.731 1020.726 149 144 140
194.478 8.231 1021.139 143 138 134
194.478 8.731 1021.432 139 134 130
194.478 9.231 1021.647 162 155 152
194.478 9.731 1021.840 158 151 149
194.478 10.231 1022.078 168 161 159
194.478 10.731 1022.272 162 158 155
194.978 6.231 1020.252 169 164 160
194.978 6.731 1020.481 174 169 165
194.978 7.231 1020.777 181 176 172
194.978 7.731 1021.124 168 163 159
194.978 8.231 1021.488 150 145 141
194.978 8.731 1021.752 153 147 143
194.978 9.231 1022.050 168 159 156
194.978 9.731 1022.257 173 166 162
195.478 6.231 1020.480 185 180 176
195.478 6.731 1020.796 185 180 176
195.478 7.231 1021.118 176 171 168
195.478 7.731 1021.444 166 160 157
195.478 8.231 1021.753 159 154 151
195.478 8.731 1022.068 161 153 150
195.478 9.231 1022.397 159 151 148
195.978 6.231 1020.772 183 177 173
195.978 6.731 1021.135 174 169 165
195.978 7.231 1021.454 164 159 156
195.978 7.731 1021.770 155 150 147
195.978 8.231 1022.070 167 161 158
195.978 8.731 1022.396 168 163 160
196.478 7.731 1022.166 158 153 150
196.978 6.231 1021.415 176 171 167
196.978 6.731 1021.819 163 158 154
196.978 7.231 1022.211 160 155 152
197.478 6.231 1021.784 170 166 161
197.478 6.731 1022.205 168 162 158
197.978 6.231 1022.130 169 164 160
153.478 24.231 1012.984 223 211 199
153.978 24.231 1013.380 222 210 198
154.478 23.231 1012.989 230 220 210
154.478 23.731 1013.407 231 221 210
154.478 24.231 1013.799 216 206 194
154.978 23.231 1013.417 217 209 198
154.978 23.731 1013.837 207 197 187
154.978 24.231 1014.291 208 198 186
162.978 17.231 1013.012 206 197 188
162.978 17.731 1013.460 187 179 170
162.978 18.231 1013.997 175 168 160
163.478 17.231 1013.315 205 196 187
163.478 17.731 1013.754 183 173 164
163.478 18.231 1014.269 177 170 162
163.478 18.731 1014.758 171 163 158
163.478 19.231 1015.105 170 162 160
163.478 19.731 1015.461 166 160 157
163.478 20.231 1015.766 152 147 143
163.478 20.731 1016.104 159 154 150
163.478 21.231 1016.501 194 189 185
163.478 21.731 1016.900 187 183 178
163.478 22.231 1017.287 179 173 170
163.478 22.731 1017.652 183 177 173
163.478 23.231 1018.041 184 177 174
163.478 23.731 1018.449 202 194 191
163.478 24.231 1018.889 194 186 183
163.978 16.731 1013.037 209 201 191
163.978 17.231 1013.574 208 201 191
163.978 17.731 1014.079 184 176 168
163.978 18.231 1014.560 181 174 166
163.978 18.731 1015.019 179 172 167
163.978 19.231 1015.419 179 173 171
163.978 19.731 1015.723 179 174 171
163.978 20.231 1016.002 170 163 157
163.978 20.731 1016.386 174 168 161
163.978 21.231 1016.833 184 176 171
163.978 21.731 1017.242 189 183 176
163.978 22.231 1017.612 183 175 170
163.978 22.731 1018.009 179 172 166
163.978 23.231 1018.394 192 187 181
163.978 23.731 1018.793 193 188 182
163.978 24.231 1019.272 181 176 171
164.478 16.731 1013.360 215 206 197
164.478 17.231 1013.898 214 207 197
164.478 17.731 1014.394 194 187 179
164.478 18.231 1014.809 183 175 167
164.478 18.731 1015.286 172 167 161
164.478 19.231 1015.676 170 166 162
164.478 19.731 1015.933 163 158 155
164.478 20.231 1016.273 172 167 160
164.478 20.731 1016.680 159 153 147
164.478 21.231 1017.143 174 168 162
164.478 21.731 1017.587 181 175 170
164.478 22.231 1018.005 202 196 190
164.478 22.731 1018.449 209 203 197
164.478 23.231 1018.818 176 171 165
164.478 23.731 1019.212 176 171 165
164.478 24.231 1019.615 187 183 176
164.978 16.231 1013.286 205 196 187
164.978 16.731 1013.745 213 205 196
164.978 17.231 1014.240 209 202 194
164.978 17.731 1014.689 193 186 178
164.978 18.231 1015.060 176 169 163
164.978 18.731 1015.506 169 163 157
164.978 19.231 1015.854 179 173 170
164.978 19.731 1016.175 183 177 173
164.978 20.231 1016.569 180 175 170
164.978 20.731 1016.981 169 164 158
164.978 21.231 1017.469 175 170 164
164.978 21.731 1017.976 183 177 171
164.978 22.231 1018.419 227 222 216
164.978 22.731 1018.876 209 204 198
164.978 23.231 1019.327 184 179 173
164.978 23.731 1019.732 194 189 183
164.978 24.231 1020.040 168 163 157
165.478 15.731 1013.155 213 204 195
165.478 16.231 1013.667 211 202 193
165.478 16.731 1014.100 207 199 190
165.478 17.231 1014.610 206 199 191
165.478 17.731 1014.984 190 184 175
165.478 18.231 1015.363 172 166 159
165.478 18.731 1015.744 168 161 156
165.478 19.231 1016.072 158 153 149
165.478 19.731 1016.446 184 179 174
165.478 20.231 1016.862 183 177 171
165.478 20.731 1017.324 179 174 168
165.478 21.231 1017.836 184 179 173
165.478 21.731 1018.342 203 198 192
165.478 22.231 1018.801 209 204 198
165.478 22.731 1019.304 215 210 205
165.478 23.231 1019.777 197 192 188
165.478 23.731 1020.132 174 169 165
165.478 24.231 1020.438 183 177 173
165.978 15.231 1013.053 204 197 187
165.978 15.731 1013.530 208 199 190
165.978 16.231 1014.000 210 201 194
165.978 16.731 1014.469 208 200 192
165.978 17.231 1014.975 193 186 178
165.978 17.731 1015.280 188 181 173
165.978 18.231 1015.637 176 169 163
165.978 18.731 1016.020 172 167 160
165.978 19.231 1016.388 168 163 158
165.978 19.731 1016.785 191 186 181
165.978 20.231 1017.204 191 187 181
165.978 20.731 1017.672 195 190 184
165.978 21.231 1018.201 206 202 196
165.978 21.731 1018.676 204 200 193
165.978 22.231 1019.219 201 196 190
165.978 22.731 1019.720 217 212 206
165.978 23.231 1020.083 196 192 187
165.978 23.731 1020.429 167 161 157
165.978 24.231 1020.746 170 166 161
166.478 15.231 1013.482 196 189 179
166.478 15.731 1013.944 203 194 187
166.478 16.231 1014.411 205 196 189
166.478 16.731 1014.866 185 177 171
166.478 17.231 1015.264 181 174 167
166.478 17.731 1015.577 171 164 158
166.478 18.231 1015.955 179 171 165
166.478 18.731 1016.361 193 187 181
166.478 19.231 1016.728 205 200 194
166.478 19.731 1017.115 209 204 198
166.478 20.231 1017.590 203 200 193
166.478 20.731 1018.073 210 207 200
166.478 21.231 1018.568 215 212 205
166.478 21.731 1019.051 208 205 198
166.478 22.231 1019.614 200 197 190
166.478 22.731 1020.061 179 175 168
166.478 23.231 1020.395 168 162 158
166.478 23.731 1020.742 169 164 160
166.478 24.231 1021.053 153 148 144
166.978 15.231 1013.956 202 195 185
166.978 15.731 1014.398 202 195 185
166.978 16.231 1014.881 185 179 171
166.978 16.731 1015.231 184 177 171
166.978 17.231 1015.550 171 164 158
166.978 17.731 1015.881 156 149 143
166.978 18.231 1016.317 206 199 193
166.978 18.731 1016.747 226 221 215
166.978 19.231 1017.072 216 211 205
166.978 19.731 1017.469 206 201 195
166.978 20.231 1017.990 221 218 211
166.978 20.731 1018.550 215 212 205
166.978 21.231 1019.012 198 193 187
166.978 21.731 1019.479 208 203 197
166.978 22.231 1019.950 186 181 175
166.978 22.731 1020.366 162 157 151
166.978 23.231 1020.744 149 144 140
166.978 23.731 1021.084 177 172 170
166.978 24.231 1021.385 167 161 158
167.478 15.231 1014.396 204 197 187
167.478 15.731 1014.844 179 172 164
167.478 16.231 1015.241 163 156 148
167.478 16.731 1015.548 181 174 167
167.478 17.231 1015.849 152 145 139
167.478 17.731 1016.180 174 168 161
167.478 18.231 1016.660 232 224 218
167.478 18.731 1017.122 213 208 202
167.478 19.231 1017.475 199 194 188
167.478 19.731 1017.985 218 213 207
167.478 20.231 1018.558 198 195 188
167.478 20.731 1019.074 179 175 168
167.478 21.231 1019.469 189 184 178
167.478 21.731 1019.855 201 196 190
167.478 22.231 1020.246 168 163 157
167.478 22.731 1020.642 169 164 158
167.478 23.231 1021.015 161 156 152
167.478 23.731 1021.393 176 171 168
167.478 24.231 1021.672 189 184 181
167.978 15.231 1014.810 217 210 201
167.978 15.731 1015.243 176 169 161
167.978 16.231 1015.560 183 175 167
167.978 16.731 1015.850 180 173 165
167.978 17.231 1016.158 168 161 155
167.978 17.731 1016.583 211 204 198
167.978 18.231 1017.101 218 211 205
167.978 18.731 1017.552 196 191 185
167.978 19.231 1017.995 183 177 171
167.978 19.731 1018.631 193 188 182
167.978 20.231 1019.205 186 184 176
167.978 20.731 1019.554 179 175 168
167.978 21.231 1019.844 188 184 177
167.978 21.731 1020.196 183 177 171
167.978 22.231 1020.575 172 168 161
167.978 22.731 1020.904 171 167 160
167.978 23.231 1021.237 177 172 167
167.978 23.731 1021.635 183 177 173
167.978 24.231 1021.927 216 211 207
168.478 15.231 1015.216 222 215 207
168.478 15.731 1015.620 184 177 170
168.478 16.231 1015.939 175 168 160
168.478 16.731 1016.231 184 176 170
168.478 17.231 1016.598 197 190 184
168.478 17.731 1017.161 218 211 205
168.478 18.231 1017.703 210 203 197
168.478 18.731 1018.172 201 196 190
168.478 19.231 1018.641 200 195 189
168.478 19.731 1019.223 195 190 184
168.478 20.231 1019.677 184 180 174
168.478 20.731 1019.957 170 168 162
168.478 21.231 1020.219 168 164 159
168.478 21.731 1020.571 159 154 149
168.478 22.231 1020.924 184 179 174
168.478 22.731 1021.196 176 171 167
168.478 23.231 1021.516 171 167 162
168.478 23.731 1021.874 175 170 166
168.478 24.231 1022.226 179 174 171
168.978 15.231 1015.632 183 175 167
168.978 15.731 1015.993 167 159 153
168.978 16.231 1016.375 166 158 152
168.978 16.731 1016.782 192 185 179
168.978 17.231 1017.212 212 205 199
168.978 17.731 1017.816 223 216 210
168.978 18.231 1018.343 214 207 201
168.978 18.731 1018.793 194 189 183
168.978 19.231 1019.195 197 192 186
168.978 19.731 1019.637 184 179 173
168.978 20.231 1019.997 166 162 157
168.978 20.731 1020.308 152 149 144
168.978 21.231 1020.619 137 133 128
168.978 21.731 1020.926 142 137 133
168.978 22.231 1021.216 162 157 153
168.978 22.731 1021.465 173 168 164
168.978 23.231 1021.772 171 167 162
168.978 23.731 1022.095 170 166 161
169.478 15.231 1016.023 184 177 170
169.478 15.731 1016.406 175 168 162
169.478 16.231 1016.850 172 166 159
169.478 16.731 1017.353 201 194 188
169.478 17.231 1017.830 217 210 205
169.478 17.731 1018.382 234 227 221
169.478 18.231 1018.827 213 206 200
169.478 18.731 1019.193 195 190 184
169.478 19.231 1019.555 188 184 177
169.478 19.731 1019.935 171 167 160
169.478 20.231 1020.267 162 159 154
169.478 20.731 1020.615 148 145 140
169.478 21.231 1020.933 153 148 144
169.478 21.731 1021.185 151 146 142
169.478 22.231 1021.443 161 156 152
169.478 22.731 1021.700 173 168 164
169.478 23.231 1022.019 166 160 155
169.478 23.731 1022.366 161 156 150
162.978 18.731 1014.524 167 159 154
162.978 19.231 1014.863 177 169 167
162.978 19.731 1015.191 154 149 146
162.978 20.231 1015.562 154 149 145
162.978 20.731 1015.892 151 146 142
162.978 21.231 1016.216 144 139 135
160.478 18.731 1013.156 214 207 199
160.478 19.231 1013.799 187 180 172
160.478 19.731 1014.242 173 167 159
160.478 20.231 1014.545 188 183 178
160.478 20.731 1014.823 176 170 166
160.478 21.231 1015.197 150 145 141
160.478 21.731 1015.545 167 161 157
160.478 22.231 1015.832 161 155 152
160.478 22.731 1016.120 168 162 158
160.478 23.231 1016.459 164 156 153
160.478 23.731 1016.831 158 150 147
160.478 24.231 1017.172 171 163 160
160.978 18.731 1013.500 197 190 182
160.978 19.231 1014.019 181 174 166
160.978 19.731 1014.488 173 169 161
160.978 20.231 1014.818 184 179 175
160.978 20.731 1015.077 177 172 168
160.978 21.231 1015.434 155 150 146
160.978 21.731 1015.779 172 168 163
160.978 22.231 1016.063 162 157 153
160.978 22.731 1016.362 173 168 164
160.978 23.231 1016.690 166 158 154
160.978 23.731 1017.060 184 176 173
160.978 24.231 1017.413 168 159 156
161.478 18.231 1013.213 199 192 184
161.478 18.731 1013.799 191 184 176
161.478 19.231 1014.262 174 168 159
161.478 19.731 1014.720 160 155 149
161.478 20.231 1015.024 170 166 161
161.478 20.731 1015.284 192 187 183
161.478 21.231 1015.627 186 181 177
161.478 21.731 1015.939 185 180 176
161.478 22.231 1016.225 176 171 167
161.478 22.731 1016.583 174 169 165
161.478 23.231 1016.969 184 177 174
161.478 23.731 1017.334 179 171 168
161.478 24.231 1017.671 172 164 161
161.978 18.231 1013.478 187 180 172
161.978 18.731 1014.036 169 162 155
161.978 19.231 1014.474 174 167 161
161.978 19.731 1014.874 168 163 157
161.978 20.231 1015.188 164 159 155
161.978 20.731 1015.504 168 163 159
161.978 21.231 1015.831 179 174 171
161.978 21.731 1016.089 184 179 175
161.978 22.231 1016.387 166 160 156
161.978 22.731 1016.776 181 176 172
161.978 23.231 1017.178 194 186 183
161.978 23.731 1017.560 184 175 172
161.978 24.231 1017.929 181 173 171
162.478 17.731 1013.208 199 190 181
162.478 18.231 1013.745 177 170 162
162.478 18.731 1014.264 163 156 151
162.478 19.231 1014.660 173 166 161
162.478 19.731 1015.005 161 156 152
162.478 20.231 1015.374 166 160 156
162.478 20.731 1015.714 175 170 166
162.478 21.231 1016.021 160 155 151
162.478 21.731 1016.307 170 166 161
162.478 22.231 1016.616 179 173 170
162.478 22.731 1017.001 192 187 183
162.478 23.231 1017.413 213 205 202
162.478 23.731 1017.785 196 188 185
162.478 24.231 1018.179 184 176 173
162.978 21.731 1016.568 161 156 152
162.978 22.231 1016.935 179 174 171
162.978 22.731 1017.330 181 176 172
162.978 23.231 1017.724 197 189 186
162.978 23.731 1018.091 201 193 190
162.978 24.231 1018.483 180 172 170
177.978 15.231 1019.467 177 172 168
177.978 15.731 1019.876 157 152 148
177.978 16.231 1020.293 167 161 157
177.978 16.731 1020.676 177 171 167
177.978 17.231 1021.125 184 179 172
178.478 15.231 1019.580 157 152 148
178.478 15.731 1019.929 157 152 148
178.478 16.231 1020.389 158 153 149
178.478 16.731 1020.869 148 143 138
178.478 17.231 1021.316 167 159 153
178.478 17.731 1021.619 168 159 156
178.478 18.231 1021.939 161 156 152
178.478 18.731 1022.312 157 152 148
149.478 29.231 1013.026 204 197 191
149.478 29.731 1013.189 203 199 190
149.478 30.231 1013.346 200 196 187
149.478 30.731 1013.510 171 168 159
149.478 31.231 1013.815 166 160 154
149.478 31.731 1013.960 187 183 176
149.978 28.731 1013.078 180 173 165
149.978 29.231 1013.224 203 196 188
149.978 29.731 1013.380 202 198 189
149.978 30.231 1013.610 183 179 170
149.978 30.731 1013.844 163 159 151
149.978 31.231 1014.113 172 168 161
149.978 31.731 1014.280 190 185 179
149.978 32.231 1014.548 188 184 177
149.978 32.731 1014.830 184 179 173
149.978 33.231 1014.930 177 172 166
150.478 28.231 1013.185 168 161 153
150.478 28.731 1013.390 162 155 147
150.478 29.231 1013.489 190 184 175
150.478 29.731 1013.611 200 196 187
150.478 30.231 1013.861 185 181 172
150.478 30.731 1014.072 185 181 173
150.478 31.231 1014.304 190 185 179
150.478 31.731 1014.545 190 185 179
150.478 32.231 1014.781 184 179 172
150.478 32.731 1015.097 184 179 174
150.478 33.231 1015.278 174 169 163
150.978 27.231 1012.987 215 206 198
150.978 27.731 1013.224 192 185 178
150.978 28.231 1013.457 154 146 143
150.978 28.731 1013.685 153 146 140
150.978 29.231 1013.825 168 163 157
150.978 29.731 1013.989 183 177 172
150.978 30.231 1014.164 181 176 172
150.978 30.731 1014.480 179 174 171
150.978 31.231 1014.638 177 172 168
150.978 31.731 1014.917 170 166 161
150.978 32.231 1015.232 164 159 155
150.978 32.731 1015.481 179 174 171
150.978 33.231 1015.698 169 164 160
169.978 15.231 1016.373 179 171 165
169.978 15.731 1016.813 174 168 162
169.978 16.231 1017.278 185 179 173
169.978 16.731 1017.756 208 204 197
169.978 17.231 1018.273 209 205 196
169.978 17.731 1018.808 207 201 195
169.978 18.231 1019.170 177 170 165
169.978 18.731 1019.519 184 179 173
169.978 19.231 1019.879 184 179 173
169.978 19.731 1020.219 168 161 156
169.978 20.231 1020.550 169 166 161
169.978 20.731 1020.888 164 161 156
169.978 21.231 1021.154 162 157 153
169.978 21.731 1021.388 167 161 157
169.978 22.231 1021.692 159 154 150
169.978 22.731 1022.010 170 166 161
169.978 23.231 1022.353 168 161 156
170.478 15.231 1016.742 175 169 163
170.478 15.731 1017.172 175 170 164
170.478 16.231 1017.618 190 185 179
170.478 16.731 1018.051 205 202 194
170.478 17.231 1018.581 206 203 193
170.478 17.731 1019.118 179 173 167
170.478 18.231 1019.457 162 157 153
170.478 18.731 1019.848 186 181 177
170.478 19.231 1020.197 175 168 164
170.478 19.731 1020.520 170 162 159
170.478 20.231 1020.836 174 169 165
170.478 20.731 1021.130 169 164 160
170.478 21.231 1021.394 175 170 166
170.478 21.731 1021.647 179 173 170
170.478 22.231 1022.010 175 170 166
170.478 22.731 1022.346 175 170 166
170.978 15.231 1017.123 175 169 163
170.978 15.731 1017.555 160 155 149
170.978 16.231 1017.973 211 206 200
170.978 16.731 1018.374 210 207 199
170.978 17.231 1018.858 194 191 182
170.978 17.731 1019.342 194 189 183
170.978 18.231 1019.701 197 192 188
170.978 18.731 1020.122 170 166 161
170.978 19.231 1020.467 150 143 139
170.978 19.731 1020.793 157 149 146
170.978 20.231 1021.112 149 144 140
170.978 20.731 1021.369 168 162 158
170.978 21.231 1021.653 173 168 164
170.978 21.731 1021.972 155 150 146
170.978 22.231 1022.331 152 147 143
171.478 15.231 1017.451 131 126 120
171.478 15.731 1017.882 137 132 126
171.478 16.231 1018.292 214 209 204
171.478 16.731 1018.705 203 200 191
171.478 17.231 1019.097 201 198 189
171.478 17.731 1019.560 195 190 184
171.478 18.231 1019.968 173 168 164
171.478 18.731 1020.355 144 139 135
171.478 19.231 1020.689 169 161 158
171.478 19.731 1021.005 173 167 160
171.478 20.231 1021.358 162 157 153
171.478 20.731 1021.628 170 166 161
171.478 21.231 1021.935 159 154 150
