220.978 -84.269 992.207 143 140 135
220.978 -83.769 992.643 163 158 152
220.978 -83.269 993.271 166 160 151
220.978 -82.769 993.985 181 175 163
221.478 -85.769 992.797 130 131 126
221.478 -85.269 992.721 128 128 124
221.478 -84.769 992.787 130 129 125
221.478 -84.269 993.020 138 134 131
221.478 -83.769 993.385 146 141 137
221.478 -83.269 993.869 172 166 159
221.978 -85.769 993.719 132 132 128
221.978 -85.269 993.646 132 132 128
221.978 -84.769 993.648 128 127 123
221.978 -84.269 993.791 134 130 128
221.978 -83.769 994.021 147 142 138
215.478 -85.769 986.867 184 176 165
215.478 -85.269 987.095 168 158 148
215.478 -84.769 987.503 170 160 150
215.478 -84.269 987.943 176 167 156
215.478 -83.769 988.496 193 185 174
215.478 -83.269 989.393 210 202 189
215.478 -82.769 990.753 210 202 189
215.478 -82.269 992.300 195 185 175
215.478 -81.769 993.401 189 179 170
215.478 -81.269 994.031 184 174 164
215.978 -85.769 987.005 181 175 163
215.978 -85.269 987.234 175 166 156
215.978 -84.769 987.593 180 170 160
215.978 -84.269 988.066 186 179 167
215.978 -83.769 988.745 200 192 181
215.978 -83.269 989.659 216 208 195
215.978 -82.769 990.995 210 202 189
215.978 -82.269 992.703 197 187 177
215.978 -81.769 993.800 191 181 171
216.478 -85.769 987.183 177 171 162
216.478 -85.269 987.427 177 168 159
216.478 -84.769 987.757 187 179 170
216.478 -84.269 988.214 198 190 180
216.478 -83.769 988.868 210 202 191
216.478 -83.269 989.670 217 209 198
216.478 -82.769 991.033 208 200 188
216.478 -82.269 992.949 197 187 178
216.478 -81.769 994.069 193 184 174
216.978 -85.769 987.407 162 159 150
216.978 -85.269 987.672 179 171 161
216.978 -84.769 987.972 190 184 173
216.978 -84.269 988.372 207 200 190
216.978 -83.769 988.929 215 206 197
216.978 -83.269 989.748 216 208 197
216.978 -82.769 991.281 209 201 190
216.978 -82.269 993.201 194 185 176
217.478 -83.769 989.013 213 206 196
217.478 -83.269 989.972 212 204 193
217.478 -82.769 991.657 207 199 188
217.478 -82.269 993.414 190 181 172
204.978 -71.269 984.634 189 179 167
204.978 -70.769 984.820 196 186 174
204.978 -70.269 985.232 202 192 180
204.978 -69.769 985.472 204 194 182
204.978 -69.269 985.735 204 194 182
204.978 -68.769 985.981 199 189 177
205.478 -72.269 985.032 190 180 168
205.478 -71.769 985.276 214 204 192
205.478 -71.269 985.686 211 201 189
205.478 -70.769 985.908 211 201 189
205.478 -70.269 986.019 209 199 187
205.478 -69.769 986.352 201 191 179
205.478 -69.269 986.408 202 192 178
205.478 -68.769 986.509 201 191 179
205.478 -68.269 986.575 209 199 187
205.478 -67.769 986.813 210 200 188
203.978 -67.769 984.672 201 191 179
204.478 -69.269 984.670 207 197 185
204.478 -68.769 985.230 207 196 184
204.478 -68.269 985.486 207 197 186
204.478 -67.769 985.604 205 195 185
204.978 -68.269 986.042 207 197 187
204.978 -67.769 986.160 204 194 184
212.478 -76.769 992.446 177 168 158
212.478 -76.269 992.579 179 168 159
212.478 -75.769 992.716 173 163 154
212.478 -75.269 992.913 170 160 151
212.478 -74.769 993.070 170 160 151
212.478 -74.269 993.201 168 158 149
212.478 -73.769 993.515 167 156 147
212.978 -76.769 993.079 176 167 157
212.978 -76.269 993.132 176 167 157
212.978 -75.769 993.191 176 166 159
212.978 -75.269 993.479 169 158 152
212.978 -74.769 993.719 169 158 152
212.978 -74.269 993.905 170 159 153
213.478 -76.769 993.797 174 166 158
213.478 -76.269 993.833 175 167 159
213.478 -75.769 994.016 173 164 157
206.478 -76.269 984.836 161 152 143
206.978 -76.769 985.740 206 198 187
206.978 -76.269 985.858 206 198 187
206.978 -75.769 986.026 204 194 182
206.978 -75.269 986.213 207 197 185
206.978 -74.769 986.373 205 195 183
206.978 -74.269 986.452 207 197 185
206.978 -73.769 986.531 204 194 182
206.978 -73.269 986.888 200 190 178
206.978 -72.769 987.120 189 179 167
206.978 -72.269 987.307 191 181 170
206.978 -71.769 987.366 188 179 166
206.978 -71.269 987.496 191 181 170
206.978 -70.769 987.510 193 184 171
206.978 -70.269 987.631 192 183 171
206.978 -69.769 987.855 203 193 181
206.978 -69.269 987.877 201 191 179
206.978 -68.769 987.909 203 193 183
206.978 -68.269 988.022 206 196 186
206.978 -67.769 988.144 205 195 185
207.478 -76.769 986.492 209 199 187
207.478 -76.269 986.573 208 198 186
207.478 -75.769 986.720 208 198 186
207.478 -75.269 986.935 206 196 184
207.478 -74.769 987.024 198 188 176
207.478 -74.269 987.115 191 181 170
207.478 -73.769 987.348 196 186 174
207.478 -73.269 987.671 194 184 172
207.478 -72.769 987.749 188 179 166
207.478 -72.269 987.878 196 186 174
207.478 -71.769 987.920 201 191 179
207.478 -71.269 988.000 199 189 177
207.478 -70.769 988.015 203 193 181
207.478 -70.269 988.114 203 193 181
207.478 -69.769 988.393 202 192 180
207.478 -69.269 988.443 194 184 174
207.478 -68.769 988.522 197 187 177
207.478 -68.269 988.634 201 191 181
207.478 -67.769 988.863 199 189 179
207.978 -76.769 987.048 208 199 184
207.978 -76.269 987.113 204 195 180
207.978 -75.769 987.291 205 195 183
207.978 -75.269 987.490 206 196 184
207.978 -74.769 987.595 188 179 166
207.978 -74.269 987.702 179 169 157
207.978 -73.769 987.987 193 184 171
207.978 -73.269 988.170 201 191 179
207.978 -72.769 988.285 198 188 176
207.978 -72.269 988.279 195 185 173
207.978 -71.769 988.379 196 186 174
207.978 -71.269 988.450 199 189 177
207.978 -70.769 988.539 202 192 180
207.978 -70.269 988.667 201 191 179
207.978 -69.769 988.921 199 189 177
207.978 -69.269 988.969 191 181 171
207.978 -68.769 989.134 191 181 171
207.978 -68.269 989.301 195 185 175
207.978 -67.769 989.549 195 185 176
208.478 -76.769 987.539 203 193 180
208.478 -76.269 987.679 202 192 180
208.478 -75.769 987.849 203 193 181
208.478 -75.269 987.944 202 192 180
208.478 -74.769 988.104 193 184 171
208.478 -74.269 988.203 184 174 162
208.478 -73.769 988.323 195 185 173
208.478 -73.269 988.499 202 192 180
208.478 -72.769 988.734 204 194 183
208.478 -72.269 988.884 200 190 180
208.478 -71.769 988.977 191 181 171
208.478 -71.269 989.015 190 180 171
208.478 -70.769 989.089 194 184 173
208.478 -70.269 989.261 199 189 178
208.478 -69.769 989.437 195 185 174
208.478 -69.269 989.496 205 195 186
208.478 -68.769 989.745 195 185 176
208.478 -68.269 989.953 197 187 178
208.478 -67.769 990.114 193 184 174
208.978 -76.769 988.055 200 190 178
208.978 -76.269 988.186 203 193 181
208.978 -75.769 988.351 202 192 180
208.978 -75.269 988.413 200 190 178
208.978 -74.769 988.576 197 187 175
208.978 -74.269 988.765 196 186 174
208.978 -73.769 988.885 196 186 174
208.978 -73.269 989.032 202 192 180
208.978 -72.769 989.246 203 193 183
208.978 -72.269 989.422 184 173 163
208.978 -71.769 989.512 177 168 157
208.978 -71.269 989.546 191 181 171
208.978 -70.769 989.650 193 184 173
208.978 -70.269 989.865 202 192 182
208.978 -69.769 989.977 202 192 182
208.978 -69.269 990.097 199 189 180
208.978 -68.769 990.295 186 176 167
208.978 -68.269 990.414 185 175 166
208.978 -67.769 990.574 186 176 167
209.478 -76.769 988.550 204 194 182
209.478 -76.269 988.651 203 193 181
209.478 -75.769 988.929 199 189 177
209.478 -75.269 988.995 199 189 177
209.478 -74.769 989.115 199 189 177
209.478 -74.269 989.292 203 193 181
209.478 -73.769 989.471 207 197 185
209.478 -73.269 989.641 203 193 181
209.478 -72.769 989.734 179 168 157
209.478 -72.269 989.968 175 166 155
209.478 -71.769 990.034 189 179 170
209.478 -71.269 990.179 188 179 168
209.478 -70.769 990.280 192 183 172
209.478 -70.269 990.414 199 189 179
209.478 -69.769 990.588 193 184 173
209.478 -69.269 990.784 183 172 163
209.478 -68.769 990.941 179 168 159
209.478 -68.269 991.030 176 167 157
209.478 -67.769 991.263 185 175 166
209.978 -76.769 989.219 205 195 183
209.978 -76.269 989.312 205 195 183
209.978 -75.769 989.501 202 192 182
209.978 -75.269 989.583 195 185 175
209.978 -74.769 989.678 202 192 182
209.978 -74.269 989.900 202 192 182
209.978 -73.769 990.038 199 189 179
209.978 -73.269 990.157 191 181 171
209.978 -72.769 990.362 186 176 166
209.978 -72.269 990.558 189 179 170
209.978 -71.769 990.650 189 179 170
209.978 -71.269 990.909 183 172 162
209.978 -70.769 991.024 185 175 165
209.978 -70.269 991.129 188 179 168
209.978 -69.769 991.174 184 173 163
209.978 -69.269 991.307 177 168 158
209.978 -68.769 991.542 179 168 159
209.978 -68.269 991.718 184 173 164
209.978 -67.769 991.960 186 176 167
210.478 -76.769 989.946 199 189 177
210.478 -76.269 990.117 201 191 179
210.478 -75.769 990.165 200 190 180
210.478 -75.269 990.236 195 185 175
210.478 -74.769 990.354 198 188 178
210.478 -74.269 990.507 192 183 172
210.478 -73.769 990.588 190 180 171
210.478 -73.269 990.771 176 167 156
210.478 -72.769 991.107 168 157 148
210.478 -72.269 991.177 179 168 159
210.478 -71.769 991.380 190 180 171
210.478 -71.269 991.548 185 175 166
210.478 -70.769 991.826 171 161 151
210.478 -70.269 991.919 172 162 153
210.478 -69.769 991.946 171 161 152
210.478 -69.269 991.984 174 164 155
210.478 -68.769 992.121 179 169 160
210.478 -68.269 992.295 184 173 164
210.478 -67.769 992.564 177 168 158
210.978 -76.769 990.569 204 194 182
210.978 -76.269 990.733 197 187 175
210.978 -75.769 990.798 192 183 172
210.978 -75.269 990.900 197 187 177
210.978 -74.769 991.037 192 183 172
210.978 -74.269 991.164 179 168 158
210.978 -73.769 991.285 175 166 155
210.978 -73.269 991.562 168 157 147
210.978 -72.769 991.736 164 154 145
210.978 -72.269 991.933 176 167 157
210.978 -71.769 992.121 177 168 158
210.978 -71.269 992.177 174 164 155
210.978 -70.769 992.398 173 163 154
210.978 -70.269 992.544 168 157 148
210.978 -69.769 992.604 164 154 145
210.978 -69.269 992.638 172 162 153
210.978 -68.769 992.682 174 164 155
210.978 -68.269 992.899 174 164 155
210.978 -67.769 993.226 179 169 160
211.478 -76.769 991.178 195 185 173
211.478 -76.269 991.271 194 184 173
211.478 -75.769 991.352 187 177 168
211.478 -75.269 991.510 187 177 168
211.478 -74.769 991.607 174 164 155
211.478 -74.269 991.847 174 164 155
211.478 -73.769 992.029 171 161 152
211.478 -73.269 992.276 171 161 152
211.478 -72.769 992.330 169 159 150
211.478 -72.269 992.547 174 164 155
211.478 -71.769 992.790 174 164 155
211.478 -71.269 992.955 173 163 154
211.478 -70.769 993.098 168 157 148
211.478 -70.269 993.200 163 153 144
211.478 -69.769 993.157 170 160 151
211.478 -69.269 993.352 171 161 152
211.478 -68.769 993.459 174 164 155
211.478 -68.269 993.595 172 162 153
211.478 -67.769 993.806 185 175 166
211.978 -76.769 991.831 183 172 162
211.978 -76.269 991.965 187 177 167
211.978 -75.769 992.131 180 170 161
211.978 -75.269 992.285 174 164 155
211.978 -74.769 992.362 170 160 151
211.978 -74.269 992.553 172 162 153
211.978 -73.769 992.805 171 161 152
211.978 -73.269 992.943 168 157 148
211.978 -72.769 993.046 161 151 142
211.978 -72.269 993.162 169 159 150
211.978 -71.769 993.488 174 164 155
211.978 -71.269 993.676 172 162 153
211.978 -70.769 993.788 167 156 147
211.978 -70.269 993.886 164 154 145
211.978 -69.769 993.920 171 161 152
212.478 -73.269 993.586 155 145 136
212.478 -72.769 993.713 158 148 139
212.478 -72.269 993.927 167 156 147
212.478 -71.769 994.074 176 167 157
205.978 -73.769 984.811 186 176 166
205.978 -73.269 985.324 204 194 184
205.978 -72.769 985.648 206 196 184
205.978 -72.269 986.018 207 197 185
205.978 -71.769 986.071 207 197 185
205.978 -71.269 986.278 211 201 189
205.978 -70.769 986.510 203 193 181
205.978 -70.269 986.584 206 196 184
205.978 -69.769 986.767 207 197 185
205.978 -69.269 986.789 201 191 179
205.978 -68.769 986.932 210 200 188
205.978 -68.269 987.056 212 202 190
205.978 -67.769 987.318 216 206 195
206.478 -75.769 984.965 167 156 146
206.478 -75.269 985.114 195 185 175
206.478 -74.769 985.284 205 195 185
206.478 -74.269 985.589 200 190 180
206.478 -73.769 985.830 203 193 183
206.478 -73.269 986.181 198 188 178
206.478 -72.769 986.525 195 185 174
206.478 -72.269 986.613 195 185 173
206.478 -71.769 986.684 201 191 179
206.478 -71.269 986.939 198 188 176
206.478 -70.769 987.018 198 188 176
206.478 -70.269 987.119 197 187 175
206.478 -69.769 987.244 196 186 174
206.478 -69.269 987.250 202 192 180
206.478 -68.769 987.343 212 202 190
206.478 -68.269 987.452 211 201 190
206.478 -67.769 987.617 206 196 186
202.978 -61.769 984.708 151 142 133
202.978 -61.269 984.847 153 144 135
202.978 -60.769 984.892 151 142 133
202.978 -60.269 984.871 157 148 139
202.978 -59.769 985.075 160 150 141
202.978 -59.269 985.349 162 152 143
202.978 -58.769 985.621 162 152 143
203.478 -65.269 984.729 190 180 171
203.478 -64.769 985.177 196 186 176
203.478 -64.269 985.419 195 185 175
203.478 -63.769 985.500 195 185 175
203.478 -63.269 985.536 177 168 157
203.478 -62.769 985.586 171 161 152
203.478 -62.269 985.717 172 162 153
203.478 -61.769 985.868 173 163 154
203.478 -61.269 985.923 172 162 153
203.478 -60.769 985.984 172 162 153
203.478 -60.269 986.078 180 170 161
203.478 -59.769 986.421 179 169 160
203.478 -59.269 986.867 181 171 162
203.478 -58.769 987.134 184 173 164
203.978 -67.269 984.741 190 180 171
203.978 -66.769 984.879 190 180 171
203.978 -66.269 985.113 190 180 171
203.978 -65.769 985.333 196 186 176
203.978 -65.269 985.565 198 188 178
203.978 -64.769 985.860 186 176 166
203.978 -64.269 985.974 184 173 163
203.978 -63.769 986.151 183 172 162
203.978 -63.269 986.361 177 167 157
203.978 -62.769 986.472 185 174 165
203.978 -62.269 986.538 181 170 162
203.978 -61.769 986.768 190 179 171
203.978 -61.269 986.907 186 175 166
203.978 -60.769 987.015 175 166 156
203.978 -60.269 987.208 183 171 162
203.978 -59.769 987.501 186 176 167
203.978 -59.269 987.819 183 172 163
203.978 -58.769 988.089 186 176 167
204.478 -67.269 985.704 194 186 175
204.478 -66.769 985.736 197 189 178
204.478 -66.269 985.999 193 185 174
204.478 -65.769 986.121 192 184 173
204.478 -65.269 986.270 189 179 170
204.478 -64.769 986.426 185 175 165
204.478 -64.269 986.518 181 171 161
204.478 -63.769 986.773 181 168 159
204.478 -63.269 987.048 183 169 160
204.478 -62.769 987.149 184 170 161
204.478 -62.269 987.182 181 168 159
204.478 -61.769 987.483 180 168 158
204.478 -61.269 987.738 184 170 161
204.478 -60.769 987.857 185 172 164
204.478 -60.269 988.021 188 175 166
204.478 -59.769 988.254 185 175 166
204.478 -59.269 988.494 177 168 158
204.478 -58.769 988.759 176 167 157
204.978 -67.269 986.438 190 183 171
204.978 -66.769 986.536 202 193 184
204.978 -66.269 986.719 197 189 178
204.978 -65.769 986.834 190 183 171
204.978 -65.269 986.942 185 177 166
204.978 -64.769 987.062 176 167 156
204.978 -64.269 987.245 187 174 165
204.978 -63.769 987.434 180 168 158
204.978 -63.269 987.635 188 175 166
204.978 -62.769 987.787 184 171 162
204.978 -62.269 987.899 183 169 160
204.978 -61.769 988.126 184 170 161
204.978 -61.269 988.332 179 167 157
204.978 -60.769 988.437 179 167 157
204.978 -60.269 988.577 183 169 160
204.978 -59.769 988.844 181 171 162
204.978 -59.269 989.119 179 168 159
204.978 -58.769 989.336 176 167 157
205.478 -67.269 987.051 207 197 187
205.478 -66.769 987.126 204 194 184
205.478 -66.269 987.278 196 186 176
205.478 -65.769 987.414 181 171 161
205.478 -65.269 987.505 186 176 166
205.478 -64.769 987.720 184 172 163
205.478 -64.269 987.974 186 173 164
205.478 -63.769 988.110 179 166 156
205.478 -63.269 988.283 179 167 157
205.478 -62.769 988.512 187 177 167
205.478 -62.269 988.650 179 168 158
205.478 -61.769 988.818 175 166 155
205.478 -61.269 988.913 176 167 156
205.478 -60.769 988.982 177 168 157
205.478 -60.269 989.160 177 168 157
205.478 -59.769 989.450 180 171 162
205.478 -59.269 989.695 179 169 160
205.478 -58.769 989.865 181 171 164
209.978 -67.269 992.074 172 162 153
209.978 -66.769 992.361 177 168 158
209.978 -66.269 992.470 181 171 162
209.978 -65.769 992.785 179 169 160
209.978 -65.269 993.114 180 170 161
209.978 -64.769 993.308 172 162 153
209.978 -64.269 993.517 161 151 142
209.978 -63.769 993.702 177 168 158
209.978 -63.269 993.910 187 177 170
209.978 -62.769 993.944 179 170 163
209.978 -62.269 993.963 173 164 157
210.478 -67.269 992.769 175 166 156
210.478 -66.769 992.983 177 168 158
210.478 -66.269 993.150 179 168 159
210.478 -65.769 993.574 177 168 158
210.478 -65.269 993.765 184 174 165
210.478 -64.769 993.910 184 174 165
210.978 -67.269 993.450 179 168 159
210.978 -66.769 993.553 179 168 159
210.978 -66.269 993.722 176 167 157
211.478 -67.269 994.027 177 168 158
205.978 -67.269 987.476 212 202 192
205.978 -66.769 987.617 207 197 187
205.978 -66.269 987.866 187 177 167
205.978 -65.769 987.984 192 183 172
205.978 -65.269 988.116 188 179 168
205.978 -64.769 988.350 186 173 164
205.978 -64.269 988.556 186 173 164
205.978 -63.769 988.682 181 168 159
205.978 -63.269 988.862 179 168 158
205.978 -62.769 989.153 176 167 156
205.978 -62.269 989.348 176 167 156
205.978 -61.769 989.460 179 168 158
205.978 -61.269 989.493 179 169 160
205.978 -60.769 989.529 175 166 155
205.978 -60.269 989.714 172 162 152
205.978 -59.769 990.003 181 171 162
205.978 -59.269 990.239 179 168 159
205.978 -58.769 990.444 181 170 163
206.478 -67.269 987.852 207 197 187
206.478 -66.769 988.109 207 197 187
206.478 -66.269 988.424 200 190 180
206.478 -65.769 988.545 193 184 173
206.478 -65.269 988.754 188 179 168
206.478 -64.769 988.964 190 177 168
206.478 -64.269 989.161 183 169 160
206.478 -63.769 989.312 176 163 154
206.478 -63.269 989.405 175 163 154
206.478 -62.769 989.607 175 166 156
206.478 -62.269 989.845 175 166 156
206.478 -61.769 990.018 185 175 166
206.478 -61.269 990.084 179 168 159
206.478 -60.769 990.130 170 160 151
206.478 -60.269 990.290 170 160 151
206.478 -59.769 990.577 179 168 159
206.478 -59.269 990.854 180 170 161
206.478 -58.769 991.097 169 158 152
206.978 -67.269 988.430 203 193 183
206.978 -66.769 988.735 205 195 186
206.978 -66.269 988.935 192 183 172
206.978 -65.769 989.024 181 171 161
206.978 -65.269 989.264 179 169 159
206.978 -64.769 989.528 181 168 159
206.978 -64.269 989.687 172 159 150
206.978 -63.769 989.854 172 159 150
206.978 -63.269 990.047 174 162 153
206.978 -62.769 990.217 177 168 158
206.978 -62.269 990.417 179 169 160
206.978 -61.769 990.570 183 172 163
206.978 -61.269 990.693 179 168 159
206.978 -60.769 990.835 177 168 158
206.978 -60.269 991.047 179 168 159
206.978 -59.769 991.262 179 167 158
206.978 -59.269 991.432 179 168 159
206.978 -58.769 991.636 171 160 153
207.478 -67.269 989.087 199 189 180
207.478 -66.769 989.405 195 185 176
207.478 -66.269 989.529 181 171 162
207.478 -65.769 989.702 175 166 156
207.478 -65.269 989.969 176 167 157
207.478 -64.769 990.226 179 167 158
207.478 -64.269 990.314 173 160 152
207.478 -63.769 990.481 173 160 152
207.478 -63.269 990.735 177 166 156
207.478 -62.769 990.935 177 168 158
207.478 -62.269 991.076 179 168 159
207.478 -61.769 991.191 179 168 159
207.478 -61.269 991.306 179 168 159
207.478 -60.769 991.461 176 167 157
207.478 -60.269 991.650 180 170 161
207.478 -59.769 991.837 177 164 156
207.478 -59.269 991.939 184 171 163
207.478 -58.769 992.070 188 177 171
207.978 -67.269 989.742 197 187 178
207.978 -66.769 990.029 189 179 171
207.978 -66.269 990.145 174 164 155
207.978 -65.769 990.404 173 163 154
207.978 -65.269 990.623 177 168 158
207.978 -64.769 990.766 180 168 159
207.978 -64.269 990.912 179 167 158
207.978 -63.769 991.187 176 163 155
207.978 -63.269 991.375 177 166 158
207.978 -62.769 991.493 174 163 157
207.978 -62.269 991.618 175 164 158
207.978 -61.769 991.834 173 162 156
207.978 -61.269 991.961 177 167 160
207.978 -60.769 992.017 179 168 161
207.978 -60.269 992.119 176 166 159
207.978 -59.769 992.310 171 158 150
207.978 -59.269 992.430 192 179 171
207.978 -58.769 992.498 194 184 177
208.478 -67.269 990.338 195 185 176
208.478 -66.769 990.537 200 190 181
208.478 -66.269 990.785 195 185 176
208.478 -65.769 990.989 181 171 162
208.478 -65.269 991.180 174 164 155
208.478 -64.769 991.381 179 168 159
208.478 -64.269 991.532 181 170 161
208.478 -63.769 991.777 180 169 160
208.478 -63.269 992.053 179 168 159
208.478 -62.769 992.189 169 159 151
208.478 -62.269 992.289 170 160 151
208.478 -61.769 992.472 170 160 152
208.478 -61.269 992.612 174 164 156
208.478 -60.769 992.706 174 164 155
208.478 -60.269 992.792 183 171 163
208.478 -59.769 992.896 183 172 163
208.478 -59.269 992.923 194 184 175
208.478 -58.769 992.942 194 184 178
208.978 -67.269 990.742 198 188 179
208.978 -66.769 990.985 201 191 182
208.978 -66.269 991.368 189 179 171
208.978 -65.769 991.571 173 163 154
208.978 -65.269 991.769 172 162 153
208.978 -64.769 992.095 173 163 154
208.978 -64.269 992.309 177 168 158
208.978 -63.769 992.494 180 170 161
208.978 -63.269 992.715 181 170 162
208.978 -62.769 992.891 168 157 151
208.978 -62.269 992.940 155 144 138
208.978 -61.769 993.028 168 156 150
208.978 -61.269 993.125 177 167 160
208.978 -60.769 993.289 176 166 159
208.978 -60.269 993.432 181 170 164
208.978 -59.769 993.476 185 174 168
208.978 -59.269 993.454 183 171 165
208.978 -58.769 993.444 173 164 158
209.478 -67.269 991.374 193 184 174
209.478 -66.769 991.651 191 181 172
209.478 -66.269 991.852 184 174 165
209.478 -65.769 992.102 176 167 157
209.478 -65.269 992.483 173 163 154
209.478 -64.769 992.724 176 167 157
209.478 -64.269 992.962 172 162 153
209.478 -63.769 993.179 179 168 159
209.478 -63.269 993.333 186 175 168
209.478 -62.769 993.415 171 160 154
209.478 -62.269 993.438 162 151 145
209.478 -61.769 993.482 170 159 153
209.478 -61.269 993.508 176 166 159
209.478 -60.769 993.611 170 159 153
209.478 -60.269 993.781 177 167 160
209.478 -59.769 993.854 173 162 158
209.478 -59.269 993.898 158 148 144
209.478 -58.769 993.842 147 138 133
209.978 -61.769 993.983 167 157 150
209.978 -61.269 993.997 172 163 156
209.978 -60.769 994.065 164 155 148
209.978 -58.769 994.054 138 129 127
199.978 -53.769 984.722 213 201 185
199.978 -53.269 985.700 208 194 182
199.978 -52.769 986.544 194 183 168
199.978 -52.269 986.983 188 176 163
199.978 -51.769 987.252 201 190 178
200.478 -54.269 984.831 203 193 176
200.478 -53.769 985.744 204 193 178
200.478 -53.269 986.635 199 185 175
200.478 -52.769 987.131 186 174 164
200.478 -52.269 987.509 195 184 173
200.478 -51.769 987.667 199 189 180
200.478 -51.269 987.697 179 169 162
200.478 -50.769 987.762 153 143 140
200.478 -50.269 987.774 135 127 124
200.478 -49.769 987.774 131 123 121
200.478 -49.269 987.725 137 130 127
200.978 -54.769 985.393 203 191 177
200.978 -54.269 986.099 198 186 172
200.978 -53.769 986.817 198 186 173
200.978 -53.269 987.374 197 184 175
200.978 -52.769 987.659 192 179 171
200.978 -52.269 987.891 200 190 181
200.978 -51.769 987.946 188 179 170
200.978 -51.269 987.994 161 152 148
200.978 -50.769 988.023 142 134 131
200.978 -50.269 987.995 138 130 128
200.978 -49.769 987.950 138 130 128
200.978 -49.269 987.908 133 127 127
201.478 -55.269 985.680 194 183 171
201.478 -54.769 986.928 193 181 170
201.478 -54.269 987.388 186 174 162
201.478 -53.769 987.742 189 176 166
201.478 -53.269 988.008 204 189 182
201.478 -52.769 988.220 197 184 176
201.478 -52.269 988.302 190 180 171
201.478 -51.769 988.232 166 156 149
201.478 -51.269 988.278 139 130 126
201.478 -50.769 988.290 138 130 128
201.478 -50.269 988.252 141 136 133
201.478 -49.769 988.130 137 132 129
201.478 -49.269 988.039 129 123 123
201.978 -55.769 985.884 190 179 170
201.978 -55.269 987.187 190 177 167
201.978 -54.769 987.856 186 174 164
201.978 -54.269 988.225 185 173 164
201.978 -53.769 988.411 192 180 171
201.978 -53.269 988.510 196 184 176
201.978 -52.769 988.624 192 179 172
201.978 -52.269 988.634 167 157 149
201.978 -51.769 988.532 144 135 130
201.978 -51.269 988.503 136 128 126
201.978 -50.769 988.446 144 137 138
201.978 -50.269 988.414 143 138 138
201.978 -49.769 988.265 133 127 128
201.978 -49.269 988.142 129 124 125
202.478 -57.769 984.669 157 147 138
202.478 -57.269 985.199 168 157 148
202.478 -56.769 985.839 188 175 165
202.478 -56.269 986.493 195 184 171
202.478 -55.769 987.430 191 179 167
202.478 -55.269 988.086 193 181 171
202.478 -54.769 988.467 180 170 160
202.478 -54.269 988.757 190 180 171
202.478 -53.769 988.898 198 188 178
202.478 -53.269 988.934 196 188 178
202.478 -52.769 988.965 174 166 158
202.478 -52.269 988.951 152 144 138
202.478 -51.769 988.835 140 132 129
202.478 -51.269 988.704 148 140 139
202.478 -50.769 988.599 147 138 139
202.478 -50.269 988.546 131 126 128
202.478 -49.769 988.397 127 123 124
202.478 -49.269 988.248 126 122 123
202.978 -58.269 986.032 163 153 144
202.978 -57.769 986.473 181 171 162
202.978 -57.269 987.005 188 179 170
202.978 -56.769 987.502 184 172 163
202.978 -56.269 987.896 188 175 166
202.978 -55.769 988.349 194 181 172
202.978 -55.269 988.756 185 173 164
202.978 -54.769 989.007 184 174 165
202.978 -54.269 989.224 184 174 165
202.978 -53.769 989.325 195 185 176
202.978 -53.269 989.328 184 174 166
202.978 -52.769 989.284 149 140 133
202.978 -52.269 989.222 138 131 125
202.978 -51.769 989.098 140 132 129
202.978 -51.269 988.965 145 137 136
202.978 -50.769 988.789 132 126 128
202.978 -50.269 988.687 128 124 125
202.978 -49.769 988.556 128 124 125
202.978 -49.269 988.385 127 123 124
203.478 -58.269 987.374 181 171 162
203.478 -57.769 987.694 186 176 167
203.478 -57.269 988.093 189 179 171
203.478 -56.769 988.417 190 177 168
203.478 -56.269 988.707 192 179 171
203.478 -55.769 988.980 192 179 171
203.478 -55.269 989.270 189 179 171
203.478 -54.769 989.449 192 183 173
203.478 -54.269 989.583 189 179 171
203.478 -53.769 989.627 184 175 166
203.478 -53.269 989.608 160 152 145
203.478 -52.769 989.524 138 131 125
203.478 -52.269 989.388 135 127 124
203.478 -51.769 989.265 143 135 133
203.478 -51.269 989.170 132 126 126
203.478 -50.769 988.954 123 118 118
203.478 -50.269 988.805 126 122 123
203.478 -49.769 988.687 126 122 123
203.478 -49.269 988.488 127 123 124
203.978 -58.269 988.312 186 176 167
203.978 -57.769 988.538 185 175 166
203.978 -57.269 988.808 187 177 168
203.978 -56.769 989.155 190 179 171
203.978 -56.269 989.410 180 170 161
203.978 -55.769 989.521 181 171 162
203.978 -55.269 989.705 190 180 172
203.978 -54.769 989.838 193 184 177
203.978 -54.269 989.889 183 173 166
203.978 -53.769 989.879 159 150 143
203.978 -53.269 989.795 148 141 135
203.978 -52.769 989.721 142 134 131
203.978 -52.269 989.593 138 131 129
203.978 -51.769 989.441 133 128 125
203.978 -51.269 989.284 126 120 121
203.978 -50.769 989.116 123 118 119
203.978 -50.269 988.940 123 119 120
203.978 -49.769 988.767 125 121 122
203.978 -49.269 988.580 125 121 122
204.478 -58.269 989.024 179 168 159
204.478 -57.769 989.243 185 175 166
204.478 -57.269 989.449 183 172 163
204.478 -56.769 989.766 183 172 163
204.478 -56.269 989.985 186 175 168
204.478 -55.769 990.037 188 179 171
204.478 -55.269 990.105 192 183 176
204.478 -54.769 990.164 190 181 176
204.478 -54.269 990.138 162 153 148
204.478 -53.769 990.099 148 139 134
204.478 -53.269 989.994 143 135 133
204.478 -52.769 989.918 138 130 128
204.478 -52.269 989.804 128 122 121
204.478 -51.769 989.649 125 119 119
204.478 -51.269 989.454 125 119 121
204.478 -50.769 989.294 122 118 119
204.478 -50.269 989.119 121 118 118
204.478 -49.769 988.940 123 119 120
204.478 -49.269 988.717 124 120 121
204.978 -58.269 989.527 175 166 156
204.978 -57.769 989.724 184 174 165
204.978 -57.269 989.986 180 170 161
204.978 -56.769 990.222 175 164 157
204.978 -56.269 990.387 180 169 163
204.978 -55.769 990.486 183 171 165
204.978 -55.269 990.514 187 179 172
204.978 -54.769 990.510 170 161 156
204.978 -54.269 990.427 151 142 137
204.978 -53.769 990.365 148 139 136
204.978 -53.269 990.270 131 124 121
204.978 -52.769 990.134 125 119 118
204.978 -52.269 989.969 123 118 117
204.978 -51.769 989.811 123 118 117
204.978 -51.269 989.653 124 119 120
204.978 -50.769 989.474 121 118 118
204.978 -50.269 989.266 123 119 120
204.978 -49.769 989.097 122 119 119
204.978 -49.269 988.823 124 120 121
205.478 -58.269 990.099 179 168 161
205.478 -57.769 990.334 177 167 160
205.478 -57.269 990.575 180 169 163
205.478 -56.769 990.739 172 163 154
205.478 -56.269 990.853 179 169 160
205.478 -55.769 990.950 191 183 173
205.478 -55.269 990.959 175 168 160
205.478 -54.769 990.868 145 137 133
205.478 -54.269 990.751 151 143 141
205.478 -53.769 990.671 144 138 136
205.478 -53.269 990.571 129 125 126
205.478 -52.769 990.366 124 120 121
205.478 -52.269 990.157 125 121 122
205.478 -51.769 989.968 125 121 122
205.478 -51.269 989.806 124 120 121
205.478 -50.769 989.592 123 119 120
205.478 -50.269 989.367 123 119 120
205.478 -49.769 989.213 124 120 121
205.478 -49.269 988.985 125 121 122
199.478 -52.269 986.224 202 190 176
199.478 -51.769 986.664 196 184 172
199.978 -51.269 987.380 189 179 171
199.978 -50.769 987.499 166 155 149
199.978 -50.269 987.573 142 135 130
199.978 -49.769 987.564 135 127 124
199.978 -49.269 987.500 143 135 132
211.478 -55.769 994.054 133 128 125
211.478 -55.269 993.878 145 140 137
211.478 -54.769 993.671 141 136 133
211.478 -54.269 993.332 137 132 129
211.478 -53.769 992.968 134 129 126
211.478 -53.269 992.726 131 125 125
211.478 -52.769 992.439 125 119 119
211.478 -52.269 992.119 125 119 121
211.478 -51.769 991.844 131 125 127
211.478 -51.269 991.595 126 122 123
211.478 -50.769 991.315 124 120 121
211.478 -50.269 991.166 126 122 123
211.478 -49.769 990.970 123 119 120
211.978 -54.769 993.866 133 126 124
211.978 -54.269 993.600 135 127 125
211.978 -53.769 993.306 133 127 124
211.978 -53.269 992.964 128 124 123
211.978 -52.769 992.645 125 121 120
211.978 -52.269 992.293 120 117 116
211.978 -51.769 991.988 122 119 117
211.978 -51.269 991.774 124 120 119
211.978 -50.769 991.470 123 119 118
211.978 -50.269 991.276 125 121 122
211.978 -49.769 991.124 125 121 122
211.978 -49.269 990.852 124 120 121
212.478 -54.269 993.842 134 127 127
212.478 -53.769 993.607 134 129 128
212.478 -53.269 993.217 128 124 125
212.478 -52.769 992.861 125 121 121
212.478 -52.269 992.562 122 119 119
212.478 -51.769 992.178 119 116 116
212.478 -51.269 991.950 123 119 120
212.478 -50.769 991.647 125 121 122
212.478 -50.269 991.397 123 119 120
212.478 -49.769 991.217 128 124 125
212.478 -49.269 990.966 122 119 119
212.978 -54.269 994.077 127 121 121
212.978 -53.769 993.780 132 126 126
212.978 -53.269 993.449 130 126 127
212.978 -52.769 993.126 126 122 123
212.978 -52.269 992.778 121 118 118
212.978 -51.769 992.355 122 119 119
212.978 -51.269 992.109 128 124 125
212.978 -50.769 991.789 126 122 123
212.978 -50.269 991.548 121 117 120
212.978 -49.769 991.345 125 120 124
212.978 -49.269 991.147 121 117 120
213.478 -53.769 994.025 128 124 125
213.478 -53.269 993.661 124 120 121
213.478 -52.769 993.387 122 119 119
213.478 -52.269 993.028 120 117 117
213.478 -51.769 992.628 124 120 121
213.478 -51.269 992.304 126 122 123
213.478 -50.769 991.966 124 120 121
213.478 -50.269 991.725 118 112 116
213.478 -49.769 991.531 122 118 121
213.478 -49.269 991.336 124 119 123
213.978 -53.269 993.891 119 113 116
213.978 -52.769 993.573 115 110 111
213.978 -52.269 993.302 119 115 116
213.978 -51.769 992.992 122 118 119
213.978 -51.269 992.591 121 118 119
213.978 -50.769 992.202 119 116 117
213.978 -50.269 991.894 116 110 114
213.978 -49.769 991.706 117 111 116
213.978 -49.269 991.518 119 113 117
214.478 -52.769 993.847 119 115 118
214.478 -52.269 993.575 119 113 117
214.478 -51.769 993.261 119 115 118
214.478 -51.269 992.843 122 118 121
214.478 -50.769 992.388 118 112 116
214.478 -50.269 992.091 109 104 108
214.478 -49.769 991.871 115 109 113
214.478 -49.269 991.665 119 113 117
214.978 -52.269 993.896 117 115 117
214.978 -51.769 993.558 119 117 119
214.978 -51.269 993.127 119 117 119
214.978 -50.769 992.681 119 118 120
214.978 -50.269 992.307 120 119 123
214.978 -49.769 992.066 123 121 126
214.978 -49.269 991.822 121 119 124
210.978 -56.269 993.997 122 118 114
210.978 -55.769 993.815 130 125 122
210.978 -55.269 993.627 140 135 132
210.978 -54.769 993.451 142 137 134
210.978 -54.269 993.131 137 132 129
210.978 -53.769 992.799 132 127 124
210.978 -53.269 992.550 130 124 124
210.978 -52.769 992.285 129 123 123
210.978 -52.269 991.949 130 124 126
210.978 -51.769 991.670 132 126 128
210.978 -51.269 991.451 126 122 123
211.478 -49.269 990.749 121 118 118
205.978 -58.269 990.699 177 167 160
205.978 -57.769 990.950 175 164 158
205.978 -57.269 991.148 184 172 166
205.978 -56.769 991.267 185 176 168
205.978 -56.269 991.310 187 179 171
205.978 -55.769 991.313 180 171 164
205.978 -55.269 991.280 145 138 134
205.978 -54.769 991.157 134 126 124
205.978 -54.269 991.018 146 138 136
205.978 -53.769 990.903 132 126 126
205.978 -53.269 990.783 124 120 121
205.978 -52.769 990.607 119 116 116
205.978 -52.269 990.374 121 118 118
205.978 -51.769 990.160 122 119 119
205.978 -51.269 989.962 121 118 118
205.978 -50.769 989.745 122 119 119
205.978 -50.269 989.552 123 119 120
205.978 -49.769 989.349 124 120 121
205.978 -49.269 989.195 124 120 121
206.478 -58.269 991.286 172 161 155
206.478 -57.769 991.449 179 170 163
206.478 -57.269 991.593 187 179 171
206.478 -56.769 991.644 189 180 174
206.478 -56.269 991.626 176 168 164
206.478 -55.769 991.582 147 138 135
206.478 -55.269 991.526 136 128 127
206.478 -54.769 991.385 135 128 128
206.478 -54.269 991.221 142 135 137
206.478 -53.769 991.086 127 121 122
206.478 -53.269 990.980 122 119 119
206.478 -52.769 990.813 120 117 117
206.478 -52.269 990.611 120 117 117
206.478 -51.769 990.373 122 119 119
206.478 -51.269 990.149 122 119 119
206.478 -50.769 989.952 121 118 118
206.478 -50.269 989.762 120 117 117
206.478 -49.769 989.468 122 119 119
206.478 -49.269 989.331 122 119 119
206.978 -58.269 991.816 179 170 163
206.978 -57.769 991.963 186 177 171
206.978 -57.269 992.046 192 184 176
206.978 -56.769 992.043 181 173 171
206.978 -56.269 991.981 145 137 135
206.978 -55.769 991.913 130 122 120
206.978 -55.269 991.759 128 120 121
206.978 -54.769 991.585 136 130 132
206.978 -54.269 991.451 134 128 130
206.978 -53.769 991.293 121 116 117
206.978 -53.269 991.172 120 117 117
206.978 -52.769 991.017 123 119 120
206.978 -52.269 990.816 118 113 114
206.978 -51.769 990.605 120 117 117
206.978 -51.269 990.355 123 119 120
206.978 -50.769 990.110 118 113 114
206.978 -50.269 989.878 118 113 114
206.978 -49.769 989.642 119 116 116
206.978 -49.269 989.443 119 116 116
207.478 -58.269 992.170 188 179 172
207.478 -57.769 992.296 187 179 171
207.478 -57.269 992.381 181 173 166
207.478 -56.769 992.384 159 152 148
207.478 -56.269 992.318 141 133 131
207.478 -55.769 992.227 133 125 123
207.478 -55.269 992.033 128 122 122
207.478 -54.769 991.851 134 128 128
207.478 -54.269 991.708 130 124 126
207.478 -53.769 991.521 121 116 117
207.478 -53.269 991.348 119 115 116
207.478 -52.769 991.224 118 113 114
207.478 -52.269 991.025 119 115 116
207.478 -51.769 990.800 121 118 118
207.478 -51.269 990.554 124 120 121
207.478 -50.769 990.276 119 116 116
207.478 -50.269 990.075 119 116 116
207.478 -49.769 989.830 116 111 112
207.478 -49.269 989.626 116 111 112
207.978 -58.269 992.526 190 181 174
207.978 -57.769 992.577 179 170 163
207.978 -57.269 992.604 163 156 148
207.978 -56.769 992.604 150 142 138
207.978 -56.269 992.570 144 136 134
207.978 -55.769 992.442 137 130 127
207.978 -55.269 992.281 133 128 125
207.978 -54.769 992.111 128 122 122
207.978 -54.269 991.919 128 122 122
207.978 -53.769 991.687 128 124 123
207.978 -53.269 991.515 128 124 125
207.978 -52.769 991.377 119 115 116
207.978 -52.269 991.223 118 113 114
207.978 -51.769 990.925 120 117 117
207.978 -51.269 990.695 123 119 120
207.978 -50.769 990.451 121 118 118
207.978 -50.269 990.251 119 116 116
207.978 -49.769 990.025 117 112 113
207.978 -49.269 989.800 119 115 116
208.478 -58.269 992.974 172 163 157
208.478 -57.769 992.999 151 143 139
208.478 -57.269 992.972 141 135 131
208.478 -56.769 992.895 141 136 132
208.478 -56.269 992.818 141 136 133
208.478 -55.769 992.677 136 131 128
208.478 -55.269 992.530 138 133 130
208.478 -54.769 992.336 132 127 125
208.478 -54.269 992.120 134 130 127
208.478 -53.769 991.882 131 126 125
208.478 -53.269 991.639 129 123 123
208.478 -52.769 991.500 121 116 116
208.478 -52.269 991.318 120 116 116
208.478 -51.769 990.979 120 115 116
208.478 -51.269 990.816 121 118 118
208.478 -50.769 990.666 121 118 118
208.478 -50.269 990.390 116 111 112
208.478 -49.769 990.196 117 112 113
208.478 -49.269 989.957 121 118 118
208.978 -58.269 993.399 145 138 132
208.978 -57.769 993.322 134 126 123
208.978 -57.269 993.255 131 126 122
208.978 -56.769 993.164 133 128 125
208.978 -56.269 993.065 134 129 126
208.978 -55.769 992.953 134 129 126
208.978 -55.269 992.801 131 126 123
208.978 -54.769 992.585 132 127 124
208.978 -54.269 992.333 134 129 126
208.978 -53.769 992.104 133 128 125
208.978 -53.269 991.820 132 126 126
208.978 -52.769 991.633 127 121 121
208.978 -52.269 991.385 124 119 120
208.978 -51.769 991.140 124 119 120
208.978 -51.269 990.922 121 118 118
208.978 -50.769 990.796 117 112 113
208.978 -50.269 990.566 116 111 112
208.978 -49.769 990.349 116 111 112
208.978 -49.269 990.129 121 118 118
209.478 -58.269 993.711 138 131 125
209.478 -57.769 993.542 136 129 123
209.478 -57.269 993.450 137 132 126
209.478 -56.769 993.394 128 123 119
209.478 -56.269 993.258 133 128 125
209.478 -55.769 993.130 134 129 126
209.478 -55.269 992.995 130 125 122
209.478 -54.769 992.752 133 128 125
209.478 -54.269 992.549 132 127 124
209.478 -53.769 992.318 133 128 125
209.478 -53.269 992.033 134 128 128
209.478 -52.769 991.790 132 126 126
209.478 -52.269 991.447 127 121 123
209.478 -51.769 991.279 121 116 117
209.478 -51.269 991.064 123 119 120
209.478 -50.769 990.864 119 116 116
209.478 -50.269 990.675 112 108 109
209.478 -49.769 990.508 115 110 111
209.478 -49.269 990.222 120 117 117
209.978 -58.269 993.974 139 132 127
209.978 -57.769 993.842 140 133 128
209.978 -57.269 993.743 145 138 132
209.978 -56.769 993.657 148 143 139
209.978 -56.269 993.500 149 144 141
209.978 -55.769 993.284 134 129 126
209.978 -55.269 993.130 132 127 124
209.978 -54.769 992.955 133 128 125
209.978 -54.269 992.755 131 126 123
209.978 -53.769 992.513 132 127 124
209.978 -53.269 992.189 134 128 128
209.978 -52.769 991.920 132 126 126
209.978 -52.269 991.546 127 121 123
209.978 -51.769 991.335 123 118 119
209.978 -51.269 991.200 118 113 114
209.978 -50.769 990.949 119 116 116
209.978 -50.269 990.742 116 111 112
209.978 -49.769 990.595 112 108 109
209.978 -49.269 990.267 121 118 118
210.478 -57.269 994.060 148 140 136
210.478 -56.769 993.927 147 142 139
210.478 -56.269 993.780 133 128 125
210.478 -55.769 993.553 126 121 118
210.478 -55.269 993.366 132 127 124
210.478 -54.769 993.243 134 129 126
210.478 -54.269 992.930 134 129 126
210.478 -53.769 992.656 133 128 125
210.478 -53.269 992.382 129 123 123
210.478 -52.769 992.092 132 126 126
210.478 -52.269 991.725 134 128 130
210.478 -51.769 991.475 127 121 123
210.478 -51.269 991.303 121 118 118
210.478 -50.769 991.071 122 119 119
210.478 -50.269 990.867 121 118 118
210.478 -49.769 990.654 119 116 116
210.478 -49.269 990.391 120 117 117
210.978 -50.769 991.211 126 122 123
210.978 -50.269 991.037 122 119 119
210.978 -49.769 990.792 122 119 119
210.978 -49.269 990.576 121 118 118
215.478 -51.769 993.878 120 119 121
215.478 -51.269 993.459 118 116 118
215.478 -50.769 993.029 118 116 118
215.478 -50.269 992.559 119 118 122
215.478 -49.769 992.259 119 118 122
215.478 -49.269 992.015 121 119 124
215.978 -51.269 993.775 121 119 123
215.978 -50.769 993.277 115 112 116
215.978 -50.269 992.835 110 109 114
215.978 -49.769 992.490 112 110 116
215.978 -49.269 992.230 119 118 122
216.478 -51.269 993.998 116 113 118
216.478 -50.769 993.549 117 115 119
216.478 -50.269 993.121 111 110 116
216.478 -49.769 992.756 107 105 110
216.478 -49.269 992.481 116 113 118
216.978 -50.769 993.854 113 111 116
216.978 -50.269 993.475 112 111 116
216.978 -49.769 993.018 113 111 116
216.978 -49.269 992.693 118 116 120
217.478 -50.269 993.794 116 115 119
217.478 -49.769 993.244 109 107 112
217.478 -49.269 992.831 116 113 118
217.978 -50.269 994.032 117 115 120
217.978 -49.769 993.514 117 115 119
217.978 -49.269 993.021 118 116 121
218.478 -49.769 993.764 112 109 116
218.478 -49.269 993.286 119 116 122
218.978 -49.769 993.985 113 110 117
218.978 -49.269 993.591 122 119 126
219.478 -49.269 993.783 117 113 120
219.978 -49.269 993.906 107 104 111
202.978 -48.769 988.244 127 123 124
202.978 -48.269 988.120 126 122 123
202.978 -47.769 987.975 127 123 124
202.978 -47.269 987.840 133 128 130
202.978 -46.769 987.750 127 123 124
202.978 -46.269 987.665 116 111 112
202.978 -45.769 987.389 100 95 99
202.978 -45.269 987.226 101 97 102
202.978 -44.769 987.004 105 103 108
202.978 -44.269 986.677 113 110 117
202.978 -43.769 986.224 118 112 118
202.978 -43.269 985.817 113 108 111
203.478 -48.769 988.340 127 123 124
203.478 -48.269 988.196 127 123 124
203.478 -47.769 988.049 128 124 125
203.478 -47.269 987.871 133 128 130
203.478 -46.769 987.803 129 123 125
203.478 -46.269 987.734 122 117 118
203.478 -45.769 987.502 109 104 108
203.478 -45.269 987.257 102 97 103
203.478 -44.769 987.025 106 101 107
203.478 -44.269 986.739 117 113 120
203.478 -43.769 986.286 116 110 116
203.478 -43.269 985.904 110 105 110
203.478 -42.769 985.740 121 116 117
203.478 -42.269 985.741 139 130 131
203.478 -41.769 985.846 153 145 143
203.478 -41.269 986.030 155 145 143
203.478 -40.769 986.360 149 141 138
203.478 -40.269 986.651 154 147 141
203.978 -48.769 988.425 125 121 122
203.978 -48.269 988.289 125 121 122
203.978 -47.769 988.132 127 123 124
203.978 -47.269 987.931 131 126 127
203.978 -46.769 987.829 132 126 128
203.978 -46.269 987.750 127 121 123
203.978 -45.769 987.515 117 110 114
203.978 -45.269 987.318 109 104 108
203.978 -44.769 987.037 107 102 108
203.978 -44.269 986.752 115 109 116
203.978 -43.769 986.342 116 110 116
203.978 -43.269 985.976 109 104 108
203.978 -42.769 985.805 121 116 117
203.978 -42.269 985.828 137 128 128
203.978 -41.769 985.903 148 140 138
203.978 -41.269 986.116 168 157 155
203.978 -40.769 986.451 173 166 160
203.978 -40.269 986.701 174 168 161
204.478 -48.769 988.543 123 119 120
204.478 -48.269 988.401 125 121 122
204.478 -47.769 988.249 126 122 123
204.478 -47.269 988.014 130 125 127
204.478 -46.769 987.826 132 126 128
204.478 -46.269 987.745 126 120 122
204.478 -45.769 987.452 117 110 114
204.478 -45.269 987.311 115 109 114
204.478 -44.769 986.968 106 101 107
204.478 -44.269 986.737 106 101 108
204.478 -43.769 986.401 109 104 108
204.478 -43.269 986.104 117 110 114
204.478 -42.769 985.902 129 123 123
204.478 -42.269 985.895 138 130 128
204.478 -41.769 985.974 137 129 126
204.478 -41.269 986.209 143 134 128
204.478 -40.769 986.551 161 154 148
204.478 -40.269 986.752 179 172 166
204.978 -48.769 988.662 125 121 122
204.978 -48.269 988.531 122 119 119
204.978 -47.769 988.363 122 119 119
204.978 -47.269 988.063 129 123 125
204.978 -46.769 987.891 134 126 129
204.978 -46.269 987.747 127 121 123
204.978 -45.769 987.434 119 113 117
204.978 -45.269 987.259 112 106 111
204.978 -44.769 986.950 104 98 105
204.978 -44.269 986.743 102 97 104
204.978 -43.769 986.439 107 103 105
204.978 -43.269 986.212 126 121 122
204.978 -42.769 986.006 140 135 134
204.978 -42.269 985.967 143 135 132
204.978 -41.769 986.053 137 130 124
204.978 -41.269 986.240 142 133 126
204.978 -40.769 986.603 151 143 137
204.978 -40.269 986.959 168 160 152
205.478 -48.769 988.782 124 120 121
205.478 -48.269 988.695 121 118 118
205.478 -47.769 988.485 121 118 118
205.478 -47.269 988.154 122 119 119
205.478 -46.769 988.001 129 125 126
205.478 -46.269 987.764 124 120 121
205.478 -45.769 987.552 116 111 112
205.478 -45.269 987.255 112 107 112
205.478 -44.769 987.007 111 106 112
205.478 -44.269 986.779 108 103 109
205.478 -43.769 986.474 113 107 109
205.478 -43.269 986.322 127 121 120
205.478 -42.769 986.140 146 139 134
205.478 -42.269 986.060 163 156 148
205.478 -41.769 986.132 170 161 152
205.478 -41.269 986.289 174 166 156
205.478 -40.769 986.642 170 161 149
205.478 -40.269 987.257 184 174 164
202.478 -48.769 988.132 126 122 123
202.478 -48.269 988.028 127 123 124
202.478 -47.769 987.917 128 124 125
202.478 -47.269 987.775 132 128 129
202.478 -46.769 987.686 126 122 123
202.478 -46.269 987.603 105 101 103
202.478 -45.769 987.327 101 96 100
202.478 -45.269 987.169 109 106 110
202.478 -44.769 986.911 107 105 110
202.978 -42.769 985.639 127 121 121
202.978 -42.269 985.616 135 127 125
202.978 -41.769 985.746 158 150 147
202.978 -41.269 985.985 152 143 138
202.978 -40.769 986.335 142 134 131
202.978 -40.269 986.599 140 132 129
199.978 -48.769 987.507 136 128 127
199.978 -48.269 987.464 130 125 123
199.978 -47.769 987.443 130 124 124
199.978 -47.269 987.395 131 125 125
199.978 -46.769 987.317 133 127 127
199.978 -41.769 984.871 158 152 148
200.478 -48.769 987.671 132 126 126
200.478 -48.269 987.575 128 122 124
200.478 -47.769 987.519 129 123 125
200.478 -47.269 987.470 132 126 128
200.478 -46.769 987.398 135 129 131
200.478 -46.269 987.261 128 122 124
200.478 -45.769 987.049 113 108 111
200.478 -45.269 986.792 113 108 111
200.478 -44.769 986.391 119 113 117
200.478 -44.269 985.957 116 110 114
200.478 -43.769 985.552 112 107 111
200.478 -43.269 985.139 120 116 116
200.478 -42.769 985.001 127 121 122
200.478 -42.269 984.948 150 143 140
200.478 -41.769 984.998 161 154 149
200.478 -41.269 985.206 179 169 162
200.478 -40.769 985.537 161 153 147
200.478 -40.269 985.913 174 168 161
200.978 -48.769 987.805 130 124 126
200.978 -48.269 987.673 127 121 123
200.978 -47.769 987.602 128 124 125
200.978 -47.269 987.549 131 126 129
200.978 -46.769 987.473 134 128 131
200.978 -46.269 987.336 121 116 119
200.978 -45.769 987.065 113 108 112
200.978 -45.269 986.827 106 101 106
200.978 -44.769 986.519 106 101 107
200.978 -44.269 986.174 111 106 112
200.978 -43.769 985.787 115 109 113
200.978 -43.269 985.297 119 115 117
200.978 -42.769 985.119 134 128 128
200.978 -42.269 985.030 156 148 145
200.978 -41.769 985.128 175 167 161
200.978 -41.269 985.340 190 181 173
200.978 -40.769 985.652 179 169 164
200.978 -40.269 986.000 160 151 146
201.478 -48.769 987.939 127 121 123
201.478 -48.269 987.817 126 122 123
201.478 -47.769 987.700 128 123 127
201.478 -47.269 987.630 132 126 130
201.478 -46.769 987.551 135 129 133
201.478 -46.269 987.397 116 109 113
201.478 -45.769 987.153 104 99 103
201.478 -45.269 986.910 103 98 104
201.478 -44.769 986.659 108 103 109
201.478 -44.269 986.305 111 106 112
201.478 -43.769 985.957 112 107 111
201.478 -43.269 985.530 119 115 117
201.478 -42.769 985.276 135 127 126
201.478 -42.269 985.175 156 148 144
201.478 -41.769 985.277 171 162 155
201.478 -41.269 985.476 192 183 173
201.478 -40.769 985.760 168 158 153
201.478 -40.269 986.136 152 143 138
201.978 -48.769 988.039 126 121 122
201.978 -48.269 987.947 127 123 126
201.978 -47.769 987.814 129 125 128
201.978 -47.269 987.698 133 128 131
201.978 -46.769 987.629 131 126 129
201.978 -46.269 987.494 110 104 108
201.978 -45.769 987.268 104 99 104
201.978 -45.269 987.059 108 104 109
201.978 -44.769 986.794 110 106 112
201.978 -44.269 986.374 115 110 116
201.978 -43.769 986.030 118 112 116
201.978 -43.269 985.705 127 122 123
201.978 -42.769 985.408 136 129 127
201.978 -42.269 985.358 152 143 140
201.978 -41.769 985.442 160 151 145
201.978 -41.269 985.656 169 160 151
201.978 -40.769 985.976 154 145 140
201.978 -40.269 986.318 146 138 133
202.478 -44.269 986.519 118 116 121
202.478 -43.769 986.130 121 117 120
202.478 -43.269 985.759 123 119 120
202.478 -42.769 985.513 133 127 127
202.478 -42.269 985.500 154 146 143
202.478 -41.769 985.599 157 150 146
202.478 -41.269 985.858 162 153 147
202.478 -40.769 986.215 148 140 136
202.478 -40.269 986.481 142 134 131
199.478 -48.269 987.348 139 131 129
199.478 -47.769 987.356 136 130 130
214.478 -48.769 991.506 113 108 112
214.978 -48.769 991.647 116 113 118
214.978 -48.269 991.370 120 116 121
214.978 -47.769 990.980 127 122 128
214.978 -47.269 990.703 124 120 123
214.978 -46.769 990.122 119 117 119
214.978 -46.269 989.485 110 108 113
214.978 -45.769 989.213 101 99 104
214.978 -45.269 988.741 95 93 98
214.978 -44.769 988.492 95 93 96
214.978 -44.269 988.210 105 103 105
214.978 -43.769 987.927 120 116 121
214.978 -43.269 987.824 135 129 132
214.978 -42.769 987.795 134 128 129
214.978 -42.269 987.852 143 135 133
214.978 -41.769 988.078 140 132 129
214.978 -41.269 988.630 154 145 140
214.978 -40.769 989.413 188 179 172
214.978 -40.269 990.227 164 155 147
206.478 -48.769 989.190 122 119 119
