47.978 -85.269 981.467 215 202 186
47.978 -84.769 981.531 206 193 177
47.978 -84.269 981.616 214 201 186
47.978 -83.769 981.653 217 204 189
47.978 -83.269 981.641 214 201 186
47.978 -82.769 981.643 206 193 178
47.978 -82.269 981.655 186 174 160
47.978 -81.769 981.686 179 168 153
47.978 -81.269 981.746 169 159 148
47.978 -80.769 981.820 166 159 147
47.978 -80.269 981.879 219 212 202
47.978 -79.769 981.969 244 239 230
47.978 -79.269 982.115 244 239 230
47.978 -78.769 982.400 234 232 222
47.978 -78.269 982.582 230 225 214
47.978 -77.769 982.747 223 219 208
47.978 -77.269 982.915 222 218 205
48.478 -85.769 981.571 215 202 186
48.478 -85.269 981.621 216 203 188
48.478 -84.769 981.699 211 199 184
48.478 -84.269 981.787 222 210 196
48.478 -83.769 981.834 222 209 195
48.478 -83.269 981.815 213 201 187
48.478 -82.769 981.766 203 190 177
48.478 -82.269 981.714 191 179 165
48.478 -81.769 981.704 171 159 145
48.478 -81.269 981.733 200 191 178
48.478 -80.769 981.780 199 193 181
48.478 -80.269 981.831 210 205 194
48.478 -79.769 981.895 236 233 222
48.478 -79.269 982.049 244 241 231
48.478 -78.769 982.242 241 238 229
48.478 -78.269 982.394 235 232 220
48.478 -77.769 982.559 227 223 211
48.478 -77.269 982.733 219 214 202
48.978 -85.269 981.752 216 204 188
48.978 -84.769 981.853 215 203 187
48.978 -84.269 981.917 226 214 200
48.978 -83.769 981.947 225 213 199
48.978 -83.269 981.923 217 205 191
48.978 -82.769 981.852 204 192 178
48.978 -82.269 981.759 187 175 161
48.978 -81.769 981.713 170 158 144
48.978 -81.269 981.720 196 187 173
48.978 -80.769 981.741 227 221 208
48.978 -80.269 981.782 226 220 208
48.978 -79.769 981.852 233 230 218
48.978 -79.269 982.000 240 237 226
48.978 -78.769 982.093 244 240 231
48.978 -78.269 982.252 237 235 223
48.978 -77.769 982.385 233 230 218
48.978 -77.269 982.551 225 221 209
49.478 -84.769 981.920 218 206 190
49.478 -84.269 981.972 227 215 201
49.478 -83.769 981.993 226 214 200
49.478 -83.269 981.960 221 209 195
49.478 -82.769 981.875 208 196 182
49.478 -82.269 981.798 190 179 164
49.478 -81.769 981.742 177 166 151
49.478 -81.269 981.727 176 168 153
49.478 -80.769 981.731 210 201 189
49.478 -80.269 981.742 230 223 211
49.478 -79.769 981.790 233 226 214
49.478 -79.269 981.896 236 233 221
49.478 -78.769 981.983 244 240 231
49.478 -78.269 982.120 241 238 229
49.478 -77.769 982.206 238 234 223
49.478 -77.269 982.353 230 225 213
49.978 -84.269 981.992 227 215 201
49.978 -83.769 982.023 230 217 204
49.978 -83.269 982.008 222 210 196
49.978 -82.769 981.906 208 196 182
49.978 -82.269 981.830 187 175 161
49.978 -81.769 981.766 170 158 144
49.978 -81.269 981.736 177 166 152
49.978 -80.769 981.730 205 196 183
49.978 -80.269 981.739 221 212 199
49.978 -79.769 981.760 215 209 197
49.978 -79.269 981.791 230 224 212
49.978 -78.769 981.843 239 236 227
49.978 -78.269 981.915 244 239 230
49.978 -77.769 982.005 244 240 229
49.978 -77.269 982.119 237 233 222
50.478 -82.769 981.930 214 202 188
50.478 -82.269 981.848 199 185 172
50.478 -81.769 981.794 187 174 160
50.478 -81.269 981.768 179 168 153
50.478 -80.769 981.749 209 197 184
50.478 -80.269 981.752 219 210 195
50.478 -79.769 981.748 217 209 194
50.478 -79.269 981.730 217 209 196
50.478 -78.769 981.739 232 224 213
50.478 -78.269 981.736 243 235 224
50.478 -77.769 981.800 244 238 226
50.478 -77.269 981.894 237 233 220
50.978 -80.269 981.736 222 210 196
50.978 -79.769 981.716 217 205 191
50.978 -79.269 981.670 212 200 188
50.978 -78.769 981.621 214 204 192
50.978 -78.269 981.603 222 212 200
50.978 -77.769 981.625 233 225 212
50.978 -77.269 981.686 228 220 207
51.478 -77.769 981.414 209 199 187
51.478 -77.269 981.430 210 201 189
32.978 -76.769 984.617 214 206 187
33.478 -76.769 984.615 215 207 188
33.978 -76.769 984.614 222 214 195
34.478 -76.769 984.601 218 210 191
34.978 -76.769 984.582 215 207 188
35.478 -76.769 984.553 211 203 184
35.978 -76.769 984.519 213 202 183
35.978 -76.269 984.608 212 202 182
36.478 -76.769 984.498 211 202 184
36.478 -76.269 984.582 215 205 186
36.978 -76.769 984.468 217 209 190
36.978 -76.269 984.544 226 218 199
37.478 -76.769 984.417 227 220 201
37.478 -76.269 984.507 232 224 205
37.478 -75.769 984.611 232 224 206
37.978 -76.769 984.371 232 225 207
37.978 -76.269 984.479 233 226 208
37.978 -75.769 984.580 231 223 207
38.478 -76.769 984.361 233 228 209
38.478 -76.269 984.465 233 227 208
38.478 -75.769 984.578 230 222 206
38.978 -76.769 984.373 230 222 205
38.978 -76.269 984.463 230 222 205
38.978 -75.769 984.571 227 220 205
39.478 -76.769 984.367 230 222 205
39.478 -76.269 984.463 225 218 200
39.478 -75.769 984.565 222 215 199
39.978 -76.769 984.339 230 222 205
39.978 -76.269 984.465 222 215 197
39.978 -75.769 984.551 223 216 200
40.478 -76.769 984.333 233 225 209
40.478 -76.269 984.476 227 220 205
40.478 -75.769 984.556 228 221 205
40.978 -76.769 984.348 234 228 212
40.978 -76.269 984.483 232 225 209
40.978 -75.769 984.566 226 219 204
41.478 -76.769 984.350 232 225 209
41.478 -76.269 984.471 230 223 207
41.478 -75.769 984.550 232 224 208
41.978 -76.769 984.361 231 224 207
41.978 -76.269 984.471 226 220 205
41.978 -75.769 984.539 228 221 205
42.478 -76.769 984.382 234 227 211
42.478 -76.269 984.489 230 222 205
42.478 -75.769 984.534 226 220 205
42.978 -76.769 984.334 234 227 211
42.978 -76.269 984.489 228 221 205
42.978 -75.769 984.550 224 218 202
43.478 -76.769 984.257 226 220 205
43.478 -76.269 984.463 222 216 200
43.478 -75.769 984.548 225 219 204
43.978 -76.769 984.196 222 216 200
43.978 -76.269 984.395 223 217 201
43.978 -75.769 984.548 226 220 205
44.478 -76.769 984.131 223 217 204
44.478 -76.269 984.273 227 221 206
44.478 -75.769 984.522 228 222 206
44.978 -76.769 984.032 224 221 206
44.978 -76.269 984.172 225 222 207
44.978 -75.769 984.465 228 223 207
44.978 -75.269 984.603 231 224 208
45.478 -76.769 983.937 233 232 218
45.478 -76.269 984.109 227 225 213
45.478 -75.769 984.366 228 225 210
45.478 -75.269 984.513 230 226 211
45.978 -76.769 983.812 240 237 224
45.978 -76.269 984.005 235 233 220
45.978 -75.769 984.200 232 228 213
45.978 -75.269 984.428 232 228 213
45.978 -74.769 984.601 235 233 217
46.478 -76.769 983.635 240 236 224
46.478 -76.269 983.887 240 237 224
46.478 -75.769 984.078 240 236 224
46.478 -75.269 984.309 238 235 221
46.478 -74.769 984.495 239 236 221
46.978 -76.769 983.451 237 233 219
46.978 -76.269 983.750 235 233 217
46.978 -75.769 983.953 238 234 222
46.978 -75.269 984.148 239 235 223
46.978 -74.769 984.336 240 237 223
46.978 -74.269 984.572 241 238 223
47.478 -76.769 983.273 231 227 212
47.478 -76.269 983.527 236 231 216
47.478 -75.769 983.773 236 233 220
47.478 -75.269 984.022 238 234 222
47.478 -74.769 984.172 238 234 222
47.478 -74.269 984.512 241 238 223
47.978 -76.769 983.112 226 220 206
47.978 -76.269 983.294 233 226 212
47.978 -75.769 983.535 235 232 220
47.978 -75.269 983.831 238 234 222
47.978 -74.769 984.051 240 236 224
47.978 -74.269 984.286 243 238 226
47.978 -73.769 984.502 237 234 219
47.978 -73.269 984.576 231 227 212
48.478 -76.769 982.928 219 213 199
48.478 -76.269 983.110 231 224 209
48.478 -75.769 983.316 237 233 221
48.478 -75.269 983.548 238 236 223
48.478 -74.769 983.784 241 238 226
48.478 -74.269 983.862 244 241 230
48.478 -73.769 984.225 237 235 223
48.478 -73.269 984.296 230 225 214
48.478 -72.769 984.386 230 225 212
48.478 -72.269 984.373 232 227 214
48.478 -71.769 984.434 233 231 217
48.478 -71.269 984.546 233 230 216
48.478 -70.769 984.549 228 224 211
48.478 -70.269 984.473 225 222 209
48.478 -69.769 984.574 227 225 212
48.478 -68.769 984.536 228 226 214
48.478 -68.269 984.315 227 224 212
48.478 -67.769 983.707 228 224 212
48.978 -76.769 982.735 222 216 202
48.978 -76.269 982.923 224 218 205
48.978 -75.769 983.129 231 226 214
48.978 -75.269 983.321 237 235 222
48.978 -74.769 983.492 239 238 228
48.978 -74.269 983.574 240 240 230
48.978 -73.769 983.813 237 234 225
48.978 -73.269 983.975 234 231 220
48.978 -72.769 983.983 233 232 218
48.978 -72.269 983.950 235 233 220
48.978 -71.769 983.984 237 235 222
48.978 -71.269 984.161 237 235 222
48.978 -70.769 984.160 235 233 220
48.978 -70.269 984.159 232 230 216
48.978 -69.769 984.182 231 228 215
48.978 -69.269 984.083 230 227 215
48.978 -68.769 983.804 228 226 214
48.978 -68.269 983.559 231 228 216
48.978 -67.769 983.231 233 232 219
49.478 -76.769 982.500 222 218 206
49.478 -76.269 982.718 217 213 201
49.478 -75.769 982.865 225 221 209
49.478 -75.269 983.061 237 234 222
49.478 -74.769 983.240 239 239 228
49.478 -74.269 983.319 238 238 228
49.478 -73.769 983.464 235 233 223
49.478 -73.269 983.584 234 231 220
49.478 -72.769 983.667 233 232 219
49.478 -72.269 983.628 235 233 221
49.478 -71.769 983.639 235 233 221
49.478 -71.269 983.731 236 234 222
49.478 -70.769 983.717 236 234 222
49.478 -70.269 983.614 236 234 222
49.478 -69.769 983.518 235 233 221
49.478 -69.269 983.460 233 231 218
49.478 -68.769 983.265 230 227 215
49.478 -68.269 982.967 230 227 215
49.478 -67.769 982.893 228 226 214
49.978 -76.769 982.203 233 230 217
49.978 -76.269 982.446 228 224 212
49.978 -75.769 982.619 238 233 220
49.978 -75.269 982.741 240 237 225
49.978 -74.769 982.882 239 237 227
49.978 -74.269 982.912 236 236 226
49.978 -73.769 983.006 234 233 222
49.978 -73.269 983.152 235 233 222
49.978 -72.769 983.219 234 232 221
49.978 -72.269 983.122 235 233 223
49.978 -71.769 983.075 236 233 224
49.978 -71.269 983.099 236 233 224
49.978 -70.769 983.180 237 234 225
49.978 -70.269 983.003 237 234 225
49.978 -69.769 982.932 237 234 225
49.978 -69.269 982.851 233 231 218
49.978 -68.269 982.523 230 227 214
49.978 -67.769 982.454 227 225 213
50.478 -76.769 981.985 228 222 210
50.478 -76.269 982.142 224 218 206
50.478 -75.769 982.310 235 230 217
50.478 -75.269 982.445 240 235 223
50.478 -74.769 982.544 238 235 226
50.478 -74.269 982.601 237 237 227
50.478 -73.769 982.617 236 236 226
50.478 -73.269 982.731 236 233 223
50.478 -72.769 982.732 236 233 224
50.478 -72.269 982.671 237 234 225
50.478 -71.769 982.628 236 233 224
50.478 -71.269 982.609 234 232 222
50.478 -70.769 982.724 236 233 224
50.478 -70.269 982.609 238 235 226
50.478 -69.769 982.615 237 234 224
50.478 -69.269 982.403 235 233 220
50.478 -68.769 982.279 232 228 216
50.478 -68.269 982.171 228 225 212
50.478 -67.769 982.145 230 225 213
50.978 -76.769 981.746 225 217 205
50.978 -76.269 981.787 221 215 201
50.978 -75.769 981.851 224 216 205
50.978 -75.269 982.064 234 230 217
50.978 -74.769 982.150 236 233 224
50.978 -74.269 982.262 236 236 226
46.478 -60.769 984.534 157 150 138
46.478 -60.269 984.429 195 188 176
46.478 -59.769 984.374 202 196 184
46.478 -59.269 984.254 228 222 210
46.478 -58.769 984.062 225 219 206
46.978 -63.769 984.508 219 207 191
46.978 -63.269 984.410 219 208 195
46.978 -62.769 984.319 222 214 201
46.978 -62.269 984.180 195 187 174
46.978 -61.769 984.095 167 158 145
46.978 -61.269 984.082 176 168 157
46.978 -60.769 984.038 160 154 142
46.978 -60.269 983.933 166 159 147
46.978 -59.769 983.838 202 196 184
46.978 -59.269 983.779 226 220 208
46.978 -58.769 983.622 228 224 212
47.478 -65.769 984.260 221 212 197
47.478 -65.269 984.108 219 210 195
47.478 -64.769 984.001 207 198 183
47.478 -64.269 983.935 208 199 184
47.478 -63.769 983.899 205 196 181
47.478 -63.269 983.834 219 210 196
47.478 -62.769 983.761 226 218 205
47.478 -62.269 983.694 216 208 195
47.478 -61.769 983.601 196 188 175
47.478 -61.269 983.563 198 192 180
47.478 -60.769 983.538 204 198 186
47.478 -60.269 983.479 200 194 182
47.478 -59.769 983.415 200 194 182
47.478 -59.269 983.354 230 224 212
47.478 -58.769 983.168 233 230 217
47.978 -67.269 984.459 213 207 192
47.978 -66.769 984.234 219 212 197
47.978 -66.269 983.973 218 211 196
47.978 -65.769 983.812 216 207 193
47.978 -65.269 983.658 216 207 192
47.978 -64.769 983.512 211 203 188
47.978 -64.269 983.434 207 199 184
47.978 -63.769 983.263 203 194 180
47.978 -63.269 983.190 222 213 199
47.978 -62.769 983.183 227 219 206
47.978 -62.269 983.150 231 222 209
47.978 -61.769 983.108 227 221 207
47.978 -61.269 983.063 231 224 212
47.978 -60.769 983.006 233 227 215
47.978 -60.269 982.963 207 201 189
47.978 -59.769 982.948 209 205 193
47.978 -59.269 982.907 230 225 213
47.978 -58.769 982.750 232 227 216
48.478 -67.269 983.596 227 224 212
48.478 -66.769 983.483 223 219 207
48.478 -66.269 983.414 223 218 205
48.478 -65.769 983.222 223 217 204
48.478 -65.269 983.119 226 220 206
48.478 -64.769 982.975 231 223 209
48.478 -64.269 982.821 228 222 206
48.478 -63.769 982.674 227 221 206
48.478 -63.269 982.650 223 216 201
48.478 -62.769 982.684 227 220 205
48.478 -62.269 982.622 228 221 206
48.478 -61.769 982.548 228 220 207
48.478 -61.269 982.523 221 215 202
48.478 -60.769 982.441 235 230 217
48.478 -60.269 982.372 233 227 216
48.478 -59.769 982.381 233 230 217
48.478 -59.269 982.380 232 228 215
48.478 -58.769 982.327 232 227 216
48.978 -67.269 983.187 233 231 218
48.978 -66.769 983.068 227 225 213
48.978 -66.269 982.981 228 224 211
48.978 -65.769 982.736 219 216 201
48.978 -65.269 982.625 218 212 198
48.978 -64.769 982.499 227 221 207
48.978 -64.269 982.369 228 222 206
48.978 -63.769 982.287 227 220 205
48.978 -63.269 982.273 224 217 200
48.978 -62.769 982.248 226 219 204
48.978 -62.269 982.196 225 218 202
48.978 -61.769 982.121 224 216 204
48.978 -61.269 982.097 214 207 194
48.978 -60.769 982.049 233 226 214
48.978 -60.269 981.925 236 231 218
48.978 -59.769 981.859 233 230 217
48.978 -59.269 981.985 230 225 213
48.978 -58.769 982.092 230 225 213
49.478 -67.269 982.827 230 227 215
49.478 -66.269 982.611 231 226 212
49.478 -65.769 982.412 226 220 206
49.478 -65.269 982.302 220 214 200
49.478 -64.769 982.185 227 221 207
49.478 -62.769 981.893 228 221 205
49.478 -62.269 981.821 225 218 202
49.478 -61.769 981.754 222 214 201
49.478 -61.269 981.718 226 218 205
49.478 -60.769 981.686 233 226 214
49.478 -60.269 981.613 233 226 214
49.478 -59.769 981.546 231 224 212
49.478 -59.269 981.652 226 220 208
49.478 -58.769 981.788 225 219 207
49.978 -67.269 982.422 227 225 213
49.978 -66.769 982.376 228 226 213
49.978 -66.269 982.229 231 226 211
49.978 -65.769 982.107 225 219 205
49.978 -65.269 981.981 221 215 201
49.978 -64.769 981.912 225 218 205
49.978 -64.269 981.861 225 218 202
49.978 -63.769 981.799 224 217 201
49.978 -63.269 981.688 225 218 202
49.978 -62.769 981.641 227 220 205
49.978 -62.269 981.544 224 217 201
49.978 -61.769 981.445 221 214 198
49.978 -61.269 981.422 222 214 201
49.978 -60.769 981.393 226 218 205
49.978 -60.269 981.387 214 206 193
49.978 -59.769 981.363 191 184 170
49.978 -59.269 981.362 175 168 154
49.978 -58.769 981.406 195 186 173
50.478 -66.769 982.084 228 225 213
50.478 -66.269 981.914 227 221 207
50.478 -65.769 981.860 224 218 205
50.478 -65.269 981.773 216 210 196
50.478 -64.769 981.744 218 210 197
50.478 -64.269 981.667 216 209 193
50.478 -63.769 981.565 216 209 193
50.478 -63.269 981.498 219 211 195
50.478 -62.769 981.431 222 215 199
50.478 -62.269 981.337 222 215 199
50.478 -61.269 981.254 219 210 196
50.478 -60.769 981.244 212 202 188
50.478 -59.769 981.216 151 140 125
50.478 -59.269 981.214 148 137 122
48.978 -58.269 982.033 231 224 212
48.978 -57.769 981.915 228 222 210
48.978 -57.269 981.835 223 217 205
48.978 -56.769 981.774 224 218 205
48.978 -56.269 981.716 225 219 205
48.978 -55.769 981.661 215 209 195
48.978 -55.269 981.572 197 191 176
48.978 -54.769 981.510 214 207 191
48.978 -54.269 981.480 213 206 190
48.978 -53.769 981.445 213 206 190
48.978 -53.269 981.420 225 219 204
48.978 -52.769 981.385 221 214 198
48.978 -52.269 981.362 223 216 200
48.978 -51.769 981.370 223 216 200
48.978 -51.269 981.389 219 210 195
48.978 -50.769 981.413 211 202 187
48.978 -50.269 981.448 209 200 185
49.478 -57.769 981.671 209 203 191
49.478 -57.269 981.614 201 193 182
49.478 -56.769 981.558 203 197 182
49.478 -56.269 981.509 224 218 202
49.478 -55.769 981.474 218 212 196
49.478 -55.269 981.436 209 202 186
49.478 -54.769 981.419 219 212 194
49.478 -54.269 981.404 226 219 201
49.478 -53.769 981.386 225 216 199
49.478 -53.269 981.365 225 218 202
49.478 -52.769 981.342 227 220 205
49.478 -52.269 981.336 209 202 186
49.478 -51.769 981.342 203 194 179
49.478 -51.269 981.353 209 200 185
49.478 -50.769 981.388 206 197 182
49.478 -50.269 981.432 219 210 195
49.478 -49.769 981.482 220 211 196
49.478 -49.269 981.535 221 211 197
49.978 -58.269 981.425 198 190 177
49.978 -57.769 981.426 202 194 180
49.978 -57.269 981.421 212 204 190
49.978 -56.769 981.436 216 209 193
49.978 -56.269 981.453 223 216 199
49.978 -55.769 981.436 226 219 201
49.978 -55.269 981.415 228 220 204
49.978 -54.769 981.409 228 219 202
49.978 -54.269 981.398 221 213 194
49.978 -53.769 981.396 211 202 183
49.978 -53.269 981.372 223 213 196
49.978 -52.769 981.367 224 214 197
49.978 -52.269 981.350 222 212 195
49.978 -51.769 981.359 206 196 179
49.978 -51.269 981.353 194 185 170
49.978 -50.769 981.399 201 192 177
49.978 -50.269 981.452 212 201 189
49.978 -49.769 981.501 210 200 186
49.978 -49.269 981.552 218 206 192
50.478 -57.769 981.289 230 220 205
50.478 -57.269 981.318 225 217 201
50.478 -56.769 981.376 223 215 199
50.478 -56.269 981.410 220 211 194
50.478 -55.769 981.423 213 204 187
50.478 -53.769 981.465 212 201 183
50.478 -53.269 981.455 222 210 193
50.478 -52.769 981.434 220 208 192
50.478 -52.269 981.410 214 202 186
50.478 -51.769 981.416 200 188 173
50.478 -51.269 981.409 198 187 173
50.478 -50.769 981.439 199 188 175
50.478 -49.769 981.535 179 167 154
50.478 -49.269 981.566 202 190 177
50.978 -56.769 981.369 223 214 199
50.978 -51.269 981.487 219 207 196
42.978 -49.269 984.475 224 217 201
43.478 -50.769 984.583 222 215 197
43.478 -50.269 984.413 230 222 206
43.478 -49.769 984.259 231 223 207
43.478 -49.269 984.101 233 225 209
43.978 -52.769 984.576 194 185 168
43.978 -52.269 984.478 214 207 189
43.978 -51.769 984.301 224 217 200
43.978 -51.269 984.226 224 218 200
43.978 -50.769 984.179 228 222 205
43.978 -50.269 983.950 232 225 209
43.978 -49.769 983.833 232 225 209
43.978 -49.269 983.795 233 226 210
44.478 -53.769 984.575 209 201 188
44.478 -53.269 984.389 195 184 171
44.478 -52.769 984.238 185 176 161
44.478 -52.269 984.067 197 188 173
44.478 -51.769 983.857 225 218 202
44.478 -51.269 983.806 228 222 206
44.478 -50.769 983.771 231 224 208
44.478 -50.269 983.588 234 228 212
44.478 -49.769 983.503 233 227 211
44.478 -49.269 983.481 233 227 211
44.978 -54.769 984.583 184 175 162
44.978 -54.269 984.376 206 198 185
44.978 -53.769 984.109 206 196 184
44.978 -53.269 983.984 203 192 180
44.978 -52.769 983.895 224 214 202
44.978 -52.269 983.767 231 220 208
44.978 -51.769 983.570 233 225 212
44.978 -51.269 983.449 234 228 214
44.978 -50.769 983.384 232 225 211
44.978 -50.269 983.292 234 228 212
44.978 -49.769 983.236 235 230 213
44.978 -49.269 983.187 233 226 210
45.478 -55.769 984.342 187 181 167
45.478 -55.269 984.152 170 162 149
45.478 -54.769 984.024 184 175 162
45.478 -54.269 983.890 205 197 184
45.478 -53.769 983.674 197 187 175
45.478 -53.269 983.579 214 206 195
45.478 -52.769 983.504 240 233 221
45.478 -52.269 983.436 238 231 217
45.478 -51.769 983.309 237 230 216
45.478 -51.269 983.175 236 228 215
45.478 -50.769 983.073 237 231 214
45.478 -50.269 983.010 233 227 211
45.478 -49.769 982.984 233 226 210
45.478 -49.269 982.862 233 226 210
45.978 -58.269 984.591 231 224 210
45.978 -57.769 984.530 228 223 208
45.978 -57.269 984.304 224 221 206
45.978 -56.769 984.140 221 216 202
45.978 -56.269 983.968 212 206 192
45.978 -55.769 983.744 200 194 180
45.978 -55.269 983.636 192 184 171
45.978 -54.769 983.489 187 179 166
45.978 -54.269 983.395 202 194 181
45.978 -53.769 983.291 196 188 175
45.978 -53.269 983.236 226 218 207
45.978 -52.769 983.172 240 233 221
45.978 -52.269 983.130 236 228 215
45.978 -51.769 983.061 233 224 211
45.978 -51.269 982.965 233 224 211
45.978 -50.769 982.888 235 228 212
45.978 -50.269 982.789 233 226 210
45.978 -49.769 982.723 231 224 208
45.978 -49.269 982.588 231 224 208
46.478 -58.269 983.938 225 221 208
46.478 -57.769 983.850 226 222 209
46.478 -57.269 983.701 223 219 207
46.478 -56.769 983.547 228 222 209
46.478 -56.269 983.430 230 223 210
46.478 -55.769 983.308 228 222 209
46.478 -55.269 983.220 218 212 198
46.478 -54.769 983.105 180 173 159
46.478 -54.269 982.988 188 180 167
46.478 -53.769 982.853 191 184 171
46.478 -53.269 982.802 218 210 199
46.478 -52.769 982.772 235 227 216
46.478 -52.269 982.740 233 224 211
46.478 -51.769 982.638 226 218 205
46.478 -51.269 982.576 230 221 208
46.478 -50.769 982.585 228 221 206
46.478 -50.269 982.429 231 224 208
46.478 -49.769 982.327 232 224 208
46.478 -49.269 982.271 226 219 204
46.978 -58.269 983.436 230 225 213
46.978 -57.769 983.330 233 230 217
46.978 -57.269 983.254 234 231 218
46.978 -56.769 983.123 234 231 219
46.978 -56.269 982.987 235 232 219
46.978 -55.769 982.837 235 230 217
46.978 -55.269 982.689 228 222 209
46.978 -54.769 982.631 190 184 171
46.978 -54.269 982.603 188 180 167
46.978 -53.769 982.415 221 213 200
46.978 -53.269 982.335 233 224 213
46.978 -52.769 982.321 234 226 215
46.978 -52.269 982.244 227 219 206
46.978 -51.769 982.183 215 207 194
46.978 -51.269 982.146 214 206 193
46.978 -50.769 982.140 203 196 181
46.978 -50.269 982.001 211 204 188
46.978 -49.769 981.913 221 214 198
46.978 -49.269 981.925 213 206 190
47.478 -58.269 982.953 233 230 217
47.478 -57.769 982.837 235 232 219
47.478 -57.269 982.772 235 233 220
47.478 -56.769 982.666 234 231 219
47.478 -56.269 982.555 235 232 220
47.478 -55.769 982.438 234 231 219
47.478 -55.269 982.321 233 226 214
47.478 -54.769 982.242 211 205 192
47.478 -54.269 982.221 214 208 194
47.478 -53.769 982.108 232 225 211
47.478 -53.269 982.023 233 225 214
47.478 -52.769 981.973 233 224 213
47.478 -52.269 981.906 217 209 196
47.478 -51.769 981.910 198 190 177
47.478 -51.269 981.864 194 186 173
47.478 -50.769 981.822 186 179 163
47.478 -50.269 981.745 203 196 180
47.478 -49.769 981.698 213 206 190
47.478 -49.269 981.720 216 208 192
47.978 -58.269 982.572 233 230 217
47.978 -57.769 982.431 233 231 217
47.978 -57.269 982.340 233 231 218
47.978 -56.769 982.286 233 228 218
47.978 -56.269 982.235 233 230 218
47.978 -55.769 982.188 232 227 216
47.978 -55.269 982.113 227 222 210
47.978 -54.769 982.012 215 209 196
47.978 -54.269 981.917 218 212 198
47.978 -53.769 981.839 223 217 204
47.978 -53.269 981.768 216 208 197
47.978 -52.769 981.723 200 192 181
47.978 -52.269 981.705 205 197 184
47.978 -51.769 981.678 199 191 178
47.978 -51.269 981.668 214 206 193
47.978 -50.769 981.631 203 196 180
47.978 -50.269 981.616 212 205 189
47.978 -49.769 981.608 226 219 204
47.978 -49.269 981.610 232 223 207
48.478 -58.269 982.267 233 230 217
48.478 -57.769 982.161 233 228 216
48.478 -57.269 982.060 234 230 217
48.478 -56.769 982.035 233 227 215
48.478 -56.269 982.017 233 227 216
48.478 -55.769 981.962 231 225 213
48.478 -55.269 981.839 224 218 205
48.478 -54.769 981.733 214 207 194
48.478 -54.269 981.669 200 193 180
48.478 -53.769 981.592 195 187 174
48.478 -53.269 981.546 201 194 181
48.478 -52.769 981.518 208 201 188
48.478 -52.269 981.495 224 216 204
48.478 -51.769 981.477 226 218 205
48.478 -51.269 981.501 232 222 210
48.478 -50.769 981.488 233 223 210
48.478 -50.269 981.509 226 218 202
48.478 -49.769 981.536 231 222 207
48.478 -49.269 981.558 230 220 205
48.978 -49.769 981.494 219 210 195
48.978 -49.269 981.534 226 217 202
40.478 -40.269 984.599 200 193 175
40.978 -42.269 984.594 228 220 201
40.978 -41.769 984.494 227 219 200
40.978 -41.269 984.335 224 216 197
40.978 -40.769 984.253 218 211 192
40.978 -40.269 984.139 215 208 190
41.478 -44.269 984.610 225 219 197
41.478 -43.769 984.461 227 219 200
41.478 -43.269 984.403 223 215 196
41.478 -42.769 984.251 226 218 199
41.478 -42.269 984.158 228 220 201
41.478 -41.769 984.077 228 220 201
41.478 -41.269 983.862 223 215 196
41.478 -40.769 983.807 219 212 193
41.478 -40.269 983.726 223 216 197
41.978 -45.769 984.490 218 211 193
41.978 -45.269 984.344 219 212 193
41.978 -44.769 984.258 220 213 192
41.978 -44.269 984.076 224 218 196
41.978 -43.769 983.905 223 215 196
41.978 -43.269 983.926 224 216 197
41.978 -42.769 983.782 223 215 196
41.978 -42.269 983.706 226 218 199
41.978 -41.769 983.629 227 219 200
41.978 -41.269 983.447 227 219 200
41.978 -40.769 983.399 227 219 200
41.978 -40.269 983.354 217 210 191
45.978 -48.769 982.446 225 218 202
45.978 -48.269 982.282 210 203 187
45.978 -47.769 982.192 206 199 183
45.978 -47.269 982.154 207 200 183
45.978 -46.769 982.068 210 203 186
45.978 -46.269 982.006 202 195 177
46.478 -48.769 982.147 218 211 195
46.478 -48.269 982.079 201 193 178
46.478 -47.769 982.025 199 191 175
46.478 -47.269 981.958 205 196 181
46.478 -46.769 981.902 210 201 186
46.478 -46.269 981.871 210 201 186
46.478 -45.769 981.899 217 208 193
46.478 -45.269 981.899 215 206 191
46.478 -44.769 981.904 210 201 186
46.478 -44.269 981.925 202 193 178
46.478 -43.769 981.927 209 199 187
46.478 -43.269 981.909 184 173 161
46.478 -42.769 981.919 190 181 167
46.478 -42.269 981.973 192 181 167
46.478 -41.769 982.017 176 164 150
46.478 -41.269 982.043 198 186 172
46.478 -40.769 982.072 217 206 190
46.478 -40.269 982.105 214 203 187
46.978 -48.769 981.872 205 196 181
46.978 -48.269 981.882 195 186 171
46.978 -47.769 981.832 195 186 171
46.978 -47.269 981.787 204 195 180
46.978 -46.769 981.777 195 186 171
46.978 -46.269 981.769 192 184 168
46.978 -45.769 981.821 212 203 188
46.978 -45.269 981.830 209 200 185
46.978 -44.769 981.859 207 198 183
46.978 -44.269 981.862 195 186 171
46.978 -43.769 981.878 210 200 188
46.978 -43.269 981.889 213 204 189
46.978 -42.769 981.922 212 201 187
46.978 -42.269 981.998 207 195 181
46.978 -41.769 982.045 212 200 184
46.978 -41.269 982.082 217 204 188
46.978 -40.769 982.113 222 211 193
46.978 -40.269 982.132 221 209 193
47.478 -48.769 981.712 222 213 198
47.478 -48.269 981.734 217 208 193
47.478 -47.769 981.700 188 179 164
47.478 -47.269 981.691 168 159 144
47.478 -46.769 981.702 172 163 148
47.478 -46.269 981.712 186 177 162
47.478 -45.769 981.764 204 195 180
47.478 -45.269 981.800 207 198 183
47.478 -44.769 981.850 198 189 174
47.478 -44.269 981.853 191 183 167
47.478 -43.769 981.864 193 184 170
47.478 -43.269 981.894 210 198 184
47.478 -42.769 981.945 228 216 202
47.478 -42.269 982.028 228 216 200
47.478 -41.769 982.080 226 213 197
47.478 -41.269 982.113 223 210 194
47.478 -40.769 982.147 223 210 193
47.478 -40.269 982.159 222 209 192
47.978 -48.769 981.616 228 219 205
47.978 -48.269 981.622 223 214 199
47.978 -47.769 981.640 168 158 143
47.978 -47.269 981.658 149 137 123
47.978 -46.769 981.684 155 143 131
47.978 -46.269 981.717 187 175 163
47.978 -45.769 981.747 205 193 181
47.978 -45.269 981.797 198 186 174
47.978 -44.769 981.846 180 168 156
47.978 -44.269 981.858 179 167 154
47.978 -43.769 981.882 174 162 148
47.978 -43.269 981.925 204 192 178
47.978 -42.769 981.990 226 214 199
47.978 -42.269 982.057 231 217 201
47.978 -41.769 982.121 228 215 199
47.978 -41.269 982.160 226 213 197
47.978 -40.769 982.181 227 213 196
47.978 -40.269 982.186 227 213 196
48.478 -48.769 981.562 222 211 195
48.478 -48.269 981.571 211 199 184
48.478 -47.769 981.598 200 188 172
48.478 -47.269 981.649 160 148 132
48.478 -46.769 981.714 166 151 138
48.478 -46.269 981.758 195 181 168
48.478 -45.769 981.789 205 192 179
48.478 -45.269 981.821 203 190 177
48.478 -44.769 981.863 196 184 171
48.478 -44.269 981.886 198 186 172
48.478 -43.769 981.920 207 195 183
48.478 -43.269 981.967 211 199 186
48.478 -42.769 982.036 223 211 196
48.478 -42.269 982.091 231 217 201
48.478 -41.769 982.158 231 217 201
48.478 -41.269 982.188 228 215 198
48.478 -40.769 982.196 226 212 196
48.478 -40.269 982.196 227 213 197
48.978 -48.769 981.551 200 189 173
48.978 -48.269 981.565 201 189 173
48.978 -47.769 981.587 214 202 186
48.978 -47.269 981.657 190 177 161
48.978 -46.769 981.760 186 172 157
48.978 -46.269 981.802 217 204 188
48.978 -45.769 981.840 223 210 194
48.978 -45.269 981.861 225 213 197
48.978 -44.769 981.884 226 214 198
48.978 -44.269 981.925 222 210 195
48.978 -43.769 981.959 220 208 196
48.978 -43.269 981.992 224 212 199
48.978 -42.769 982.055 227 215 201
48.978 -42.269 982.126 231 217 201
48.978 -41.769 982.182 228 215 198
48.978 -41.269 982.196 226 213 196
48.978 -40.769 982.193 226 213 197
48.978 -40.269 982.187 227 214 198
49.478 -48.769 981.561 218 206 190
49.478 -48.269 981.573 203 191 175
49.478 -47.769 981.612 201 189 173
49.478 -47.269 981.724 205 191 175
49.478 -46.769 981.807 191 179 162
49.478 -46.269 981.832 212 199 183
49.478 -45.769 981.866 228 215 199
49.478 -45.269 981.879 227 214 198
49.478 -44.769 981.887 225 213 197
49.478 -44.269 981.936 215 203 187
49.478 -43.769 981.961 205 193 179
49.478 -43.269 982.008 224 212 198
49.478 -42.769 982.059 228 216 200
49.478 -42.269 982.143 225 212 196
49.478 -41.769 982.172 223 210 194
49.478 -41.269 982.183 222 209 192
49.478 -40.769 982.187 224 211 195
49.478 -40.269 982.172 228 215 199
49.978 -48.769 981.576 214 202 188
49.978 -48.269 981.609 207 195 179
49.978 -47.769 981.682 206 193 178
49.978 -47.269 981.824 215 201 185
49.978 -46.769 981.862 194 181 165
49.978 -46.269 981.875 199 186 171
49.978 -45.769 981.890 212 199 183
49.978 -45.269 981.894 223 210 194
49.978 -44.769 981.911 226 214 198
49.978 -44.269 981.936 227 215 199
49.978 -43.769 981.967 226 214 200
49.978 -43.269 982.016 227 215 201
49.978 -42.769 982.053 226 214 198
49.978 -42.269 982.123 226 213 197
49.978 -41.769 982.143 226 213 197
49.978 -41.269 982.154 226 213 196
49.978 -40.769 982.156 225 212 196
49.978 -40.269 982.149 228 215 199
50.478 -48.769 981.607 194 181 167
50.478 -47.769 981.758 224 210 197
50.478 -47.269 981.875 227 213 199
50.478 -46.769 981.908 223 209 193
50.478 -46.269 981.915 215 202 186
50.478 -45.769 981.916 206 193 177
50.478 -45.269 981.922 219 206 190
50.478 -44.769 981.951 228 216 200
50.478 -44.269 981.950 231 218 202
50.478 -43.769 981.982 231 218 202
50.478 -43.269 982.016 230 217 202
50.478 -42.769 982.048 230 217 201
50.478 -42.269 982.103 228 215 199
50.478 -41.769 982.115 227 214 198
50.478 -41.269 982.119 225 212 196
50.478 -40.769 982.105 223 210 194
50.478 -40.269 982.092 226 213 197
50.978 -44.769 981.984 221 209 193
50.978 -40.769 982.035 224 211 195
42.978 -48.769 984.431 222 215 199
42.978 -48.269 984.408 219 212 196
42.978 -47.769 984.386 217 210 194
42.978 -47.269 984.282 211 204 188
42.978 -46.769 984.040 216 209 193
42.978 -46.269 983.812 212 205 189
42.978 -45.769 983.557 221 214 196
42.978 -45.269 983.452 221 213 195
42.978 -44.769 983.359 218 210 191
43.478 -48.769 984.010 228 221 205
43.478 -48.269 983.958 224 217 201
43.478 -47.769 983.895 224 217 201
43.478 -47.269 983.822 216 209 193
43.478 -46.769 983.486 213 206 190
43.478 -46.269 983.358 218 211 195
43.478 -45.769 983.165 219 212 194
43.478 -45.269 983.090 216 209 191
43.478 -44.769 983.010 223 215 196
43.478 -44.269 982.967 226 218 199
43.478 -43.769 982.913 227 218 201
43.478 -43.269 982.837 224 215 198
43.478 -42.769 982.812 202 193 176
43.478 -42.269 982.783 193 184 167
43.478 -41.769 982.664 206 197 180
43.478 -41.269 982.534 197 188 171
43.478 -40.769 982.521 186 179 161
43.478 -40.269 982.557 203 196 178
43.978 -48.769 983.709 230 223 207
43.978 -48.269 983.634 225 219 204
43.978 -47.769 983.423 230 223 207
43.978 -47.269 983.309 227 221 205
43.978 -46.769 983.068 216 209 193
43.978 -46.269 982.987 216 209 193
43.978 -45.769 982.923 209 202 184
43.978 -45.269 982.800 213 205 188
43.978 -44.769 982.737 222 213 197
43.978 -44.269 982.670 224 215 198
43.978 -43.769 982.602 224 215 200
43.978 -43.269 982.549 220 211 196
43.978 -42.769 982.515 198 189 174
43.978 -42.269 982.498 189 180 165
43.978 -41.769 982.418 200 191 176
43.978 -41.269 982.366 201 192 177
43.978 -40.769 982.364 205 198 182
43.978 -40.269 982.404 203 195 179
44.478 -48.769 983.483 234 228 212
44.478 -48.269 983.352 231 224 208
44.478 -47.769 983.091 231 224 208
44.478 -47.269 982.914 230 223 207
44.478 -46.769 982.764 216 209 193
44.478 -46.269 982.726 215 208 192
44.478 -45.769 982.698 198 191 175
44.478 -45.269 982.608 204 196 181
44.478 -44.769 982.522 211 202 187
44.478 -44.269 982.481 203 194 179
44.478 -43.769 982.375 206 197 182
44.478 -43.269 982.328 199 190 175
44.478 -42.769 982.283 191 183 167
44.478 -42.269 982.270 192 184 168
44.478 -41.769 982.273 201 192 177
44.478 -41.269 982.266 209 200 185
44.478 -40.769 982.262 211 200 185
44.478 -40.269 982.250 195 184 170
44.978 -48.769 983.184 233 226 210
44.978 -48.269 982.990 230 223 207
44.978 -47.769 982.787 225 219 204
44.978 -47.269 982.664 224 218 202
44.978 -46.769 982.547 222 215 199
44.978 -46.269 982.466 214 207 191
44.978 -45.769 982.418 188 181 165
44.978 -45.269 982.344 181 173 157
44.978 -44.769 982.251 190 181 166
44.978 -44.269 982.247 187 179 163
44.978 -43.769 982.168 192 183 171
44.978 -43.269 982.167 193 184 171
44.978 -42.769 982.154 189 179 167
44.978 -42.269 982.138 201 191 179
44.978 -41.769 982.161 202 192 180
44.978 -41.269 982.171 208 198 186
44.978 -40.769 982.178 206 194 180
44.978 -40.269 982.162 177 166 151
45.478 -48.769 982.789 227 220 205
45.478 -48.269 982.571 224 217 201
45.478 -47.769 982.427 225 218 202
45.478 -47.269 982.394 221 214 198
45.478 -46.769 982.319 216 209 191
45.478 -46.269 982.211 208 201 183
45.478 -45.769 982.165 191 184 166
45.478 -45.269 982.106 186 179 161
45.478 -44.769 982.056 189 183 164
45.478 -44.269 982.065 193 186 168
45.478 -43.769 982.050 196 188 175
45.478 -43.269 982.047 184 175 163
45.478 -42.769 982.041 184 173 161
45.478 -42.269 982.038 209 199 187
45.478 -41.769 982.056 190 181 166
45.478 -41.269 982.068 183 170 156
45.478 -40.769 982.092 173 164 147
45.478 -40.269 982.117 180 171 154
45.978 -45.769 982.001 200 192 175
45.978 -45.269 981.989 207 199 182
45.978 -44.769 981.977 205 198 181
45.978 -44.269 982.002 212 204 188
45.978 -43.769 981.991 214 206 193
45.978 -43.269 981.961 192 183 171
45.978 -42.769 981.960 177 168 155
45.978 -42.269 981.985 198 189 174
45.978 -41.769 982.016 191 179 165
45.978 -41.269 982.022 183 170 156
45.978 -40.769 982.047 203 193 177
45.978 -40.269 982.096 211 202 185
42.478 -47.269 984.600 210 203 187
42.478 -46.769 984.481 217 210 194
42.478 -46.269 984.260 215 208 192
42.478 -45.769 984.016 224 217 199
42.478 -45.269 983.869 225 218 199
42.478 -44.769 983.769 221 213 192
42.478 -44.269 983.622 226 218 197
42.478 -43.769 983.540 223 215 196
42.478 -43.269 983.559 221 213 194
42.478 -42.769 983.364 217 209 190
42.478 -42.269 983.295 221 213 194
42.478 -41.769 983.213 222 214 195
42.478 -41.269 983.078 226 218 199
42.478 -40.769 983.027 225 217 199
42.478 -40.269 983.004 221 214 196
42.978 -44.269 983.305 226 218 199
42.978 -43.769 983.282 225 217 198
42.978 -43.269 983.201 223 215 196
42.978 -42.769 983.069 215 207 188
42.978 -42.269 983.020 212 204 185
42.978 -41.769 982.915 216 208 189
42.978 -41.269 982.760 214 206 187
42.978 -40.769 982.731 213 205 187
42.978 -40.269 982.727 218 211 193
39.478 -35.769 984.589 203 196 178
39.478 -35.269 984.509 217 210 192
39.478 -34.769 984.471 218 211 193
39.478 -34.269 984.466 214 207 191
39.478 -33.769 984.581 221 214 198
39.978 -38.769 984.624 221 214 198
39.978 -38.269 984.401 218 211 195
39.978 -37.769 984.347 216 209 193
39.978 -37.269 984.323 212 204 189
39.978 -36.769 984.358 193 186 171
39.978 -36.269 984.294 186 179 163
39.978 -35.769 984.211 204 197 180
39.978 -35.269 984.121 215 208 190
39.978 -34.769 984.097 220 213 195
39.978 -34.269 984.125 225 218 202
39.978 -33.769 984.265 220 213 198
39.978 -33.269 984.431 200 193 177
39.978 -32.769 984.565 192 185 170
40.478 -39.769 984.503 195 188 171
40.478 -39.269 984.276 214 207 190
40.478 -38.769 984.141 221 214 198
40.478 -38.269 983.994 215 208 192
40.478 -37.769 983.998 219 211 197
40.478 -37.269 983.955 212 204 191
40.478 -36.769 983.937 200 193 179
40.478 -36.269 983.852 197 190 174
40.478 -35.769 983.804 208 201 185
40.478 -35.269 983.760 218 211 194
40.478 -34.769 983.759 224 217 199
40.478 -34.269 983.852 231 222 208
40.478 -33.769 984.006 212 204 191
40.478 -33.269 984.111 188 180 167
40.478 -32.769 984.221 174 167 153
40.478 -32.269 984.403 193 184 171
40.978 -39.769 984.013 210 203 185
40.978 -39.269 983.821 222 215 197
40.978 -38.769 983.694 232 224 208
40.978 -38.269 983.650 220 212 199
40.978 -37.769 983.664 218 210 197
40.978 -37.269 983.615 209 201 188
40.978 -36.769 983.573 202 194 181
40.978 -36.269 983.501 203 195 182
40.978 -35.769 983.472 200 193 177
40.978 -35.269 983.421 205 198 182
40.978 -34.769 983.419 219 212 196
40.978 -34.269 983.527 221 213 200
40.978 -33.769 983.703 209 201 188
40.978 -33.269 983.801 192 184 173
40.978 -32.769 983.858 186 179 167
40.978 -32.269 983.971 203 193 181
40.978 -31.769 984.117 225 216 201
40.978 -31.269 984.237 233 224 208
41.478 -39.769 983.624 222 215 197
41.478 -39.269 983.526 221 214 197
41.478 -38.769 983.406 224 216 202
41.478 -38.269 983.359 222 214 201
41.478 -37.769 983.343 222 214 201
41.478 -37.269 983.337 212 204 191
41.478 -36.769 983.302 203 195 182
41.478 -36.269 983.243 200 192 179
41.478 -35.769 983.190 189 183 166
41.478 -35.269 983.160 202 195 179
41.478 -34.769 983.163 208 201 185
41.478 -34.269 983.229 208 200 187
41.478 -33.769 983.369 195 187 176
41.478 -33.269 983.513 185 177 166
41.478 -32.769 983.573 191 184 172
41.478 -32.269 983.640 200 190 178
41.478 -31.769 983.758 213 204 189
41.478 -31.269 983.885 233 223 208
41.978 -39.769 983.251 221 213 195
41.978 -39.269 983.224 223 216 199
41.978 -38.769 983.158 222 215 201
41.978 -38.269 983.095 217 210 197
41.978 -37.769 983.059 207 199 186
41.978 -37.269 983.072 198 190 178
41.978 -36.769 983.035 193 185 172
41.978 -36.269 982.990 191 184 171
41.978 -35.769 982.949 174 167 151
41.978 -35.269 982.975 188 181 165
41.978 -34.769 982.994 206 198 182
41.978 -34.269 983.048 208 200 187
41.978 -33.769 983.138 177 169 158
41.978 -33.269 983.264 160 152 141
41.978 -32.769 983.339 179 170 159
41.978 -32.269 983.372 188 179 167
41.978 -31.769 983.440 183 173 159
41.978 -31.269 983.586 193 185 171
44.978 -39.769 982.176 205 193 179
45.478 -39.769 982.123 203 194 179
45.478 -39.269 982.141 208 199 184
45.478 -38.769 982.163 208 199 184
45.478 -38.269 982.197 210 200 188
45.478 -37.769 982.220 216 206 192
45.478 -37.269 982.216 224 215 198
45.478 -36.769 982.220 222 213 196
45.478 -36.269 982.233 220 211 194
45.478 -35.769 982.250 220 211 194
45.478 -35.269 982.250 215 206 189
45.478 -34.769 982.253 211 202 185
45.478 -34.269 982.266 200 188 174
45.478 -33.769 982.271 195 184 170
45.478 -33.269 982.273 211 199 185
45.478 -32.769 982.262 180 168 154
45.478 -32.269 982.267 158 146 132
45.478 -31.769 982.227 184 172 158
45.478 -31.269 982.173 210 197 183
45.978 -39.769 982.107 203 194 177
45.978 -39.269 982.128 191 183 167
45.978 -38.769 982.153 188 179 164
45.978 -38.269 982.186 199 190 175
45.978 -37.769 982.207 212 203 189
45.978 -37.269 982.205 201 192 175
45.978 -36.769 982.203 201 192 175
45.978 -36.269 982.206 184 175 158
45.978 -35.769 982.216 205 196 179
45.978 -35.269 982.205 195 186 170
45.978 -34.769 982.199 207 198 181
45.978 -34.269 982.208 217 205 191
45.978 -33.769 982.206 218 206 192
45.978 -33.269 982.200 216 204 190
45.978 -32.769 982.177 210 198 184
45.978 -32.269 982.158 181 169 155
45.978 -31.769 982.100 184 171 157
45.978 -31.269 982.038 217 205 190
46.478 -39.769 982.130 218 207 190
46.478 -39.269 982.153 186 175 159
46.478 -38.769 982.173 184 173 158
46.478 -38.269 982.203 209 198 183
46.478 -37.769 982.215 215 204 190
46.478 -37.269 982.216 205 193 177
46.478 -36.769 982.213 208 197 180
46.478 -36.269 982.198 202 191 175
46.478 -35.769 982.192 213 202 186
46.478 -35.269 982.170 217 206 190
46.478 -34.769 982.159 218 206 190
46.478 -34.269 982.163 220 207 192
46.478 -33.769 982.145 222 209 193
46.478 -33.269 982.120 221 208 193
46.478 -32.769 982.089 219 206 190
46.478 -32.269 982.007 216 203 188
46.478 -31.769 981.901 213 200 184
46.478 -31.269 981.826 220 208 192
46.978 -39.769 982.156 222 210 194
46.978 -39.269 982.171 221 209 193
46.978 -38.769 982.186 218 206 192
46.978 -38.269 982.217 216 204 190
46.978 -37.769 982.219 212 200 186
46.978 -37.269 982.218 222 210 194
46.978 -36.769 982.207 223 211 195
46.978 -36.269 982.182 221 209 193
46.978 -35.769 982.164 224 212 196
46.978 -35.269 982.131 218 206 190
46.978 -34.769 982.100 223 211 195
46.978 -34.269 982.060 225 212 196
46.978 -33.769 982.003 221 208 192
46.978 -33.269 981.957 224 211 195
46.978 -32.769 981.877 225 212 196
46.978 -32.269 981.767 219 206 190
46.978 -31.769 981.659 214 201 185
46.978 -31.269 981.508 222 209 193
47.478 -39.769 982.171 224 211 194
47.478 -39.269 982.188 225 212 196
47.478 -38.769 982.198 225 212 196
47.478 -38.269 982.214 225 212 196
47.478 -37.769 982.212 222 208 195
47.478 -37.269 982.200 222 209 193
47.478 -36.769 982.177 219 206 190
47.478 -36.269 982.141 219 206 190
47.478 -35.769 982.106 221 208 192
47.478 -35.269 982.080 224 211 195
47.478 -34.769 982.012 231 217 201
47.478 -34.269 981.911 226 213 197
47.478 -33.769 981.809 222 209 193
47.478 -33.269 981.711 224 211 195
47.478 -32.769 981.572 232 218 202
47.478 -32.269 981.461 221 208 192
47.478 -31.769 981.364 216 203 187
47.478 -31.269 981.161 216 203 187
47.978 -39.769 982.175 228 214 198
47.978 -39.269 982.183 226 212 197
47.978 -38.769 982.182 225 211 195
47.978 -38.269 982.190 225 211 195
47.978 -37.769 982.194 224 210 195
47.978 -37.269 982.176 217 204 188
47.978 -36.769 982.146 211 197 181
47.978 -36.269 982.102 211 197 182
47.978 -35.769 982.050 217 203 187
47.978 -35.269 981.992 224 210 194
47.978 -34.769 981.871 225 211 195
47.978 -34.269 981.744 220 206 191
47.978 -33.769 981.638 224 210 194
47.978 -33.269 981.451 224 211 195
47.978 -32.769 981.264 226 212 196
47.978 -32.269 981.112 226 212 196
47.978 -31.769 980.933 217 203 187
47.978 -31.269 980.730 216 202 186
48.478 -39.769 982.172 228 215 199
48.478 -39.269 982.150 225 212 196
48.478 -38.769 982.152 221 207 191
48.478 -38.269 982.158 220 207 191
48.478 -37.769 982.165 221 207 192
48.478 -37.269 982.150 216 202 186
48.478 -36.769 982.111 212 198 182
48.478 -36.269 982.064 211 198 182
48.478 -35.769 981.983 211 197 182
48.478 -35.269 981.853 211 195 180
48.478 -34.769 981.706 209 193 178
48.478 -34.269 981.594 212 196 181
48.478 -33.769 981.427 212 196 181
48.478 -33.269 981.173 211 195 180
48.478 -32.769 980.929 220 204 189
48.478 -32.269 980.722 223 209 194
48.478 -31.769 980.552 219 205 191
48.478 -31.269 980.374 212 198 184
48.978 -39.769 982.158 228 215 199
48.978 -39.269 982.128 218 205 189
48.978 -38.769 982.129 214 201 185
48.978 -38.269 982.135 209 196 180
48.978 -37.769 982.136 211 198 182
48.978 -37.269 982.131 216 203 187
48.978 -36.769 982.092 219 206 190
48.978 -36.269 982.032 214 201 185
48.978 -35.769 981.892 211 198 182
48.978 -35.269 981.687 213 197 182
48.978 -34.769 981.568 212 196 181
48.978 -34.269 981.427 214 198 183
48.978 -33.769 981.202 205 189 174
48.978 -33.269 980.946 206 190 174
48.978 -32.769 980.646 206 190 174
48.978 -32.269 980.410 203 190 174
48.978 -31.769 980.273 201 187 174
48.978 -31.269 980.140 203 190 177
49.478 -39.769 982.133 231 217 201
49.478 -39.269 982.112 224 211 195
49.478 -38.769 982.100 221 208 192
49.478 -38.269 982.091 214 201 185
49.478 -37.769 982.082 214 201 185
49.478 -37.269 982.082 217 204 188
49.478 -36.769 982.057 222 209 193
49.478 -36.269 981.976 223 210 194
49.478 -35.769 981.791 215 202 186
49.478 -35.269 981.574 218 202 187
49.478 -34.769 981.436 222 206 191
49.478 -34.269 981.237 214 198 183
49.478 -33.769 981.000 201 185 171
49.478 -33.269 980.744 202 186 171
49.478 -32.769 980.485 208 192 176
49.478 -32.269 980.249 204 191 175
49.478 -31.769 980.075 199 185 172
49.478 -31.269 979.893 193 179 168
49.978 -39.769 982.104 227 214 198
49.978 -39.269 982.070 228 215 199
49.978 -38.769 982.060 224 211 195
49.978 -38.269 982.035 220 207 191
49.978 -37.769 982.011 219 206 190
49.978 -37.269 982.018 218 205 189
49.978 -36.769 981.960 223 210 194
49.978 -36.269 981.843 227 214 198
49.978 -35.769 981.671 218 205 189
49.978 -35.269 981.499 217 201 186
49.978 -34.769 981.302 224 208 193
49.978 -34.269 981.099 220 204 189
49.978 -33.769 980.863 194 179 163
49.978 -33.269 980.506 203 187 171
49.978 -32.769 980.262 213 197 181
49.978 -32.269 980.107 216 203 187
49.978 -31.769 979.884 213 199 186
49.978 -31.269 979.661 200 187 176
50.478 -39.769 982.052 226 213 197
50.478 -39.269 982.002 226 213 197
50.478 -38.769 981.980 224 211 195
50.478 -38.269 981.940 224 211 195
50.478 -37.769 981.929 223 210 194
50.478 -37.269 981.922 224 211 195
50.478 -36.769 981.827 221 208 192
50.478 -36.269 981.682 218 205 189
50.478 -35.769 981.535 213 200 184
50.478 -35.269 981.368 218 202 187
50.478 -34.769 981.170 223 207 192
50.478 -34.269 980.938 210 194 179
50.478 -33.769 980.688 180 164 149
50.478 -33.269 980.342 205 189 173
50.478 -32.769 980.074 211 195 179
50.478 -32.269 979.956 212 199 183
50.478 -31.769 979.716 213 199 186
50.478 -31.269 979.533 207 193 183
50.978 -37.269 981.713 221 208 192
50.978 -36.769 981.626 216 203 187
50.978 -36.269 981.503 211 198 182
50.978 -35.769 981.353 214 201 185
50.978 -35.269 981.193 223 207 192
50.978 -34.769 980.981 222 206 191
50.978 -34.269 980.711 207 191 176
50.978 -33.769 980.474 175 159 144
50.978 -33.269 980.221 198 183 166
50.978 -32.769 979.975 212 196 180
50.978 -32.269 979.786 215 202 186
50.978 -31.769 979.586 214 200 187
44.478 -39.769 982.257 201 192 177
44.478 -39.269 982.282 211 202 187
44.978 -39.269 982.200 212 201 187
44.978 -38.769 982.228 212 203 188
44.978 -38.269 982.248 220 213 197
44.978 -37.769 982.260 224 217 201
44.978 -37.269 982.254 218 209 192
44.978 -36.769 982.262 219 210 193
44.978 -36.269 982.269 213 204 187
44.978 -35.769 982.291 211 202 185
44.978 -35.269 982.307 216 207 190
44.978 -34.769 982.313 217 208 191
44.978 -34.269 982.326 213 201 187
44.978 -33.769 982.339 205 193 179
44.978 -33.269 982.356 194 183 168
44.978 -32.769 982.357 156 144 131
44.978 -32.269 982.369 170 158 146
44.978 -31.769 982.366 209 197 185
44.978 -31.269 982.344 209 197 185
42.478 -39.769 982.952 219 212 194
42.478 -39.269 982.974 212 205 189
42.478 -38.769 982.907 203 195 182
42.478 -38.269 982.856 188 180 167
42.478 -37.769 982.817 174 167 154
42.478 -37.269 982.817 168 157 147
42.478 -36.769 982.790 179 169 157
42.478 -36.269 982.783 196 187 173
42.478 -35.769 982.787 197 188 173
42.478 -35.269 982.820 205 196 179
42.478 -34.769 982.850 211 202 185
42.478 -34.269 982.888 209 201 188
42.478 -33.769 982.938 186 179 165
42.478 -33.269 983.002 162 154 142
42.478 -32.769 983.064 168 159 148
42.478 -32.269 983.088 168 160 149
42.478 -31.769 983.112 164 156 145
42.478 -31.269 983.234 168 159 147
42.978 -39.769 982.749 212 205 187
42.978 -39.269 982.763 204 197 181
42.978 -38.769 982.720 201 191 179
42.978 -38.269 982.690 172 162 150
42.978 -37.769 982.663 161 151 139
42.978 -37.269 982.646 177 168 155
42.978 -36.769 982.625 194 184 172
42.978 -36.269 982.642 196 187 172
42.978 -35.769 982.678 204 195 180
42.978 -35.269 982.699 212 203 186
42.978 -34.769 982.711 213 204 187
42.978 -34.269 982.727 212 202 189
42.978 -33.769 982.743 198 188 176
42.978 -33.269 982.777 176 167 154
42.978 -32.769 982.826 172 162 152
42.978 -32.269 982.860 172 162 152
42.978 -31.769 982.891 168 158 148
42.978 -31.269 982.953 162 152 142
43.478 -39.769 982.569 206 199 181
43.478 -39.269 982.547 199 191 175
43.478 -38.769 982.542 188 179 166
43.478 -38.269 982.560 169 159 147
43.478 -37.769 982.554 170 158 146
43.478 -37.269 982.544 192 183 171
43.478 -36.769 982.538 195 186 172
43.478 -36.269 982.546 199 190 175
43.478 -35.769 982.572 212 203 188
43.478 -35.269 982.581 217 208 191
43.478 -34.769 982.598 215 206 189
43.478 -34.269 982.611 214 204 191
43.478 -33.769 982.612 213 203 191
43.478 -33.269 982.629 199 189 177
43.478 -32.769 982.654 196 186 174
43.478 -32.269 982.678 185 175 165
43.478 -31.769 982.711 164 154 144
43.478 -31.269 982.736 155 145 135
43.978 -39.769 982.394 204 196 181
43.978 -39.269 982.390 210 201 186
43.978 -38.769 982.411 197 188 173
43.978 -38.269 982.440 186 175 160
